# .PCD v0.7 - Point Cloud Data file format
VERSION 0.7
FIELDS x y z rgb
SIZE 4 4 4 4
TYPE F F F F
COUNT 1 1 1 1
WIDTH 975
HEIGHT 1
VIEWPOINT 0 0 0 1 0 0 0
POINTS 975
DATA ascii
-0.0007019107 0.0077209771 0.73699999 1.0124508e-39
0.00070191093 0.0077209696 0.73700005 1.1043045e-39
0.0021057122 0.0077209771 0.73700005 1.2876013e-39
0.0035047655 0.0077105016 0.73600006 1.3812151e-39
0.0049133366 0.0077209771 0.73700005 1.3826332e-39
0.0063085798 0.0077105016 0.73600006 1.5666447e-39
0.0077104969 0.0077104867 0.73600006 1.7514171e-39
0.0091123963 0.0077104941 0.73600006 1.5677699e-39
0.010514293 0.0077104941 0.736 1.2926362e-39
0.011916195 0.0077104941 0.73600006 1.475245e-39
0.013318094 0.0077104941 0.73600006 1.6567201e-39
0.014720012 0.0077105016 0.73600006 1.2878984e-39
0.016121909 0.0077104941 0.73600006 8.2838179e-40
0.017523827 0.0077104792 0.73600006 6.4580661e-40
0.018925723 0.0077104941 0.73600006 4.6248595e-40
0.020327643 0.0077104792 0.73600006 5.539529e-40
0.02172954 0.0077104941 0.73600006 6.4616114e-40
0.023131438 0.0077104867 0.736 8.3020348e-40
0.024533354 0.0077104941 0.73600006 1.1060729e-39
0.025935251 0.0077104941 0.73600006 1.1071519e-39
0.027337153 0.0077104867 0.73600006 1.1971951e-39
0.028778102 0.0077209771 0.73700005 9.2097259e-40
0.030181905 0.0077209771 0.73699999 5.5215504e-40
0.03167145 0.0077419057 0.73900002 5.5319059e-40
0.033079065 0.0077419207 0.73900002 6.4614573e-40
0.034533344 0.0077524036 0.74000001 1.1053652e-39
0.03594286 0.0077523962 0.74000001 1.6560181e-39
0.03745335 0.0077733472 0.74200004 1.1050037e-39
0.03886671 0.0077733472 0.7420001 5.5398373e-40
0.040334299 0.0077838153 0.74300003 1.0156653e-39
0.041749544 0.0077838227 0.74300003 1.4842567e-39
0.043280963 0.0078047737 0.74500006 3.4214972e-39
0.044700019 0.0078047663 0.74500006 5.4483395e-39
0.046119053 0.0078047737 0.74500006 4.8008303e-39
0.047729537 0.0078362003 0.74800003 4.2544276e-39
0.049285725 0.0078571588 0.75 3.1362055e-39
0.050714292 0.0078571513 0.75 2.1191963e-39
0.052351438 0.0078885853 0.75300002 2.1227808e-39
0.054000027 0.0079200044 0.75600004 2.142249e-39
0.055586684 0.0079409629 0.75800002 7.0243337e-39
0.057030503 0.0079409704 0.75800002 1.1825586e-38
0.058628585 0.0079619214 0.76000005 1.2368324e-38
0.060155235 0.0079723895 0.76100004 1.3020347e-38
0.061604764 0.0079723969 0.76100004 1.1150481e-38
0.063054301 0.0079723969 0.76100004 9.2779243e-39
0.064503796 0.0079724044 0.76099998 7.8261608e-39
0.065953329 0.0079723895 0.76100004 6.3489414e-39
0.067314304 0.0079619065 0.76000005 6.1739206e-39
0.068580963 0.0079409629 0.75799996 6.0049521e-39
0.070024788 0.0079409853 0.75800002 8.1175202e-39
0.071468607 0.0079409704 0.75800002 1.0145052e-38
-0.02556666 0.0094962046 0.76700002 2.4911331e-39
-0.02410569 0.0094962046 0.76700002 3.3158547e-39
-0.022379037 0.0093847811 0.75800002 3.3144156e-39
-0.020935217 0.0093847737 0.75800002 3.3144086e-39
-0.019439992 0.0093600154 0.75600004 2.7626711e-39
-0.017904758 0.0093104914 0.75200003 2.1194499e-39
-0.016428579 0.0092857182 0.75 1.2932766e-39
-0.014999977 0.0092857257 0.75000006 3.7279724e-40
-0.013535224 0.0092609599 0.74800003 5.5398513e-40
-0.012094301 0.009248592 0.74699998 6.4617516e-40
-0.010671412 0.0092485771 0.74699998 7.3728898e-40
-0.0092238141 0.0092238262 0.74500006 8.2876575e-40
-0.0078047616 0.0092238188 0.74500006 9.2024391e-40
-0.0063685575 0.0091990605 0.74300003 9.2058162e-40
-0.0049533146 0.009199068 0.74300003 7.3796581e-40
-0.0035333016 0.0091866627 0.7420001 4.6212161e-40
-0.0021114002 0.009149529 0.73900002 8.2984335e-40
-0.00070378918 0.0091495365 0.73900002 1.1039289e-39
0.00070191373 0.0091247782 0.73700005 1.195061e-39
0.0021057159 0.0091247931 0.73700005 1.2879614e-39
0.0035095171 0.0091247857 0.73699999 1.3812221e-39
0.0049133385 0.0091247857 0.73700005 1.4744827e-39
0.0063171415 0.0091247782 0.73699999 1.751057e-39
0.0077104764 0.0091124028 0.736 1.934742e-39
0.0091123935 0.0091123879 0.73600006 1.7518038e-39
0.010514292 0.0091124102 0.736 1.5674224e-39
0.01191621 0.0091123953 0.73600006 1.7507431e-39
0.013318107 0.0091124102 0.73600006 1.932235e-39
0.014720024 0.0091123879 0.73600006 1.3794032e-39
0.016121909 0.0091123953 0.73600006 8.2876014e-40
0.017523825 0.0091123953 0.73600006 7.3837079e-40
0.018925723 0.0091124028 0.73600006 6.4617375e-40
0.020327622 0.0091124028 0.736 6.4617095e-40
0.02172954 0.0091123953 0.73600006 6.4581642e-40
0.023131438 0.0091123953 0.73600006 8.2949162e-40
0.024533354 0.0091124028 0.73600006 9.2204878e-40
0.025935251 0.0091123953 0.73600006 1.2000692e-39
0.027337167 0.0091123879 0.73600006 1.4737806e-39
0.028739065 0.0091123953 0.73600006 1.105361e-39
0.030181909 0.0091247857 0.73699999 6.4580241e-40
0.031671468 0.009149529 0.73900008 8.2909085e-40
0.033123836 0.009161897 0.74000007 9.2095857e-40
0.034533352 0.0091619194 0.74000007 1.1964973e-39
0.036040008 0.0091866851 0.74200004 1.4712583e-39
0.037453346 0.0091866776 0.74200004 1.1950077e-39
0.038866688 0.0091866851 0.74200004 9.202285e-40
0.040334307 0.009199068 0.74300003 1.0124325e-39
0.041749548 0.009199053 0.74300003 1.0182199e-39
0.043280959 0.0092238262 0.74500006 1.4799576e-39
0.044700012 0.0092238188 0.74500006 1.943807e-39
0.046242855 0.0092485845 0.74699998 2.6767043e-39
0.047729529 0.0092609674 0.74800003 3.3188031e-39
0.04941716 0.0093104839 0.75200003 1.8411534e-39
0.051052388 0.0093476251 0.75500005 3.7359458e-40
0.052560002 0.0093600079 0.75600004 8.2991761e-40
0.053999998 0.0093600154 0.75600004 1.2141607e-39
0.055733338 0.0094095394 0.76000005 6.1919708e-39
0.057180949 0.0094095394 0.75999999 1.1075077e-38
0.058705717 0.0094219297 0.76100004 1.5051309e-38
0.060155228 0.0094219297 0.76099998 1.8895759e-38
0.061604749 0.0094219223 0.76100004 1.8720254e-38
0.063054278 0.0094219297 0.76100004 1.8511845e-38
0.064503811 0.0094219223 0.76100004 1.1990463e-38
0.065953307 0.0094219223 0.76099998 5.3527766e-39
0.067314297 0.0094095394 0.76000005 3.1228343e-39
0.068580978 0.0093847886 0.75799996 9.3783581e-40
0.070024781 0.0093847737 0.75800002 5.353871e-39
0.071468584 0.0093847811 0.75800002 9.6873557e-39
0.072912402 0.0093847811 0.75800002 1.0239801e-38
-0.025566664 0.010957159 0.76700002 1.9372559e-39
-0.024105674 0.010957152 0.76700002 2.672293e-39
-0.020935204 0.010828584 0.75800002 3.222936e-39
-0.019439984 0.010800011 0.75600004 2.8537934e-39
-0.017904758 0.010742873 0.75200003 2.4850165e-39
-0.016428558 0.0107143 0.75 1.6588543e-39
-0.015000003 0.010714307 0.75 8.3164401e-40
-0.013535258 0.010685734 0.74799997 8.3095177e-40
-0.012094277 0.010671429 0.74700004 8.3094196e-40
-0.010671416 0.010671437 0.74700004 1.1046436e-39
-0.0092238188 0.010642879 0.74500006 1.379434e-39
-0.0078047663 0.010642871 0.74500006 1.195763e-39
-0.0063685686 0.010614306 0.74300003 9.2060685e-40
-0.0049533257 0.010614298 0.74300003 8.2876294e-40
-0.0035380821 0.010614306 0.74300003 7.3585545e-40
-0.0021142734 0.010571443 0.74000001 1.0117249e-39
-0.00070377241 0.010557137 0.73900008 1.3787179e-39
0.00070383877 0.010557152 0.73900008 1.287251e-39
0.0021057178 0.010528594 0.73699999 1.2883216e-39
0.0035095208 0.010528594 0.73699999 1.3812277e-39
0.0049133422 0.010528594 0.73700005 1.5663336e-39
0.0063171433 0.010528587 0.73699999 1.9333168e-39
0.0077104755 0.010514297 0.736 2.3921398e-39
0.0091123926 0.010514304 0.73600006 1.9333252e-39
0.01051429 0.010514297 0.73600006 1.5656273e-39
0.011916209 0.010514304 0.73600006 1.4734345e-39
0.013318106 0.010514297 0.73600006 1.4727086e-39
0.014720024 0.010514297 0.73600006 1.1039233e-39
0.01612192 0.010514304 0.73600006 7.362268e-40
0.017523807 0.010514311 0.73600006 7.3694707e-40
0.018925738 0.010514297 0.73600006 7.3694987e-40
0.020327618 0.010514304 0.73600006 7.3695267e-40
0.02172954 0.010514289 0.73600006 8.2842523e-40
0.023162872 0.010528587 0.73700005 9.2025652e-40
0.024533354 0.010514297 0.73600006 1.0120962e-39
0.025935251 0.010514311 0.73600006 1.3815934e-39
0.027337149 0.010514304 0.736 1.7489312e-39
0.028739065 0.010514311 0.73600006 1.2893908e-39
0.030181898 0.010528594 0.73699999 8.3056642e-40
0.03167145 0.010557145 0.73900008 8.2876715e-40
0.033123821 0.010571428 0.74000001 9.1954747e-40
0.0346267 0.010600008 0.74200004 1.1035982e-39
0.036040027 0.010600008 0.74200004 1.2868572e-39
0.037453365 0.010600016 0.74200004 1.1949685e-39
0.038866688 0.010600008 0.74200004 1.1949951e-39
0.040334307 0.010614298 0.74300003 1.1971741e-39
0.041749548 0.010614291 0.74300003 1.1979028e-39
0.043164797 0.010614291 0.74300003 1.4752142e-39
0.044700008 0.010642864 0.74500006 1.751092e-39
0.04624287 0.010671444 0.74700004 2.6712518e-39
0.047729529 0.01068572 0.74800003 3.6760515e-39
0.04941716 0.010742873 0.75200003 4.2360216e-39
0.051052403 0.010785721 0.75500005 4.8771114e-39
0.052560009 0.010800004 0.75600004 4.8814498e-39
0.054357134 0.010871455 0.76100004 4.8756947e-39
0.055806667 0.01087144 0.76100004 6.544501e-39
0.05718096 0.01085715 0.76000005 8.2930679e-39
0.058705699 0.010871455 0.76100004 8.9482184e-39
0.060155232 0.010871448 0.76100004 9.505313e-39
0.061604764 0.010871433 0.76100004 1.1901629e-38
0.063054271 0.01087144 0.76099998 1.4313389e-38
0.064503804 0.010871448 0.76100004 1.144676e-38
0.065953322 0.010871448 0.76100004 8.6735961e-39
0.067314282 0.01085715 0.76000005 4.8819907e-39
0.068580963 0.010828592 0.75800002 1.1161048e-39
0.070024781 0.010828584 0.75800002 6.1872316e-39
0.071468599 0.010828584 0.75800002 1.1174349e-38
0.07291241 0.010828584 0.75800002 1.4116332e-38
0.074356213 0.010828584 0.75800002 1.7149044e-38
-0.020935219 0.012272403 0.75800002 3.1296502e-39
-0.019491399 0.012272395 0.75800002 2.9441841e-39
-0.017904758 0.012175255 0.75200003 2.7598013e-39
-0.016428566 0.012142859 0.75000006 2.025483e-39
-0.014999984 0.012142867 0.75 1.2904473e-39
-0.013517114 0.012094297 0.74700004 1.1993363e-39
-0.012094274 0.012094297 0.74699998 1.0138745e-39
-0.010671413 0.012094289 0.74700004 1.4709024e-39
-0.0092237955 0.012061916 0.745 1.9308071e-39
-0.007804771 0.012061924 0.74500006 1.470922e-39
-0.0063685523 0.012029536 0.74300003 9.2061105e-40
-0.004953309 0.012029529 0.74300003 1.0117137e-39
-0.0035380654 0.012029544 0.74300003 1.0120752e-39
-0.0021142734 0.011980958 0.74000001 1.2865083e-39
-0.00070377707 0.011964768 0.73900002 1.5623847e-39
0.00070192025 0.011932395 0.73700005 1.470559e-39
0.0021057224 0.011932403 0.73700005 1.2879656e-39
0.0035095236 0.011932403 0.73699999 1.4719982e-39
0.004913345 0.011932403 0.73700005 1.5652644e-39
0.0063171489 0.011932403 0.73699999 2.2073912e-39
0.0077104885 0.011916213 0.73600006 2.8505998e-39
0.0091123935 0.011916198 0.73600006 2.2066779e-39
0.01051429 0.011916205 0.73600006 1.473073e-39
0.011916187 0.011916205 0.736 1.28833e-39
0.013318107 0.011916205 0.73600006 1.0124564e-39
0.014720003 0.011916213 0.736 8.2770076e-40
0.01612192 0.011916205 0.73600006 5.5255861e-40
0.017523818 0.011916198 0.73600006 7.3551634e-40
0.018925736 0.011916205 0.73600006 8.2807911e-40
0.020327633 0.011916198 0.73600006 9.1956568e-40
0.021729536 0.011916213 0.73600006 9.1991321e-40
0.023162872 0.011932395 0.73700005 1.01102e-39
0.024533333 0.011916213 0.736 1.1046632e-39
0.025935251 0.011916198 0.73600006 1.565647e-39
0.027374299 0.011932403 0.73700005 2.0255265e-39
0.0287781 0.01193241 0.73700005 1.5649001e-39
0.030181903 0.01193241 0.73699999 1.0135185e-39
0.03167145 0.011964776 0.73900002 9.1988098e-40
0.033123821 0.011980973 0.74000001 8.2841542e-40
0.0346267 0.012013339 0.74200004 9.199034e-40
0.036040038 0.012013331 0.74200004 1.0120682e-39
0.037453361 0.012013339 0.74200004 1.195351e-39
0.038866699 0.012013339 0.74200004 1.3815444e-39
0.040334292 0.012029536 0.74300003 1.3829905e-39
0.041749533 0.012029544 0.74300003 1.2900732e-39
0.043164775 0.012029551 0.74300003 1.3797521e-39
0.044700004 0.012061924 0.745 1.4752001e-39
0.046304777 0.012110494 0.74800003 2.7652285e-39
0.047729522 0.012110487 0.74799997 4.0584434e-39
0.049417146 0.012175247 0.75200003 6.7338557e-39
0.051052384 0.012223825 0.75500005 9.3016903e-39
0.05290762 0.012320966 0.76100004 8.9426272e-39
0.054357134 0.012320988 0.76099998 8.4737625e-39
0.055806663 0.012320973 0.76099998 7.0008059e-39
0.057256199 0.012320966 0.76100004 5.527887e-39
0.058705714 0.012320958 0.76100004 2.8503462e-39
0.060155228 0.01232098 0.76099998 1.0963339e-40
0.061604757 0.012320973 0.76100004 5.0673195e-39
0.063054293 0.012320966 0.76100004 9.9644134e-39
0.064503789 0.01232098 0.76099998 1.099222e-38
0.065953322 0.01232098 0.76100004 1.1972886e-38
0.067314282 0.012304783 0.75999999 6.6158285e-39
0.068761908 0.012304775 0.75999999 1.3023163e-39
0.070209518 0.012304783 0.76000005 7.0119336e-39
0.071468592 0.012272395 0.75800002 1.2636566e-38
0.07291241 0.012272403 0.75800002 1.808542e-38
0.074356221 0.012272403 0.75800002 2.3410437e-38
0.075999998 0.012304775 0.76000005 2.3417606e-38
0.077549517 0.012320966 0.76100004 2.3417617e-38
-0.020935204 0.013716213 0.75800002 2.3978221e-39
-0.019491415 0.013716206 0.75800002 2.0251005e-39
-0.017976157 0.013661921 0.75500005 1.6556201e-39
-0.016428545 0.013571434 0.75000006 1.196814e-39
-0.014999991 0.013571434 0.75 7.3762529e-40
-0.013517139 0.013517149 0.74700004 6.4577859e-40
-0.012094279 0.013517149 0.74700004 5.5360118e-40
-0.01064283 0.013480961 0.74500006 8.2876435e-40
-0.0092237778 0.013480961 0.74500006 1.0138899e-39
-0.0078047747 0.013480969 0.74500006 8.2916091e-40
-0.0063685635 0.013444781 0.74300003 6.4690243e-40
-0.0049533201 0.013444781 0.74300003 6.4580241e-40
-0.0035380775 0.013444774 0.74300003 6.4616395e-40
-0.0021142669 0.013390481 0.74000001 1.1957434e-39
-0.00070379383 0.013372391 0.73900002 1.7464088e-39
0.00070383039 0.013372384 0.73900002 1.5627491e-39
0.0021114622 0.013372384 0.73900008 1.3794466e-39
0.0035095124 0.013336211 0.73699999 1.2890545e-39
0.0049133338 0.013336219 0.73700005 1.1986455e-39
0.0063171377 0.013336211 0.73699999 1.7489326e-39
0.0077104885 0.013318121 0.73600006 2.3917811e-39
0.009112387 0.013318114 0.736 1.9322448e-39
0.010514304 0.013318114 0.73600006 1.3819549e-39
0.011916187 0.013318114 0.73600006 1.1972134e-39
0.013318104 0.013318114 0.73600006 9.2026353e-40
0.014720003 0.013318114 0.73600006 6.4510737e-40
0.01612192 0.013318099 0.73600006 4.6108465e-40
0.017523818 0.013318114 0.73600006 6.4440251e-40
0.018925736 0.013318099 0.73600006 8.2809032e-40
0.020327631 0.013318114 0.73600006 8.2846587e-40
0.021729529 0.013318107 0.736 8.2916512e-40
0.023162875 0.013336211 0.73700005 1.0124592e-39
0.024533343 0.013318107 0.73600006 1.2894244e-39
0.025935249 0.013318114 0.73600006 2.0262832e-39
0.027374299 0.013336204 0.73700005 2.8552886e-39
0.028778102 0.013336219 0.73700005 1.9336784e-39
0.030263832 0.013372391 0.73900002 1.1064302e-39
0.031714313 0.013390474 0.74000007 1.1049827e-39
0.033123825 0.013390489 0.74000001 1.1964609e-39
0.034626693 0.013426684 0.74200004 9.2095577e-40
0.036040016 0.013426684 0.74200004 6.4580241e-40
0.037453357 0.013426684 0.74200004 1.1064092e-39
0.038866695 0.013426676 0.74200004 1.6602878e-39
0.040280018 0.013426676 0.74200004 1.659206e-39
0.041749537 0.013444781 0.74300003 1.6588277e-39
0.04328097 0.013480969 0.74500006 3.0399264e-39
0.044700019 0.013480954 0.74500006 4.5050288e-39
0.046242882 0.013517141 0.74700004 4.7027296e-39
0.047729522 0.013535246 0.74800003 4.8035152e-39
0.049154282 0.013535261 0.74799997 5.07434e-39
0.051120006 0.013680004 0.75600004 5.265208e-39
0.052907601 0.013770491 0.76100004 4.8928648e-39
0.054357134 0.013770483 0.76100004 4.6263406e-39
0.055806667 0.013770498 0.76100004 3.6929315e-39
0.057256177 0.013770491 0.76099998 2.8645876e-39
0.058705714 0.013770491 0.76100004 2.4860927e-39
0.060155243 0.013770491 0.76100004 2.2084576e-39
0.061604742 0.013770506 0.76099998 6.2686148e-39
0.063054271 0.013770491 0.76100004 1.0311245e-38
0.064503811 0.013770498 0.76100004 8.573619e-39
0.065953329 0.013770483 0.76100004 6.8240292e-39
0.067314297 0.013752379 0.76000005 4.6077272e-39
0.0687619 0.013752408 0.75999999 2.4962072e-39
0.070209511 0.013752393 0.75999999 4.4308301e-39
0.073104762 0.013752393 0.76000005 1.4303376e-38
0.074356206 0.013716206 0.75800002 2.2223829e-38
0.07599999 0.013752393 0.75999999 2.2774842e-38
0.077447616 0.013752408 0.76000005 2.341769e-38
0.078999043 0.013770498 0.76100004 2.341769e-38
-0.019542851 0.015200019 0.76000005 1.1024716e-39
-0.017976189 0.015100017 0.75500005 5.6041149e-40
-0.016472377 0.015040018 0.75200003 3.6775677e-40
-0.015 0.015000008 0.75 9.3327879e-41
-0.013571417 0.015000008 0.75 9.2253083e-41
-0.012094275 0.014940001 0.74699998 9.2980357e-41
-0.010642835 0.014900006 0.74500006 9.2272701e-41
-0.0092237825 0.014899999 0.74500006 9.3351701e-41
-0.0078047505 0.014900021 0.745 1.8483267e-40
-0.0063685458 0.014860004 0.74300003 2.7736461e-40
-0.0049533034 0.014860012 0.74300003 2.7770372e-40
-0.0035380598 0.014860004 0.74300003 2.77352e-40
-0.0021142808 0.014800005 0.74000001 1.1035197e-39
-0.00070475123 0.01480002 0.74000001 1.8378632e-39
0.00070384808 0.014780007 0.73900008 1.654209e-39
0.0021114585 0.01478 0.73900008 1.3801529e-39
0.0035190687 0.014780007 0.73900002 1.1060967e-39
0.0049266806 0.014780007 0.73900002 7.3838059e-40
0.0063171396 0.01474002 0.73699999 1.3812151e-39
0.0077209612 0.01474002 0.73700005 1.9325966e-39
0.0091123851 0.014720023 0.73600006 1.6567412e-39
0.010514305 0.014720008 0.73600006 1.2901208e-39
0.011916202 0.014720023 0.73600006 1.1060953e-39
0.01331812 0.014720015 0.73600006 8.3021049e-40
0.014720001 0.014720023 0.73600006 5.5468578e-40
0.01612192 0.01472 0.73600006 2.7775978e-40
0.017523818 0.014720015 0.73600006 5.5292295e-40
0.018925715 0.014720015 0.736 7.3660095e-40
0.02035524 0.01474002 0.73700005 7.3660935e-40
0.021729529 0.014720015 0.73600006 6.4512138e-40
0.023131447 0.014720023 0.73600006 1.1039289e-39
0.024533343 0.014720023 0.73600006 1.4737974e-39
0.025970481 0.014740027 0.73699999 2.5783499e-39
0.027374288 0.014740005 0.73700005 3.5877963e-39
0.028778106 0.014740027 0.73700005 2.3913985e-39
0.03026383 0.014780015 0.73900002 1.1053386e-39
0.031714298 0.014800005 0.74000001 1.2886481e-39
0.033123814 0.01480002 0.74000001 1.4723121e-39
0.034626693 0.014840014 0.74200004 9.2200955e-40
0.036040016 0.014840007 0.74200004 2.8060161e-40
0.037453353 0.014840007 0.74200004 1.1082043e-39
0.038866691 0.014840014 0.74200004 1.8428939e-39
0.040334299 0.014860027 0.74300003 1.9350937e-39
0.041749541 0.014860019 0.74300003 1.9393606e-39
0.043280963 0.014900014 0.74500006 4.8002138e-39
0.044700015 0.014900006 0.74500006 7.5545808e-39
0.046304766 0.014960006 0.74800003 6.5530195e-39
0.047857165 0.015000015 0.75000006 5.5309909e-39
0.049811445 0.015160017 0.75799996 3.4029903e-39
0.051390473 0.015200026 0.75999999 1.203962e-39
0.052907616 0.015220016 0.76100004 9.2020608e-40
0.05435713 0.015220009 0.76099998 6.5331617e-40
0.055806663 0.015220031 0.76100004 4.6355374e-40
0.057256196 0.015220016 0.76100004 1.9090169e-40
0.058705691 0.015220024 0.76099998 2.20481e-39
0.060155228 0.015220024 0.76100004 4.2421004e-39
0.061604757 0.015220016 0.76100004 7.4879603e-39
0.063054286 0.015220009 0.76100004 1.0594979e-38
0.064503804 0.015220016 0.76099998 6.0742701e-39
0.065953322 0.015220016 0.76100004 1.5768181e-39
0.067402855 0.015220016 0.76100004 2.5862673e-39
0.073104762 0.015200011 0.76000005 1.0527623e-38
0.074356228 0.015160024 0.75800002 2.0921582e-38
0.076000005 0.015200011 0.76000005 2.2223829e-38
0.077447616 0.015200019 0.75999999 2.341769e-38
0.078895241 0.015200011 0.75999999 2.341769e-38
0.081898093 0.015220024 0.76100004 2.341769e-38
-0.019542858 0.016647622 0.76000005 8.1153622e-39
-0.017976172 0.016538098 0.75500005 7.6557826e-39
-0.016472377 0.016472392 0.75200003 7.1847221e-39
-0.014999979 0.016428582 0.75000006 6.7058283e-39
-0.013571424 0.016428582 0.75 5.8886499e-39
-0.01209428 0.016362861 0.74700004 5.144283e-39
-0.010671439 0.016362876 0.74699998 4.9692244e-39
-0.0092237862 0.016319051 0.74500006 4.7758564e-39
-0.0078047337 0.016319066 0.74500006 2.7558216e-39
-0.0063857022 0.016319059 0.745 8.2690062e-40
-0.0049533136 0.016275249 0.74300009 9.1907803e-40
-0.0035380905 0.016275257 0.74300003 1.0105674e-39
-0.0021199787 0.016253337 0.74200004 1.0109373e-39
-0.00070474565 0.016209528 0.74000001 1.1024379e-39
0.00070382946 0.016187631 0.73900008 9.1986696e-40
0.0021114547 0.016187631 0.73900002 7.3801065e-40
0.003519065 0.016187631 0.73900002 5.5364321e-40
0.0049133394 0.016143836 0.73700005 4.6142937e-40
0.0063171433 0.016143836 0.73699999 7.3727357e-40
0.007720965 0.016143814 0.73700005 1.0142346e-39
0.0091247661 0.016143829 0.73700005 8.302245e-40
0.010528567 0.016143821 0.73699999 7.405442e-40
0.011932392 0.016143821 0.73700005 5.5508235e-40
0.013318119 0.016121916 0.73600006 4.6465235e-40
0.014720015 0.016121909 0.73600006 3.702749e-40
0.016121913 0.016121931 0.736 1.8555294e-40
0.017523831 0.016121916 0.73600006 3.6888902e-40
0.018925715 0.016121931 0.73600006 5.5327607e-40
0.020327631 0.016121909 0.73600006 6.4511017e-40
0.021729529 0.016121924 0.73600006 8.2949442e-40
0.023131445 0.016121916 0.73600006 1.1053554e-39
0.024533343 0.016121924 0.73600006 1.3819465e-39
0.02597047 0.016143836 0.73699999 2.11915e-39
0.027374294 0.016143829 0.73700005 2.9445667e-39
0.028778095 0.016143836 0.73700005 1.9321972e-39
0.030263843 0.016187616 0.73900008 1.0120542e-39
0.031714316 0.01620952 0.74000007 1.0127773e-39
0.033123836 0.016209535 0.74000007 1.1049561e-39
0.034626704 0.01625333 0.74200004 9.2306192e-40
0.03604003 0.016253345 0.74200004 7.4228041e-40
0.037453353 0.01625333 0.74200004 1.3833534e-39
0.038919073 0.016275249 0.74300003 2.1173354e-39
0.040334299 0.016275257 0.74300003 2.1205794e-39
0.041749541 0.016275249 0.74300003 2.118731e-39
0.043280959 0.016319066 0.74500006 5.6270793e-39
0.044880003 0.016384773 0.74800003 9.125079e-39
0.046304759 0.016384773 0.74799997 6.8220156e-39
0.047984771 0.016472392 0.75200003 4.6086548e-39
0.049811445 0.016603827 0.75800002 3.9615198e-39
0.051390488 0.016647622 0.76000005 3.3082499e-39
0.052907612 0.016669542 0.76100004 3.6809546e-39
0.054357149 0.016669534 0.76100004 4.1340337e-39
0.055806659 0.016669549 0.76099998 4.1433607e-39
0.057256192 0.016669549 0.76099998 4.2305341e-39
0.05870571 0.016669534 0.76100004 5.0649457e-39
0.060155243 0.016669549 0.76100004 5.8933345e-39
0.075600021 0.016560011 0.75600004 1.3108438e-38
0.077447623 0.016647637 0.76000005 1.5703508e-38
0.078895256 0.016647622 0.76000005 1.5782788e-38
0.080448575 0.016669542 0.76100004 1.5887179e-38
0.081898086 0.016669549 0.76099998 1.615013e-38
0.083238102 0.016647637 0.76000005 1.6438192e-38
-0.019439975 0.017999992 0.75600004 1.521729e-38
-0.017976176 0.01797621 0.75500005 1.4656199e-38
-0.016472377 0.017904781 0.75200003 1.4009012e-38
-0.015039994 0.017904766 0.75200009 1.3266444e-38
-0.013571431 0.017857157 0.75 1.1704173e-38
-0.012142829 0.017857142 0.75000006 1.0140101e-38
-0.010685702 0.017809525 0.74800003 9.8645961e-39
-0.0092485743 0.017785735 0.74699998 9.4853795e-39
-0.0078047374 0.017738104 0.74500006 5.4187539e-39
-0.0063856849 0.017738104 0.74500006 1.3008632e-39
-0.0049666534 0.017738104 0.745 1.5616617e-39
-0.0035380737 0.017690502 0.74300003 1.7585763e-39
-0.0021142752 0.017619066 0.74000001 1.0105898e-39
-0.00070378545 0.017595239 0.73900002 2.8346166e-40
0.00070382573 0.017595261 0.73900002 1.8411661e-40
0.002111437 0.017595246 0.73900002 9.4085981e-41
0.0035095226 0.017547652 0.73699999 9.230353e-41
0.004913344 0.017547645 0.73700005 9.3374122e-41
0.0063171461 0.017547637 0.73699999 9.2293721e-41
0.0077209678 0.017547645 0.73700005 9.4085981e-41
0.0091123851 0.017523825 0.73600006 9.2290918e-41
0.010528572 0.017547652 0.73699999 9.4806249e-41
0.0119162 0.017523825 0.73600006 9.2300727e-41
0.013318098 0.017523818 0.736 9.3721644e-41
0.014720016 0.017523833 0.73600006 9.2274103e-41
0.016121913 0.017523825 0.73600006 9.2644045e-41
0.017547622 0.017547645 0.73699999 1.8413342e-40
0.01892573 0.017523818 0.73600006 2.7667938e-40
0.020355245 0.017547637 0.73700005 6.4401575e-40
0.021759048 0.01754763 0.73699999 9.2168164e-40
0.023162872 0.017547645 0.73700005 1.1064358e-39
0.024566673 0.017547637 0.73700005 1.1997203e-39
0.025970474 0.017547652 0.73699999 1.7546933e-39
0.027448606 0.017595239 0.73900008 2.2106184e-39
0.028856216 0.017595254 0.73900008 1.5641602e-39
0.030263841 0.017595239 0.73900002 9.2059564e-40
0.031714305 0.017619051 0.74000001 8.2840281e-40
0.033213347 0.017666683 0.74200004 6.4615694e-40
0.034626685 0.017666675 0.74200004 9.2308855e-40
0.036040008 0.01766669 0.74200004 1.1067722e-39
0.037453346 0.017666675 0.74200004 1.748557e-39
0.038919058 0.017690495 0.74300003 2.3964236e-39
0.040334299 0.017690487 0.74300003 2.3106823e-39
0.041861907 0.017738104 0.74500006 2.218823e-39
0.043397166 0.017785728 0.74700004 6.4640399e-39
0.04500002 0.017857142 0.75000006 1.0593765e-38
0.046428572 0.017857157 0.75 7.0936096e-39
0.048176199 0.017976217 0.75500005 3.6056474e-39
0.049680006 0.018000007 0.75600004 4.5254303e-39
0.05139048 0.018095255 0.76000005 5.3483667e-39
0.052907597 0.018119074 0.76099998 6.453624e-39
0.054357126 0.018119067 0.76100004 7.5524298e-39
0.055806663 0.018119052 0.76100004 7.9291072e-39
0.057406694 0.018166661 0.76300001 8.2925018e-39
0.075600013 0.018000007 0.75600004 4.0700686e-39
0.077447616 0.018095247 0.76000005 7.9418464e-39
0.078895241 0.018095255 0.76000005 8.1219091e-39
0.080342866 0.018095247 0.76000005 8.224145e-39
0.081790484 0.018095255 0.75999999 8.8573049e-39
0.083238095 0.018095247 0.75999999 9.4169191e-39
0.084797136 0.01811906 0.76099998 9.9661314e-39
-0.019568576 0.019568592 0.76100004 1.5862752e-38
-0.017976187 0.019414306 0.75500005 1.5772688e-38
-0.016472356 0.01933714 0.75200009 1.604817e-38
-0.015039994 0.019337147 0.75200009 1.6421614e-38
-0.01357141 0.019285731 0.75 1.5680115e-38
-0.012110475 0.0192343 0.74799997 1.4949379e-38
-0.010671413 0.019208588 0.74699998 1.4112456e-38
-0.00924855 0.019208573 0.74700004 1.3290898e-38
-0.0078047421 0.019157156 0.74500006 1.1898239e-38
-0.0063856896 0.019157141 0.74500006 1.0528614e-38
-0.0049533276 0.019105725 0.74300003 1.0702256e-38
-0.0035380849 0.019105732 0.74300003 1.0798685e-38
-0.0021142547 0.019028589 0.74000007 9.7762274e-39
-0.00070474006 0.019028574 0.74000007 8.6627444e-39
0.00070477568 0.019028589 0.74000001 7.3634367e-39
0.0021143046 0.019028574 0.74000001 6.0655456e-39
0.0035238203 0.019028597 0.74000001 6.1677858e-39
0.0049133459 0.018951446 0.73700005 6.2481516e-39
0.0063171498 0.018951446 0.73699999 7.5482077e-39
0.0077209715 0.018951438 0.73700005 8.819893e-39
0.0091123981 0.018925719 0.73600006 8.8356549e-39
0.010528574 0.018951446 0.73699999 8.8205951e-39
0.011916199 0.018925734 0.73600006 7.2708767e-39
0.013318096 0.018925734 0.73600006 5.7871637e-39
0.014720015 0.018925719 0.73600006 6.1656292e-39
0.016121913 0.018925726 0.73600006 6.521133e-39
0.017547626 0.018951453 0.73699999 4.417166e-39
0.018951427 0.018951446 0.73699999 2.2963288e-39
0.020355249 0.018951446 0.73700005 1.3793976e-39
0.021759052 0.018951453 0.73699999 5.5505012e-40
0.023162872 0.018951446 0.73700005 9.2312778e-40
0.024566673 0.018951446 0.73700005 1.2908481e-39
0.02604099 0.019002847 0.73900008 1.8443918e-39
0.027448602 0.019002862 0.73900008 2.486862e-39
0.028856214 0.019002855 0.73900002 1.7485697e-39
0.030304777 0.019028582 0.74000001 1.0120906e-39
0.03180002 0.019080013 0.74200004 9.2096978e-40
0.033213358 0.01908002 0.74200004 9.2204178e-40
0.034626681 0.019080006 0.74200004 1.1057086e-39
0.036040023 0.019080013 0.74200004 1.2883104e-39
0.037503831 0.019105718 0.74300003 1.9351105e-39
0.038919076 0.019105732 0.74300003 2.5829588e-39
0.040334307 0.019105718 0.74300003 1.8457399e-39
0.041861899 0.019157156 0.745 1.1957252e-39
0.043397155 0.01920858 0.74700004 7.1908682e-39
0.044999994 0.019285724 0.75 1.3172368e-38
0.04642858 0.019285724 0.75000006 1.170479e-38
0.048176203 0.019414298 0.75500005 1.0317539e-38
0.049680013 0.01944001 0.75600004 9.399152e-39
0.051390473 0.019542865 0.76000005 8.5748101e-39
0.052907612 0.019568592 0.76100004 7.2773003e-39
0.054357145 0.019568585 0.76100004 5.9991535e-39
0.055806655 0.019568585 0.76099998 6.4590639e-39
0.076099992 0.019568585 0.76099998 4.3372163e-39
0.077447608 0.019542873 0.75999999 6.2592625e-39
0.078999057 0.019568585 0.76100004 7.9291198e-39
0.080448553 0.019568592 0.76099998 9.4892415e-39
0.081898086 0.0195686 0.76100004 9.4913883e-39
0.083347619 0.019568592 0.76100004 9.5695765e-39
0.084797151 0.019568577 0.76100004 9.8561883e-39
0.086246647 0.019568592 0.76099998 1.0116998e-38
-0.019439984 0.020880006 0.75600004 1.6506689e-38
-0.017928552 0.020797133 0.75300002 1.678936e-38
-0.016472358 0.020769529 0.75200009 1.8173342e-38
-0.015039995 0.020769529 0.75200003 1.9456167e-38
-0.013607603 0.020769529 0.75200003 1.9552665e-38
-0.012110489 0.020659059 0.74800003 1.9637326e-38
-0.010671417 0.02063144 0.74700004 1.8345172e-38
-0.0092485761 0.020631433 0.74700004 1.6968687e-38
-0.0078047467 0.020576209 0.74500006 1.8354444e-38
-0.0063856938 0.020576201 0.74500006 1.9729831e-38
-0.0049533118 0.02052097 0.74300003 1.9827415e-38
-0.0035380691 0.020520963 0.74300003 1.9822357e-38
-0.002119988 0.020493351 0.74200004 1.8449095e-38
-0.00070475403 0.020438105 0.74000001 1.7046069e-38
0.00070477568 0.020438112 0.74000001 1.4541735e-38
0.0021142915 0.020438105 0.74000001 1.1977534e-38
0.0035095133 0.020355254 0.73699999 1.2265256e-38
0.0049133347 0.020355269 0.73700005 1.2445002e-38
0.0063171387 0.020355262 0.73699999 1.5032561e-38
0.0077209603 0.020355262 0.73700005 1.7597486e-38
0.0091123972 0.020327635 0.73600006 1.7609672e-38
0.010528563 0.020355269 0.73699999 1.7596392e-38
0.011916214 0.020327628 0.73600006 1.4567609e-38
0.01331811 0.020327643 0.73600006 1.1433004e-38
0.014720012 0.020327628 0.73600006 1.2261317e-38
0.016121913 0.020327643 0.73600006 1.2987733e-38
0.017547615 0.020355262 0.73700005 8.6675032e-39
0.018951431 0.020355262 0.73699999 4.2378306e-39
0.020355238 0.020355262 0.73700005 2.2052094e-39
0.021759056 0.020355254 0.73699999 1.8699487e-40
0.023225732 0.020410486 0.73900002 7.4017566e-40
0.024633363 0.020410478 0.73900008 1.2919159e-39
0.026040986 0.020410478 0.73900002 2.0280446e-39
0.027485728 0.02043812 0.74000001 2.669091e-39
0.028856207 0.020410478 0.73900002 1.9315288e-39
0.030304793 0.020438105 0.74000007 1.1046478e-39
0.031800032 0.020493336 0.74200004 1.1050051e-39
0.033213358 0.020493336 0.74200004 1.105361e-39
0.034673363 0.02052097 0.74300003 1.2890306e-39
0.036088593 0.020520963 0.74300003 1.4744939e-39
0.037503839 0.02052097 0.74300003 2.1209297e-39
0.038919065 0.020520963 0.74300003 2.765541e-39
0.04044288 0.020576201 0.74500006 1.4765846e-39
0.041861918 0.020576194 0.74500006 1.0266473e-40
0.043397147 0.020631447 0.74699998 7.9309485e-39
0.044999998 0.020714298 0.75 1.5669565e-38
0.04655239 0.020769544 0.75200003 1.6327881e-38
0.048176218 0.020852394 0.75500011 1.6954164e-38
0.049680021 0.020880014 0.75600004 1.4362979e-38
0.051390465 0.020990498 0.75999999 1.169902e-38
0.052907608 0.021018125 0.76099998 7.9900749e-39
0.054357141 0.021018118 0.76100004 4.3432377e-39
0.055953372 0.021073326 0.76300007 4.8889047e-39
0.076099992 0.02101811 0.76100004 4.6195654e-39
0.07754951 0.021018118 0.76099998 4.620245e-39
0.078999035 0.021018118 0.76100004 7.7537361e-39
0.080448568 0.021018103 0.76100004 1.0782866e-38
0.081898101 0.021018103 0.76100004 1.0233641e-38
0.083347619 0.021018125 0.76099998 9.6772327e-39
0.084797144 0.02101811 0.76100004 9.7726429e-39
0.086133324 0.020990483 0.75999999 9.767992e-39
-0.020879984 0.022320002 0.75600004 1.1911669e-38
-0.019439977 0.022320002 0.75600004 1.3477207e-38
-0.017976174 0.022290491 0.75500005 1.4959134e-38
-0.016494293 0.022231437 0.75300002 1.6146902e-38
-0.015059979 0.02223143 0.75300008 1.73404e-38
-0.013607603 0.022201926 0.75200003 1.798719e-38
-0.012142844 0.02214288 0.75 1.8538202e-38
-0.010685731 0.022083826 0.74800003 1.6872247e-38
-0.0092485519 0.022054292 0.74700004 1.5312484e-38
-0.0078047495 0.021995261 0.74500006 1.7712051e-38
-0.0063856971 0.021995254 0.74500006 2.010659e-38
-0.0049533229 0.021936208 0.74300003 2.029062e-38
-0.0035380793 0.021936201 0.74300003 2.057079e-38
-0.002119974 0.021906666 0.74200004 1.9647412e-38
-0.00070664927 0.021906681 0.74200004 1.881688e-38
0.0007047822 0.021847628 0.74000001 1.6406129e-38
0.0021143111 0.021847621 0.74000001 1.4118886e-38
0.0035238259 0.021847643 0.74000001 1.4392992e-38
0.0049133394 0.02175907 0.73700005 1.4764313e-38
0.0063171415 0.02175907 0.73699999 1.6514602e-38
0.0077209631 0.021759063 0.73700005 1.8366738e-38
0.0091247661 0.02175907 0.73700005 1.854144e-38
0.010528567 0.021759078 0.73699999 1.8642225e-38
0.011932389 0.021759063 0.73700005 1.7343952e-38
0.013336191 0.021759063 0.73700005 1.6146858e-38
0.014739994 0.02175907 0.73699999 1.5867759e-38
0.016143817 0.021759078 0.73700005 1.5685133e-38
0.017547619 0.02175907 0.73700005 8.9452364e-39
0.01895142 0.02175907 0.73699999 2.2203616e-39
0.020355243 0.021759063 0.73700005 1.1993321e-39
0.021818105 0.021818094 0.73900002 1.8628301e-40
0.023225747 0.021818101 0.73900008 8.3165382e-40
0.024666684 0.021847628 0.74000001 1.5670553e-39
0.026076218 0.021847628 0.74000007 1.9358308e-39
0.027485732 0.021847628 0.74000001 2.3935775e-39
0.028895263 0.021847628 0.74000001 1.7492969e-39
0.030304782 0.021847628 0.74000001 1.1968476e-39
0.031800032 0.021906666 0.7420001 1.0131752e-39
0.033258125 0.021936193 0.74300003 8.2950423e-40
0.034673352 0.021936201 0.74300003 1.1057268e-39
0.036088593 0.021936193 0.74300003 1.3833787e-39
0.037503839 0.021936201 0.74300003 2.1209255e-39
0.038919061 0.021936208 0.74300003 2.8609512e-39
0.040334292 0.021936215 0.74300003 1.4754874e-39
0.041861914 0.021995254 0.74500006 9.2258688e-41
0.043455232 0.022083834 0.74799997 9.5025692e-39
0.044879999 0.022083826 0.74800003 1.8910772e-38
0.046614297 0.022231422 0.75300002 1.9552631e-38
0.048176203 0.022290491 0.75500005 2.0196464e-38
0.049614295 0.022290491 0.75500005 1.889776e-38
0.051255263 0.022379056 0.75800002 1.7613451e-38
0.052838083 0.022438101 0.75999999 1.5758399e-38
0.054357126 0.022467643 0.76099998 1.3922462e-38
0.055953361 0.022526674 0.76300001 1.3455806e-38
0.057406701 0.022526667 0.76300001 1.3074777e-38
0.077447616 0.022438109 0.76000005 4.2565226e-39
0.078895241 0.022438109 0.76000005 7.3842768e-39
0.080342852 0.022438109 0.75999999 1.0604253e-38
0.081790477 0.022438116 0.75999999 1.0327305e-38
0.08323811 0.022438101 0.76000005 1.0143623e-38
0.084685721 0.022438109 0.76000005 1.0143251e-38
0.086133331 0.022438109 0.76000005 1.0236894e-38
-0.022379015 0.023822874 0.75800002 6.1973153e-39
-0.020935223 0.023822866 0.75800002 7.5734549e-39
-0.019439992 0.023760013 0.75600004 1.0347217e-38
-0.017976157 0.023728594 0.75500005 1.3097633e-38
-0.016494256 0.023665704 0.75300008 1.4206131e-38
-0.015039996 0.0236343 0.75200003 1.5219915e-38
-0.013607584 0.023634292 0.75200009 1.6333067e-38
-0.012142852 0.023571447 0.75 1.7421077e-38
-0.010685718 0.023508586 0.74800003 1.5477079e-38
-0.0092485761 0.023477167 0.74700004 1.3564712e-38
-0.0078047542 0.023414306 0.74500006 1.6982389e-38
-0.0063857012 0.023414299 0.74500006 2.0381379e-38
-0.0049666492 0.023414291 0.74500006 2.0841274e-38
-0.0035380616 0.023351453 0.74300003 2.1303321e-38
-0.0021199749 0.023319997 0.74200004 2.093562e-38
-0.00070474844 0.023257151 0.74000001 2.0466349e-38
0.00070478127 0.023257151 0.74000001 1.8330049e-38
0.0021142962 0.023257151 0.74000001 1.6234008e-38
0.0035238129 0.023257151 0.74000001 1.6606404e-38
0.0049133413 0.023162879 0.73700005 1.6974479e-38
0.0063171452 0.023162879 0.73699999 1.8078671e-38
0.0077209668 0.023162872 0.73700005 1.9090655e-38
0.009124768 0.023162879 0.73700005 1.9363292e-38
0.010528569 0.023162872 0.73699999 1.9646325e-38
0.011932393 0.023162872 0.73700005 2.0202711e-38
0.013336195 0.023162872 0.73700005 2.0750492e-38
0.014739996 0.023162887 0.73699999 1.9560575e-38
0.016143817 0.023162864 0.73700005 1.8247898e-38
0.017547622 0.023162879 0.73700005 9.2081256e-39
0.01895142 0.023162879 0.73699999 1.0237326e-40
0.020355247 0.023162887 0.73700005 9.2998574e-41
0.02181812 0.023225717 0.73900008 9.6236975e-41
0.023225743 0.023225725 0.73900002 9.2527878e-40
0.024666691 0.023257159 0.74000001 1.7525171e-39
0.026076205 0.023257151 0.74000001 1.9383419e-39
0.027485736 0.023257159 0.74000001 2.0273089e-39
0.02889525 0.023257159 0.74000001 1.6581761e-39
0.030386686 0.023320004 0.74200004 1.2890376e-39
0.031842884 0.023351438 0.74300003 9.2097679e-40
0.033258125 0.023351446 0.74300003 5.5399214e-40
0.034673348 0.023351438 0.74300003 9.2097539e-40
0.036088578 0.023351461 0.74300003 1.1986287e-39
0.037503824 0.023351453 0.74300003 2.1187703e-39
0.03891905 0.023351438 0.74300003 2.9481176e-39
0.040442869 0.023414306 0.74500006 1.5637286e-39
0.041861925 0.023414299 0.74500006 1.0664162e-40
0.043455247 0.023508586 0.74800003 1.1167523e-38
0.045120008 0.023634292 0.75200003 2.2121123e-38
0.046738114 0.023728579 0.75500011 2.2774799e-38
0.048176222 0.023728579 0.75500005 2.3415802e-38
0.049811445 0.023822874 0.75800002 2.3417544e-38
0.051390469 0.023885727 0.76000005 2.34125e-38
0.052907605 0.023917153 0.76100004 2.3415707e-38
0.054357141 0.023917168 0.76100004 2.3405304e-38
0.055953369 0.023979992 0.76300001 2.2029208e-38
0.078687645 0.023822874 0.75800002 7.1059088e-39
0.080342859 0.023885727 0.76000005 1.0326234e-38
0.081790477 0.023885727 0.75999999 1.0419488e-38
0.083238102 0.023885727 0.75999999 1.0512039e-38
0.084685713 0.023885727 0.76000005 1.0603874e-38
0.086246669 0.023917153 0.76100004 1.0605308e-38
0.087696172 0.023917176 0.76099998 1.0789695e-38
0.089145705 0.023917161 0.76100004 1.0972283e-38
-0.024042839 0.0255 0.76500005 4.511884e-39
-0.02243809 0.025333352 0.75999999 4.424024e-39
-0.020935209 0.025266685 0.75800002 4.2249835e-39
-0.019439984 0.025200009 0.75600004 5.4393488e-39
-0.017976189 0.025166675 0.75500005 6.6332355e-39
-0.016538084 0.025166683 0.75500005 7.1053525e-39
-0.01506 0.025100008 0.75300002 7.6732427e-39
-0.013607612 0.025066674 0.75200009 8.3125193e-39
-0.012142858 0.024999999 0.75000006 8.8670692e-39
-0.010685724 0.024933353 0.74799997 7.8457076e-39
-0.0092485519 0.024900004 0.74700004 6.9453523e-39
-0.0078047579 0.024833351 0.745 1.1273163e-38
-0.0063857059 0.024833351 0.74500006 1.569741e-38
-0.0049533164 0.024766669 0.74300003 1.6521418e-38
-0.0035380737 0.024766676 0.74300003 1.7355112e-38
-0.0021199805 0.024733342 0.74200004 1.7902179e-38
-0.00070474844 0.024666689 0.74000001 1.8547508e-38
0.00070478686 0.024666674 0.74000007 1.8168297e-38
0.0021114585 0.024633348 0.73900008 1.7717042e-38
0.0035190706 0.024633341 0.73900002 1.7807474e-38
0.0049266806 0.024633333 0.73900002 1.7896794e-38
0.0063343132 0.024633333 0.73900008 1.7524067e-38
0.0077209687 0.024566688 0.73700005 1.7247484e-38
0.0091247717 0.02456668 0.73700005 1.7801367e-38
0.010528573 0.024566703 0.73699999 1.835633e-38
0.011932394 0.02456668 0.73700005 1.8913087e-38
0.013336197 0.02456668 0.73700005 1.9560599e-38
0.01474 0.024566688 0.73699999 1.8267728e-38
0.016143821 0.024566695 0.73700005 1.6966129e-38
0.01759525 0.024633348 0.73900002 8.4748149e-39
0.018951423 0.024566688 0.73699999 9.2296523e-41
0.020410506 0.024633341 0.73900008 3.6957706e-40
0.021818116 0.024633341 0.73900002 7.4123364e-40
0.023257159 0.024666667 0.74000001 1.7514339e-39
0.024666674 0.024666689 0.74000001 2.7630635e-39
0.026076203 0.024666682 0.74000001 2.3957243e-39
0.027560022 0.024733335 0.74200004 2.0265901e-39
0.028973363 0.024733342 0.74200004 1.6574544e-39
0.030427622 0.024766684 0.74300003 1.3801515e-39
0.031842865 0.024766684 0.74300003 1.1050009e-39
0.03325811 0.024766691 0.74300003 8.2985315e-40
0.034673337 0.024766676 0.74300003 9.2132992e-40
0.036088578 0.024766684 0.74300003 1.1060715e-39
0.037503824 0.024766676 0.74300003 2.1205611e-39
0.039023817 0.024833344 0.745 3.1371653e-39
0.040551435 0.024900004 0.74699998 1.6577081e-39
0.041974295 0.024900019 0.74700004 9.2327352e-41
0.043455247 0.024933346 0.74800003 1.1163294e-38
0.045120031 0.025066666 0.75200009 2.2223775e-38
0.04673811 0.025166683 0.75500005 2.2774832e-38
0.048240006 0.025200002 0.75600004 2.3417669e-38
0.049811441 0.025266685 0.75800002 2.3417658e-38
0.051458091 0.025366679 0.76100004 2.3417662e-38
0.052907623 0.025366679 0.76100004 2.3417306e-38
0.054500025 0.025433332 0.76300001 2.3417612e-38
0.0561 0.025500014 0.76500005 2.2772197e-38
0.078687645 0.025266685 0.75800002 6.5505995e-39
0.080342859 0.025333345 0.76000005 1.0052879e-38
0.081790484 0.025333345 0.76000005 1.0697136e-38
0.083347626 0.025366686 0.76100004 1.1340353e-38
0.084797144 0.025366686 0.76099998 1.1248884e-38
0.086246662 0.025366686 0.76100004 1.1249586e-38
0.08769618 0.025366671 0.76100004 1.1435753e-38
-0.02397996 0.026886657 0.76300007 4.2360188e-39
-0.022467613 0.026816204 0.76100004 2.5786891e-39
-0.020935224 0.026710495 0.75800002 9.2243134e-40
-0.019491404 0.026710495 0.75800002 5.5151184e-40
-0.017976172 0.026604779 0.75500005 9.7736364e-41
-0.016538069 0.026604772 0.75500005 9.2377799e-41
-0.015060011 0.026534289 0.75300002 1.0710264e-40
-0.013607613 0.026499055 0.75200009 1.9321383e-40
-0.012142839 0.026428573 0.75000006 2.9111835e-40
-0.010714284 0.026428588 0.75 2.774571e-40
-0.009260946 0.026358098 0.74800003 2.1115326e-40
-0.0078047412 0.026252396 0.74500006 5.5595578e-39
-0.0063857092 0.026252404 0.745 1.0887823e-38
-0.0049532996 0.026181921 0.74300003 1.2099275e-38
-0.0035380765 0.026181921 0.74300003 1.3283469e-38
-0.0021199824 0.026146673 0.74200004 1.4954464e-38
-0.00070474192 0.026076205 0.74000001 1.6600669e-38
0.00070477289 0.026076198 0.74000001 1.78946e-38
0.0021143036 0.026076205 0.74000001 1.9179243e-38
0.0035190668 0.026040971 0.73900002 1.9009586e-38
0.0049266964 0.026040956 0.73900008 1.8713972e-38
0.0063343085 0.026040964 0.73900008 1.705625e-38
0.0077209584 0.025970481 0.73700005 1.5308161e-38
0.0091495439 0.026040964 0.73900002 1.6146534e-38
0.010528563 0.025970489 0.73699999 1.6971259e-38
0.011932399 0.025970496 0.73700005 1.7624868e-38
0.013336201 0.025970496 0.73699999 1.8260189e-38
0.014780021 0.026040949 0.73900002 1.6982748e-38
0.016143812 0.025970489 0.73700005 1.5568844e-38
0.017595265 0.026040949 0.73900008 7.81578e-39
0.01900289 0.026040956 0.73900002 9.4793637e-41
0.0204105 0.026040956 0.73900002 7.3514219e-40
0.021847632 0.026076205 0.74000001 1.2890166e-39
0.023257166 0.026076183 0.74000007 2.5757814e-39
0.024733372 0.026146665 0.74200004 3.7714477e-39
0.026146699 0.026146673 0.7420001 2.8545389e-39
0.027560037 0.026146673 0.74200004 1.9340217e-39
0.02897336 0.02614668 0.7420001 1.748906e-39
0.030427627 0.026181921 0.74300003 1.4730477e-39
0.031842869 0.026181921 0.74300003 1.289025e-39
0.03325811 0.026181914 0.74300003 1.0131598e-39
0.034673356 0.026181929 0.74300003 1.0124423e-39
0.036088586 0.026181921 0.74300003 1.0142374e-39
0.037604779 0.026252389 0.74500006 2.2113274e-39
0.039023831 0.026252389 0.74500006 3.3147435e-39
0.040551443 0.026322864 0.74700004 1.7452444e-39
0.041974284 0.026322871 0.74699998 1.0631932e-40
0.043455239 0.026358113 0.74800003 1.1168674e-38
0.045180019 0.026534282 0.75300008 2.2215156e-38
0.046738129 0.026604772 0.75500005 2.2866648e-38
0.048240013 0.026640005 0.75600004 2.3417303e-38
0.049811441 0.026710495 0.75800002 2.3417665e-38
0.051458087 0.026816212 0.76099998 2.3416952e-38
0.052907605 0.026816204 0.76100004 2.3417673e-38
0.054500032 0.026886672 0.76300001 2.3417648e-38
0.056100003 0.026957147 0.76500005 2.3417623e-38
0.057707649 0.027027622 0.76700002 2.3417572e-38
0.078687653 0.026710488 0.75800002 5.9956376e-39
0.080342852 0.02678097 0.75999999 9.7745052e-39
0.081790477 0.026780963 0.76000005 1.0975882e-38
0.083347611 0.026816197 0.76100004 1.2076836e-38
0.084797144 0.026816212 0.76100004 1.1985006e-38
0.086246654 0.026816219 0.76099998 1.1894953e-38
0.087696195 0.026816212 0.76099998 1.1990366e-38
-0.023979969 0.028340004 0.76300001 3.5938892e-39
-0.022467632 0.028265737 0.76100004 2.302807e-39
-0.020990457 0.028228574 0.76000005 1.1096266e-39
-0.019491391 0.028154299 0.75800002 7.3722592e-40
-0.017976176 0.028042883 0.75500005 2.7663313e-40
-0.01653808 0.028042868 0.75500011 1.8481585e-40
-0.015059973 0.027968571 0.75300002 9.2279708e-41
-0.013607613 0.027931437 0.75200003 3.69954e-40
-0.012142846 0.027857155 0.75000006 5.514642e-40
-0.010685698 0.027782865 0.74800003 5.5181312e-40
-0.0092485743 0.027745716 0.74699998 5.5151744e-40
-0.0078047449 0.027671434 0.74500006 3.0433344e-39
-0.0063856929 0.027671441 0.74500006 5.5107211e-39
-0.0049666613 0.027671441 0.745 6.0789771e-39
-0.0035380886 0.027597159 0.74300003 6.7046456e-39
-0.0021199684 0.027560003 0.74200004 7.5591841e-39
-0.00070475589 0.027485728 0.74000001 8.3932327e-39
0.00070477289 0.027485728 0.74000001 9.0425327e-39
0.002111437 0.02744858 0.73900002 9.6975949e-39
0.0035190827 0.02744858 0.73900008 9.510352e-39
0.0049266946 0.02744858 0.73900002 9.4141781e-39
0.0063343048 0.027448572 0.73900002 8.5786567e-39
0.007741916 0.02744858 0.73900002 7.7518079e-39
0.0091495616 0.027448565 0.73900008 8.1242002e-39
0.010557172 0.027448572 0.73900008 8.5944928e-39
0.011964782 0.02744858 0.73900002 8.8631764e-39
0.013372394 0.02744858 0.73900002 9.2298121e-39
0.014780019 0.02744858 0.73900002 8.4922695e-39
0.016187649 0.02744858 0.73900008 7.8374217e-39
0.017595261 0.02744858 0.73900002 4.1430328e-39
0.019002888 0.027448587 0.73900002 4.5961048e-40
0.020410497 0.02744858 0.73900002 7.3551774e-40
0.021818127 0.02744858 0.73900008 1.0113563e-39
0.023257166 0.027485713 0.74000001 2.0236726e-39
0.024666684 0.027485736 0.74000001 3.1275118e-39
0.026076198 0.027485721 0.74000001 2.394281e-39
0.027560014 0.027560018 0.74200004 1.6570649e-39
0.028973356 0.027560018 0.74200004 1.5659258e-39
0.030427627 0.027597152 0.74300003 1.4737484e-39
0.031842873 0.027597167 0.74300003 1.1971825e-39
0.033258114 0.027597152 0.74300003 1.0124367e-39
0.034673344 0.027597159 0.74300003 1.1042722e-39
0.036088586 0.027597152 0.74300003 1.195756e-39
0.037604775 0.027671441 0.74500006 1.8447099e-39
0.039023828 0.027671434 0.74500006 2.5840112e-39
0.040551431 0.027745716 0.74700004 1.2892997e-39
0.042030472 0.02778288 0.74800003 9.2330155e-41
0.043571427 0.027857162 0.75 1.144095e-38
0.045180019 0.027968571 0.75300002 2.2866603e-38
0.04673811 0.028042868 0.75500005 2.3141776e-38
0.048239999 0.028080016 0.75600004 2.3415504e-38
0.049942855 0.028228588 0.76000005 2.3323682e-38
0.051458105 0.02826573 0.76100004 2.3230418e-38
0.053046703 0.028340004 0.76300001 2.3324052e-38
0.054500021 0.028340004 0.76300001 2.332585e-38
0.078687645 0.028154291 0.75800002 5.9052329e-39
0.080342859 0.028228574 0.76000005 9.8699322e-39
0.08179047 0.028228596 0.75999999 1.1159564e-38
0.083347611 0.02826573 0.76099998 1.2445261e-38
0.084797136 0.028265744 0.76100004 1.235486e-38
0.086246654 0.02826573 0.76100004 1.2354856e-38
0.087696195 0.02826573 0.76100004 1.2265167e-38
-0.022467628 0.029715247 0.76100004 2.1126886e-39
-0.020935226 0.029598102 0.75800002 1.2883006e-39
-0.019491408 0.029598117 0.75800002 9.1878376e-40
-0.017976187 0.029480964 0.75500005 4.67504e-40
-0.016538082 0.029480979 0.75500005 2.7809889e-40
-0.015059984 0.029402867 0.75300002 9.7311771e-41
-0.013607614 0.029363826 0.75200003 4.5964551e-40
-0.012142847 0.029285736 0.75 8.3484598e-40
-0.010685706 0.029207632 0.74800003 9.1875713e-40
-0.00924855 0.029168569 0.74700004 9.1880338e-40
-0.0078047477 0.029090494 0.74500006 5.5150764e-40
-0.0063856961 0.029090494 0.74500006 9.2686084e-41
-0.0049666436 0.029090479 0.74500006 9.2323148e-41
-0.0035380709 0.029012397 0.74300003 9.2366588e-41
-0.0021199693 0.028973341 0.7420001 9.2410029e-41
-0.00070663064 0.028973334 0.74200004 1.0137554e-40
0.00070477941 0.028895251 0.74000001 9.2404423e-41
0.0021142962 0.028895251 0.74000001 1.0855999e-40
0.0035190799 0.028856188 0.73900002 1.0283289e-40
0.0049266899 0.028856203 0.73900002 1.0675932e-40
0.0063428897 0.028895244 0.74000007 9.2389009e-41
0.0077419328 0.028856196 0.73900008 1.0244613e-40
