# .PCD v0.7 - Point Cloud Data file format
VERSION 0.7
FIELDS x y z rgb
SIZE 4 4 4 4
TYPE F F F F
COUNT 1 1 1 1
WIDTH 969
HEIGHT 1
VIEWPOINT 0 0 0 1 0 0 0
POINTS 969
DATA ascii
0.0063171433 0.0049133301 0.73700005 9.220614e-40
0.0077209529 0.0049133301 0.73700005 9.2277326e-40
0.0091247624 0.004913345 0.73700005 9.2384385e-40
0.010528572 0.0049133375 0.73700005 9.2456412e-40
0.011932381 0.0049133375 0.73700005 9.2313059e-40
0.013336192 0.0049133375 0.73700011 9.2169706e-40
0.014740002 0.0049133301 0.73700005 9.2097959e-40
0.016143812 0.0049133226 0.73700005 1.0113928e-39
0.017547622 0.0049133375 0.73700005 1.4705815e-39
0.018951431 0.0049133375 0.73700005 1.9297477e-39
0.020355241 0.0049133375 0.73700005 1.1035744e-39
0.021759052 0.004913345 0.73700005 2.7741506e-40
0.023162862 0.0049133375 0.73700005 6.465507e-40
0.024566673 0.0049133226 0.73700011 1.0149661e-39
0.025970481 0.0049133301 0.73700011 6.4761989e-40
0.027374292 0.0049133375 0.73700005 2.8063944e-40
0.0287781 0.0049133301 0.73700005 4.6251818e-40
0.030181911 0.0049133375 0.73700005 6.454703e-40
0.031671431 0.0049266666 0.73900002 9.2133412e-40
0.03312381 0.0049333274 0.73999995 1.1057282e-39
0.03462667 0.0049466565 0.74200004 1.934763e-39
0.036040001 0.0049466491 0.74200004 2.8556235e-39
0.037503812 0.0049533397 0.74300003 3.2261884e-39
0.039023813 0.0049666762 0.74500006 3.6875155e-39
0.040442862 0.0049666688 0.74500006 3.1368571e-39
0.041974287 0.0049800128 0.74699998 2.5847581e-39
0.043455239 0.0049866661 0.74800003 1.6631633e-39
0.044880003 0.0049866587 0.74800003 8.4610962e-40
0.046428576 0.0049999952 0.75000006 5.5499463e-39
0.047857147 0.0049999878 0.75000006 1.0262255e-38
0.049417146 0.0050133318 0.75199997 1.0439828e-38
0.050917149 0.00502 0.75300002 1.0639642e-38
0.052351438 0.0050200149 0.75300002 1.0159658e-38
0.053928576 0.0050333366 0.75500005 9.8052259e-39
0.055440005 0.0050399974 0.75600004 1.0250409e-38
0.056880005 0.0050399974 0.75599998 1.0816124e-38
0.059940003 0.0051800013 0.77700001 9.2337497e-39
0.061420005 0.0051799938 0.77700007 7.6706517e-39
0.062900007 0.0051799938 0.77700001 4.6119983e-39
0.064545721 0.0051933452 0.77899998 1.5706818e-39
0.066029526 0.0051933378 0.77900004 2.2182106e-39
0.067513339 0.0051933452 0.77899998 2.7717095e-39
0.068997145 0.0051933378 0.77900004 4.523732e-39
0.070480958 0.0051933378 0.77900004 6.2768446e-39
-0.026816193 0.0065228567 0.76099998 1.9124921e-40
-0.025500001 0.0065571517 0.76500005 2.4010843e-39
-0.023885716 0.006514281 0.76000005 4.6033271e-39
-0.02237905 0.0064971372 0.75799996 3.7749986e-39
-0.020935241 0.0064971298 0.75800002 2.948119e-39
-0.019491432 0.0064971447 0.75800002 2.4875066e-39
-0.017976191 0.0064714253 0.75500011 1.9361377e-39
-0.016494287 0.0064542964 0.75300002 1.8439476e-39
-0.015040002 0.0064457208 0.75200003 1.6581214e-39
-0.01357143 0.0064285696 0.75000006 1.3818947e-39
-0.012142858 0.0064285621 0.75000006 1.1060323e-39
-0.010685715 0.0064114183 0.74800003 8.3016845e-40
-0.0092485733 0.0064028576 0.74699998 4.6248034e-40
-0.0078257145 0.0064028576 0.74699998 4.6285028e-40
-0.0063857152 0.0063857138 0.745 3.7171964e-40
-0.0049533341 0.0063685775 0.74300003 7.3905042e-40
-0.0035380954 0.00636857 0.74300003 1.0138591e-39
-0.0021142859 0.0063428581 0.73999995 1.1975497e-39
-0.00070380961 0.0063342825 0.73900002 1.2893964e-39
0.00070380955 0.0063342899 0.73900002 1.196856e-39
0.0021114289 0.0063342825 0.73900002 1.1064485e-39
0.003519048 0.0063342825 0.73900002 1.0149647e-39
0.0049266671 0.0063342974 0.73899996 9.2241592e-40
0.0063171433 0.0063171536 0.73700005 1.1979252e-39
0.0077209533 0.0063171461 0.73700005 1.4737904e-39
0.0091247633 0.0063171312 0.73700011 1.1990014e-39
0.010528573 0.0063171461 0.73700011 9.2421519e-40
0.011932382 0.0063171461 0.73700011 9.2350053e-40
0.013336192 0.0063171387 0.73700005 9.220614e-40
0.014740002 0.0063171461 0.73700005 9.2062226e-40
0.016143812 0.0063171387 0.73700005 8.2843224e-40
0.017547622 0.0063171312 0.73700005 1.8379108e-39
0.018951431 0.0063171536 0.73700005 2.7569777e-39
0.020355241 0.0063171387 0.73700011 1.4705576e-39
0.021759052 0.0063171312 0.73700011 1.8701309e-40
0.02316286 0.0063171461 0.73700005 6.476269e-40
0.024566671 0.0063171387 0.73700005 1.0153234e-39
0.025970479 0.0063171312 0.73700005 6.4797582e-40
0.02737429 0.0063171461 0.73700005 1.8807808e-40
0.028778099 0.0063171461 0.73700005 5.5398093e-40
0.030181909 0.0063171461 0.73700005 9.213131e-40
0.031671431 0.0063342899 0.73900002 1.0138563e-39
0.03312381 0.0063428581 0.74000001 1.106782e-39
0.034533337 0.0063428655 0.74000001 1.9347518e-39
0.036040004 0.0063599795 0.7420001 2.6719469e-39
0.037453339 0.006359987 0.7420001 3.1332781e-39
0.03891905 0.0063685849 0.74300003 3.5027627e-39
0.040442862 0.0063857213 0.745 2.7691451e-39
0.041861907 0.0063857064 0.74500006 2.0301396e-39
0.043455239 0.0064114407 0.74799997 1.1953524e-39
0.044880003 0.0064114332 0.74799997 2.885778e-40
0.046304766 0.0064114183 0.74800003 3.336828e-39
0.04785715 0.0064285696 0.75000006 6.3709796e-39
0.049285721 0.006428577 0.75000006 5.2685866e-39
0.050849527 0.0064457282 0.75199997 4.0722e-39
0.052281909 0.0064457208 0.75199997 3.0415491e-39
0.053785723 0.0064542964 0.75300002 2.0485764e-39
0.055220008 0.0064542964 0.75300002 3.4160644e-39
0.058685724 0.0066857114 0.77999997 4.7143156e-39
0.060171437 0.006685704 0.78000003 4.1518217e-39
0.061578099 0.0066771507 0.77900004 3.6000521e-39
0.063061908 0.0066771582 0.77899998 2.2981729e-39
0.064545721 0.0066771507 0.77900004 9.2531941e-40
0.066029526 0.0066771507 0.77899998 9.3071722e-40
0.067513339 0.0066771433 0.77900004 9.2997733e-40
0.068997145 0.0066771433 0.77899998 1.6642787e-39
0.070480958 0.0066771433 0.77899998 2.4107967e-39
0.071964763 0.0066771582 0.77900004 6.460524e-39
0.073448576 0.0066771582 0.77899998 1.0416234e-38
-0.025500001 0.008014299 0.76499999 2.4918408e-39
-0.023980001 0.007993333 0.76300001 4.2356194e-39
-0.022438098 0.0079619139 0.76000005 3.6835106e-39
-0.020935239 0.007940948 0.75800002 3.0388769e-39
-0.019440001 0.0079200044 0.75599998 2.4875122e-39
-0.017976191 0.0079095289 0.75500005 1.9354216e-39
-0.016494287 0.0078885779 0.75300002 1.7517478e-39
-0.015040002 0.0078781098 0.75199997 1.5662831e-39
-0.01360762 0.0078781024 0.75200003 1.2900592e-39
-0.012142858 0.0078571513 0.75000006 1.0134807e-39
-0.010714286 0.0078571364 0.75000006 8.2909645e-40
-0.0092609543 0.0078361779 0.74800003 7.365491e-40
-0.0078257155 0.0078257248 0.74699998 6.4615414e-40
-0.0063857147 0.0078047663 0.74500006 5.5538082e-40
-0.0049666669 0.0078047663 0.74500006 7.390364e-40
-0.0035380954 0.0077838078 0.74300003 9.2165782e-40
-0.0021142859 0.0077523738 0.74000001 1.1060715e-39
-0.00070476194 0.0077523738 0.74000001 1.2890404e-39
0.00070380961 0.0077419057 0.73899996 1.3812501e-39
0.0021114291 0.0077419057 0.73900002 1.3826766e-39
0.0035190482 0.0077419057 0.73900002 1.2904726e-39
0.0049266675 0.0077419057 0.73900002 1.1068044e-39
0.0063342866 0.0077418983 0.73899996 1.1986413e-39
0.0077209533 0.0077209547 0.73700011 1.3819591e-39
0.0091247624 0.0077209473 0.73700005 1.1997273e-39
0.010528572 0.0077209398 0.73700005 1.1093309e-39
0.011932382 0.0077209622 0.73700005 1.0160633e-39
0.013336192 0.0077209547 0.73700005 1.01462e-39
0.014740002 0.0077209547 0.73700005 8.2986296e-40
0.016143812 0.0077209622 0.73700005 6.4547311e-40
0.017547622 0.0077209398 0.73700011 1.1964833e-39
0.018951431 0.0077209398 0.73700011 1.8400506e-39
0.020355241 0.0077209547 0.73700005 1.1968434e-39
0.021759052 0.0077209547 0.73700005 4.6431324e-40
0.02316286 0.0077209473 0.73700005 1.0153276e-39
0.024566671 0.0077209547 0.73700005 1.4744995e-39
0.025970479 0.0077209473 0.73700005 1.015315e-39
0.02737429 0.0077209547 0.73700005 6.4724715e-40
0.028856194 0.0077419207 0.73899996 7.3835537e-40
0.030263813 0.0077419132 0.73899996 8.2909645e-40
0.031714287 0.0077523887 0.73999995 1.0134653e-39
0.03312381 0.0077523738 0.74000001 1.1989552e-39
0.03462667 0.0077733174 0.74200004 2.0269334e-39
0.036040001 0.0077733248 0.7420001 2.8556137e-39
0.037503809 0.0077838078 0.74300003 3.5928158e-39
0.039023813 0.0078047588 0.74500006 4.3289178e-39
0.040551428 0.0078257099 0.74700004 2.7669801e-39
0.042030483 0.0078361854 0.74800003 1.2957961e-39
0.043455243 0.0078361928 0.74800003 9.2376678e-40
0.044880006 0.0078362003 0.74799997 6.4366123e-40
0.04630477 0.0078361928 0.74799997 2.7663453e-39
0.04785715 0.007857129 0.75000012 4.871013e-39
0.049417146 0.0078780949 0.75200003 5.0668654e-39
0.050849527 0.0078781024 0.75200003 5.3290722e-39
0.052351438 0.0078885779 0.75300002 4.9728229e-39
0.053785723 0.0078885704 0.75299996 4.6958857e-39
0.057126671 0.0081609637 0.77899998 5.7136123e-39
0.05861048 0.0081609562 0.77900004 6.8095426e-39
0.060094289 0.0081609562 0.77900004 5.9862546e-39
0.061578099 0.0081609637 0.77899998 5.1461257e-39
0.063061908 0.0081609562 0.77900004 4.8781736e-39
0.064545721 0.0081609562 0.77899998 4.5947918e-39
0.066029526 0.0081609488 0.77900004 2.5769374e-39
0.067513339 0.0081609562 0.77899998 5.5761309e-40
0.068997145 0.0081609637 0.77900004 1.7536059e-39
0.070480958 0.0081609637 0.77900004 3.0468418e-39
0.071964763 0.0081609637 0.77899998 4.8042775e-39
0.073448576 0.0081609562 0.77900004 6.6534968e-39
0.074932389 0.0081609562 0.77899998 8.8557074e-39
0.076416194 0.0081609562 0.77900004 1.1062611e-38
0.078000009 0.0081714317 0.78000003 1.1427063e-38
0.079383813 0.0081609711 0.77899998 1.1790459e-38
0.080660008 0.0081399977 0.77700001 1.1325183e-38
-0.025500001 0.0094714388 0.76499999 2.5869259e-39
-0.024042858 0.0094714239 0.76500005 3.8700879e-39
-0.022467621 0.0094219148 0.76099998 3.5009284e-39
-0.02099048 0.009409517 0.76000005 3.132513e-39
-0.019491432 0.0093847588 0.75800002 2.5800693e-39
-0.017976191 0.0093476176 0.75500005 1.9361447e-39
-0.016494287 0.0093228593 0.75299996 1.7524723e-39
-0.015040001 0.0093104914 0.75199997 1.4748064e-39
-0.01360762 0.0093104839 0.75199997 1.1978566e-39
-0.012142858 0.0092857033 0.75000006 9.2128648e-40
-0.010714286 0.0092857033 0.75000006 9.1986416e-40
-0.0092609543 0.0092609525 0.74799997 9.2095437e-40
-0.0078257155 0.0092485696 0.74699998 8.2985035e-40
-0.0064028576 0.0092485696 0.74699998 7.3943157e-40
-0.0049666674 0.0092238188 0.745 7.3941475e-40
-0.0035380954 0.0091990456 0.74300003 7.3942736e-40
-0.0021199998 0.0091866627 0.74200004 1.0153066e-39
-0.00070476194 0.009161897 0.74000001 1.2897467e-39
0.00070380961 0.009149529 0.73899996 1.4730688e-39
0.0021142862 0.009161897 0.74000001 1.6578132e-39
0.0035238101 0.0091619045 0.74000001 1.4737806e-39
0.004933334 0.0091619119 0.74000001 1.2915488e-39
0.0063342862 0.009149529 0.73900002 1.2908369e-39
0.0077209533 0.0091247559 0.73700005 1.1993601e-39
0.0091495253 0.0091495365 0.73899996 1.2919145e-39
0.010528573 0.0091247559 0.73700005 1.2919061e-39
0.011932382 0.0091247708 0.73700005 1.2000622e-39
0.013336192 0.0091247708 0.73700005 1.0146031e-39
0.014740002 0.0091247559 0.73700011 7.3874493e-40
0.016143812 0.0091247559 0.73700005 3.7032535e-40
0.017547622 0.0091247633 0.73700005 6.4619057e-40
0.018951431 0.0091247633 0.73700005 9.2132992e-40
0.020355241 0.0091247708 0.73700005 8.2912728e-40
0.021759052 0.0091247633 0.73700005 7.3873933e-40
0.02316286 0.0091247559 0.73700005 1.3833955e-39
0.024566671 0.0091247633 0.73700005 1.9336826e-39
0.025970479 0.0091247559 0.73700011 1.4755729e-39
0.02737429 0.0091247559 0.73700005 1.015308e-39
0.028856194 0.009149529 0.73899996 8.3090833e-40
0.030304763 0.009161897 0.74000001 6.45794e-40
0.031714287 0.0091619119 0.74000001 1.0120514e-39
0.03321334 0.0091866553 0.74200004 1.2900886e-39
0.034673337 0.009199068 0.74299997 2.2106142e-39
0.036088575 0.0091990605 0.74299997 3.0392931e-39
0.037503812 0.0091990456 0.74300003 4.0530764e-39
0.039023817 0.0092238113 0.74500006 5.0639647e-39
0.040551431 0.0092485696 0.74700004 2.7659067e-39
0.04203048 0.0092609525 0.74799997 4.6929065e-40
0.043455239 0.0092609525 0.74800003 7.4406847e-40
0.045000006 0.0092857108 0.75000006 9.2707524e-40
0.04642858 0.0092857033 0.75000006 2.1217074e-39
0.047984764 0.0093104914 0.75199997 3.3220064e-39
0.049417146 0.0093104839 0.75199997 4.9825591e-39
0.050917149 0.0093228593 0.75299996 6.634484e-39
0.052351438 0.0093228668 0.75300002 7.007888e-39
0.053785723 0.0093228593 0.75300002 7.2808918e-39
0.055220008 0.0093228593 0.75300002 8.1163894e-39
0.05868572 0.0096571445 0.78000003 8.8446035e-39
0.060171433 0.0096571445 0.77999997 7.745795e-39
0.061657146 0.0096571296 0.78000003 6.6312666e-39
0.063061908 0.0096447691 0.77899998 7.4736236e-39
0.064545721 0.0096447617 0.77900004 8.2011189e-39
0.066029526 0.0096447766 0.77899998 4.1330808e-39
0.067513339 0.0096447691 0.77900004 9.5527918e-41
0.068997145 0.0096447691 0.77900004 1.8371555e-39
0.070571437 0.009657152 0.77999997 3.5921039e-39
0.072057158 0.0096571445 0.78000003 3.2395008e-39
0.073542871 0.0096571445 0.78000003 2.8728706e-39
0.075028583 0.009657152 0.77999997 7.0140719e-39
0.076514296 0.0096571371 0.78000003 1.1155611e-38
0.078000009 0.0096571371 0.77999997 1.21586e-38
0.079485729 0.0096571296 0.78000003 1.3084512e-38
0.080971442 0.0096571445 0.78000003 1.2042777e-38
0.082457155 0.0096571445 0.78000003 1.1054465e-38
-0.025500001 0.010928579 0.76499999 2.6773461e-39
-0.023980001 0.010899991 0.76300001 4.0552092e-39
-0.022467621 0.01087144 0.76100004 3.4098216e-39
-0.020990478 0.01085715 0.76000005 2.7666144e-39
-0.01949143 0.01082857 0.75800002 2.4889555e-39
-0.017976191 0.010785706 0.75500005 2.2116568e-39
-0.016494287 0.010757148 0.75300002 1.6588501e-39
-0.015040001 0.010742873 0.75200003 1.1063868e-39
-0.01360762 0.010742866 0.75199997 1.1974894e-39
-0.012142858 0.010714278 0.75000006 1.2889872e-39
-0.010714287 0.010714285 0.75000006 1.1968126e-39
-0.0092609534 0.01068572 0.74800003 1.1053582e-39
-0.007836191 0.01068572 0.74799997 1.0146214e-39
-0.0064028581 0.010671437 0.74699998 9.2420118e-40
-0.0049800002 0.010671437 0.74699998 7.397931e-40
-0.0035476193 0.010642864 0.74500006 5.5612211e-40
-0.0021199998 0.010599978 0.7420001 8.3126987e-40
-0.00070666679 0.010599993 0.7420001 1.1979e-39
0.000704762 0.01057142 0.73999995 1.1986217e-39
0.0021142862 0.010571428 0.73999995 1.2000594e-39
0.0035238103 0.010571428 0.74000001 1.2007797e-39
0.004933334 0.01057142 0.74000001 1.2032992e-39
0.0063342866 0.010557137 0.73900002 1.2922718e-39
0.0077209533 0.010528572 0.73700005 1.3837458e-39
0.0091247624 0.010528579 0.73700005 1.3833829e-39
0.010528572 0.010528579 0.73700005 1.4744813e-39
0.011932382 0.010528564 0.73700011 1.2900718e-39
0.013336192 0.010528557 0.73700011 1.1049883e-39
0.014740002 0.010528572 0.73700005 7.3731e-40
0.016143812 0.010528572 0.73700005 4.6072732e-40
0.017547622 0.010528579 0.73700005 6.4547451e-40
0.018951431 0.010528579 0.73700005 9.2060545e-40
0.020355241 0.010528572 0.73700005 8.2911187e-40
0.021759054 0.010528572 0.73700005 7.3730159e-40
0.023162862 0.010528564 0.73700011 1.1061023e-39
0.024566673 0.010528557 0.73700011 1.5649113e-39
0.026040956 0.010557137 0.73900002 1.1989944e-39
0.027448576 0.010557137 0.73900002 8.3163981e-40
0.028856194 0.010557152 0.73900002 6.4723734e-40
0.030304763 0.010571428 0.73999995 4.6249295e-40
0.031714287 0.010571413 0.74000001 7.3764211e-40
0.033213336 0.010600001 0.74200004 1.1057156e-39
0.03462667 0.010599978 0.7420001 1.9340413e-39
0.036088575 0.010614306 0.74299997 2.76236e-39
0.037503812 0.010614298 0.74299997 3.5017117e-39
0.039023813 0.010642879 0.745 4.239962e-39
0.040551431 0.010671422 0.74700004 2.4896842e-39
0.04203048 0.01068572 0.74799997 7.4409369e-40
0.043455239 0.01068572 0.74799997 2.9546028e-39
0.045000006 0.010714278 0.75000012 5.1576205e-39
0.04642858 0.010714285 0.75000006 5.3470733e-39
0.047984764 0.010742866 0.75199997 5.5364616e-39
0.049614288 0.010785714 0.75500011 6.9197099e-39
0.051052384 0.010785714 0.75500005 8.2993471e-39
0.05249048 0.010785706 0.75500005 7.9290876e-39
0.053928576 0.010785721 0.75500005 7.6507267e-39
0.055366669 0.010785706 0.75500011 7.8372829e-39
0.05868572 0.01114285 0.78000003 7.9316029e-39
0.061420005 0.011100002 0.77700001 4.4142891e-39
0.062900007 0.011100002 0.77700001 1.0153017e-38
0.072057165 0.011142865 0.78000003 1.6603733e-39
0.073542878 0.011142865 0.77999997 1.4720752e-39
0.075028591 0.011142865 0.78000003 6.9126474e-39
0.076710492 0.011171423 0.78200006 1.2274586e-38
0.078200012 0.011171415 0.78200006 1.5314449e-38
0.07968954 0.011171415 0.78200006 1.8274756e-38
0.08117906 0.011171415 0.78200006 1.7795896e-38
0.082668588 0.011171415 0.78200006 1.7264607e-38
0.084373347 0.011200018 0.78400004 1.6876092e-38
-0.025500001 0.012385719 0.76500005 2.7702255e-39
-0.023980003 0.012353338 0.76300001 4.1466692e-39
-0.022467621 0.012320943 0.76100004 3.3169099e-39
-0.02099048 0.012304761 0.76000005 2.398199e-39
-0.019491432 0.01227238 0.75800002 2.4889625e-39
-0.017976191 0.01222381 0.75500005 2.4864402e-39
-0.016494287 0.012191445 0.75299996 1.5644867e-39
-0.015040001 0.01217524 0.75200003 6.461177e-40
-0.01360762 0.01217524 0.75200003 1.1971167e-39
-0.012142858 0.012142844 0.75000006 1.6559522e-39
-0.010714286 0.012142844 0.75000006 1.4726582e-39
-0.0092609534 0.012110464 0.74800003 1.2893697e-39
-0.007836191 0.012110479 0.74800003 1.1989944e-39
-0.0064114295 0.012110472 0.74800003 1.1071449e-39
-0.0049800007 0.012094304 0.74699998 7.387141e-40
-0.0035476193 0.012061924 0.745 2.8024708e-40
-0.0021200001 0.012013324 0.7420001 7.3870149e-40
-0.00070666667 0.012013316 0.74200004 1.1060575e-39
0.000704762 0.011980943 0.74000001 9.2347671e-40
0.0021142862 0.011980958 0.74000001 6.4905763e-40
0.0035238103 0.011980958 0.74000001 9.2601026e-40
0.0049333335 0.011980951 0.74000001 1.1093211e-39
0.0063342866 0.011964768 0.73899996 1.2911984e-39
0.0077209533 0.01193238 0.73700005 1.4748666e-39
0.0091247633 0.011932373 0.73700011 1.5670581e-39
0.010528573 0.011932366 0.73700005 1.6578047e-39
0.011932382 0.01193238 0.73700005 1.3808507e-39
0.013336192 0.01193238 0.73700005 1.1053554e-39
0.014740002 0.011932388 0.73700005 8.2842383e-40
0.016143812 0.01193238 0.73700005 4.6144198e-40
0.017595241 0.011964753 0.73900002 7.373086e-40
0.018951431 0.01193238 0.73700005 9.2132852e-40
0.02041048 0.011964753 0.73900002 8.2912588e-40
0.021818098 0.011964753 0.73900002 6.4618637e-40
0.02316286 0.011932388 0.73700005 9.2170687e-40
0.024633337 0.011964768 0.73899996 1.106803e-39
0.026040958 0.011964761 0.73899996 9.2348091e-40
0.027448578 0.011964768 0.73899996 6.4832194e-40
0.02889524 0.011980951 0.74000001 4.6428101e-40
0.030386671 0.012013324 0.74200004 1.8770673e-40
0.031800006 0.012013324 0.74200004 5.5398093e-40
0.03321334 0.012013324 0.7420001 8.2949442e-40
0.034673333 0.012029544 0.74300003 1.6567398e-39
0.036088571 0.012029544 0.74299997 2.3960844e-39
0.037604764 0.012061901 0.74500006 2.9514008e-39
0.039023813 0.012061909 0.74500006 3.4109132e-39
0.040551431 0.012094304 0.74699998 2.2091358e-39
0.04203048 0.012110479 0.74800003 9.3135761e-40
0.043455239 0.012110479 0.74800003 5.1726761e-39
0.045000006 0.012142844 0.75000006 9.3042084e-39
0.046552382 0.012175255 0.75199997 8.48057e-39
0.047984764 0.012175255 0.75200003 7.6547764e-39
0.049482863 0.01219143 0.75300002 8.7682902e-39
0.051120002 0.01224 0.75599998 9.8605982e-39
0.052560002 0.01224 0.75599998 8.9418537e-39
0.054000005 0.012240008 0.75600004 8.0191953e-39
0.055366669 0.012223795 0.75500005 7.5585843e-39
0.073920004 0.012693346 0.78400004 9.3106474e-41
0.075413339 0.012693346 0.78399998 6.70567e-39
0.076906674 0.012693338 0.78400004 1.3372361e-38
0.078200012 0.012660928 0.78200012 1.8458477e-38
0.079893336 0.012693338 0.78400004 2.3417617e-38
0.08138667 0.012693338 0.78399998 2.3417641e-38
0.082880005 0.012693346 0.78400004 2.3417638e-38
0.08437334 0.012693346 0.78399998 2.3417634e-38
0.085647635 0.012660943 0.78200006 2.3417626e-38
0.087137155 0.012660943 0.78200006 2.3417619e-38
-0.023980003 0.013806663 0.76299995 3.7814642e-39
-0.022467621 0.013770483 0.76099998 3.2272254e-39
-0.02099048 0.013752379 0.76000005 2.7655438e-39
-0.019491432 0.013716184 0.75800002 2.674074e-39
-0.017976191 0.013661899 0.75500005 2.5789875e-39
-0.016494285 0.013625711 0.75300002 1.8471496e-39
-0.015040002 0.013607629 0.75199997 1.1956789e-39
-0.013607621 0.013607629 0.75200003 1.0119953e-39
-0.012142858 0.013571426 0.75000006 9.2017525e-40
-0.010714287 0.013571419 0.75000006 8.287139e-40
-0.0092857154 0.013571419 0.75000006 7.3798122e-40
-0.0078361919 0.013535231 0.74800003 6.4652968e-40
-0.0064114295 0.013535239 0.74800003 6.4795761e-40
-0.0049800007 0.013517156 0.74699998 3.7100918e-40
-0.0035476193 0.013480954 0.74500006 1.8912064e-40
-0.0021200001 0.013426669 0.7420001 3.7062663e-40
-0.00070666673 0.013426661 0.74200004 6.4615554e-40
0.00070666679 0.013426654 0.74200004 5.5470119e-40
0.0021142864 0.013390459 0.74000001 4.6539644e-40
0.0035238103 0.013390474 0.74000001 5.5617536e-40
0.0049333335 0.013390474 0.74000001 7.4127287e-40
0.0063342862 0.013372377 0.73899996 9.2278166e-40
0.0077209533 0.013336189 0.73700011 1.1986455e-39
0.0091495244 0.013372391 0.73899996 1.2901194e-39
0.010557144 0.013372384 0.73900002 1.3823095e-39
0.011964763 0.013372391 0.73900002 1.1982755e-39
0.013372383 0.013372384 0.73900002 1.1075148e-39
0.014740002 0.013336189 0.73700005 9.2169005e-40
0.016143812 0.013336197 0.73700005 8.2949863e-40
0.017595241 0.013372391 0.73899996 1.013171e-39
0.01900286 0.013372384 0.73899996 1.289395e-39
0.02041048 0.013372377 0.73900002 9.2133412e-40
0.021818098 0.013372391 0.73900002 4.6359437e-40
0.023225719 0.013372384 0.73900002 6.4726817e-40
0.024633339 0.013372377 0.73899996 7.4088892e-40
0.026040958 0.013372384 0.73899996 5.5649065e-40
0.027485715 0.013390474 0.74000001 4.6572154e-40
0.02889524 0.013390474 0.73999995 4.6355934e-40
0.030386671 0.013426669 0.74200004 5.5505152e-40
0.031800002 0.013426654 0.7420001 6.4510737e-40
0.033258099 0.013444766 0.74300003 8.280637e-40
0.034673337 0.013444774 0.74300003 1.6585306e-39
0.036088575 0.013444781 0.74300003 2.397511e-39
0.037604768 0.013480961 0.74500006 2.8606261e-39
0.039023817 0.013480961 0.74500006 3.3240831e-39
0.040551428 0.013517149 0.74699998 2.0293913e-39
0.04203048 0.013535231 0.74800003 6.4975828e-40
0.043455239 0.013535246 0.74800003 5.0808714e-39
0.045000006 0.013571426 0.75000006 9.5894007e-39
0.046552382 0.013607636 0.75199997 7.5603906e-39
0.047984764 0.013607636 0.75199997 5.537179e-39
0.049614288 0.013661906 0.75500005 5.4421542e-39
0.051120002 0.013680004 0.75599998 5.350662e-39
0.052560002 0.013680011 0.75599998 4.9807935e-39
0.054000005 0.013679996 0.75600004 4.6195387e-39
0.075413339 0.014186673 0.78400004 5.1613382e-39
0.076906674 0.014186673 0.78399998 1.0264357e-38
0.078400008 0.014186665 0.78400004 1.6892348e-38
0.079893336 0.014186688 0.78400004 2.341769e-38
0.08138667 0.014186673 0.78400004 2.341769e-38
0.082880005 0.014186688 0.78400004 2.341769e-38
0.08437334 0.014186688 0.78399998 2.341769e-38
0.085866675 0.014186673 0.78400004 2.341769e-38
0.087137155 0.014150478 0.78200006 2.341769e-38
-0.020990478 0.015199989 0.76000005 3.0406803e-39
-0.01949143 0.015160002 0.75800002 2.8627266e-39
-0.017976191 0.015100002 0.75500005 2.5940921e-39
-0.016494287 0.015060008 0.75299996 2.2336221e-39
-0.015040002 0.015040018 0.75199997 1.7650643e-39
-0.013607621 0.015040018 0.75199997 9.1876134e-40
-0.012142858 0.014999978 0.75000006 9.9790668e-41
-0.010742859 0.015040018 0.75200003 9.2272701e-41
-0.0092857145 0.015000001 0.75000006 9.4409681e-41
-0.0078571429 0.015000001 0.75000006 9.2241873e-41
-0.0064114295 0.014960013 0.74799997 9.4398471e-41
-0.0049866675 0.014960006 0.74800003 9.2248879e-41
-0.0035476193 0.014900006 0.74500006 9.3692217e-41
-0.0021199998 0.014839984 0.74200004 9.2267096e-41
-0.00070666679 0.014839984 0.74200004 9.2990166e-41
0.00070666673 0.014839999 0.74200004 1.841152e-40
0.0021142864 0.01479999 0.74000001 1.8556275e-40
0.0035238103 0.014799997 0.74000001 2.7597732e-40
0.0049333335 0.014800005 0.73999995 3.6959808e-40
0.0063428576 0.01479999 0.74000001 6.4366263e-40
0.0077209533 0.014739998 0.73700005 8.2841402e-40
0.0091495253 0.014780007 0.73899996 1.0117319e-39
0.010557145 0.014780015 0.73899996 1.1046422e-39
0.011964764 0.01478 0.73900002 1.1053568e-39
0.013372383 0.014779992 0.73900002 1.013157e-39
0.014740001 0.014739998 0.73700011 1.1046282e-39
0.016187619 0.01478 0.73900002 1.1039107e-39
0.017595239 0.01478 0.73899996 1.3794172e-39
0.01900286 0.014780007 0.73899996 1.6549265e-39
0.02041048 0.014780007 0.73899996 1.0117221e-39
0.021847621 0.014800005 0.74000001 2.781129e-40
0.023257144 0.014800005 0.73999995 3.710246e-40
0.024666669 0.014799997 0.73999995 3.7101759e-40
0.026076192 0.014800005 0.74000001 2.7953242e-40
0.027485715 0.014799997 0.74000001 1.8697525e-40
0.02889524 0.01479999 0.74000001 5.5323684e-40
0.030386671 0.014839992 0.74200004 8.2840281e-40
0.031800002 0.014839984 0.7420001 8.2734483e-40
0.033258095 0.014859997 0.74300003 8.3057763e-40
0.034673333 0.014860012 0.74300003 1.6596124e-39
0.036088571 0.014860019 0.74300003 2.3982326e-39
0.037604764 0.014899999 0.745 2.8617037e-39
0.039128575 0.014940009 0.74699998 3.227224e-39
0.040551431 0.014940016 0.74699998 1.8424889e-39
0.04203048 0.014960006 0.74799997 3.8141242e-40
0.043455239 0.014959991 0.74800003 5.0944794e-39
0.045000002 0.014999993 0.75000006 9.7715989e-39
0.046552382 0.01504001 0.75199997 6.6340916e-39
0.048048578 0.015059993 0.75300002 3.4105419e-39
0.049614288 0.015099995 0.75500005 2.1126676e-39
0.051255245 0.015159987 0.75800002 7.4158536e-40
0.052699056 0.015159987 0.75800002 9.191495e-40
0.054357145 0.015220009 0.76099998 1.1099895e-39
0.076906681 0.015679993 0.78400004 7.1164438e-39
0.078400016 0.015680015 0.78400004 1.5336166e-38
0.079893343 0.015680023 0.78399998 2.3416255e-38
0.081386678 0.015680015 0.78400004 2.341769e-38
0.082880013 0.015680015 0.78399998 2.341769e-38
0.084373347 0.015680008 0.78400004 2.341769e-38
0.085866682 0.015680008 0.78399998 2.341769e-38
0.08736001 0.01568 0.78400004 2.341769e-38
0.088853344 0.015680015 0.78399998 2.341769e-38
-0.02099048 0.016647622 0.76000011 1.6534495e-39
-0.01954286 0.016647622 0.76000005 4.4224545e-39
-0.018000003 0.016560011 0.75599998 7.292091e-39
-0.016494287 0.016494282 0.75300002 8.7730729e-39
-0.015040002 0.016472392 0.75199997 1.0243064e-38
-0.013607621 0.016472384 0.75199997 9.3134948e-39
-0.01217524 0.016472384 0.75199997 8.3854695e-39
-0.010714286 0.016428567 0.75000006 8.0141969e-39
-0.0092857145 0.01642856 0.75000006 7.6288622e-39
-0.0078571429 0.016428567 0.75000012 7.822879e-39
-0.0064285723 0.01642856 0.75000006 7.9932909e-39
-0.0049866671 0.01638478 0.74799997 6.3470819e-39
-0.003557143 0.016362861 0.74699998 4.7765809e-39
-0.0021228574 0.016275249 0.74299997 5.3394614e-39
-0.00070666673 0.016253322 0.74200004 5.8779104e-39
0.00070666679 0.016253322 0.74200004 4.7758746e-39
0.0021200005 0.01625333 0.74200004 3.7656911e-39
0.003533334 0.016253322 0.7420001 3.6778073e-39
0.0049333335 0.016209528 0.74000001 3.5820202e-39
0.0063428576 0.01620952 0.74000001 3.3065067e-39
0.0077523813 0.016209513 0.74000001 3.1228483e-39
0.0091619063 0.01620952 0.73999995 2.3885357e-39
0.010557145 0.016187623 0.73899996 1.7453284e-39
0.011964764 0.016187616 0.73899996 1.2868684e-39
0.013372383 0.016187616 0.73900002 8.2696368e-40
0.014780002 0.016187608 0.73900002 9.1950683e-40
0.016187621 0.016187616 0.73900002 1.0106221e-39
0.017619049 0.016209513 0.73999995 1.2864845e-39
0.01900286 0.016187623 0.73899996 1.4698037e-39
0.020438097 0.01620952 0.74000001 1.4701681e-39
0.021847621 0.016209513 0.74000001 1.561642e-39
0.023257144 0.01620952 0.74000001 1.7460263e-39
0.024666669 0.01620952 0.74000001 2.0208097e-39
0.026076192 0.01620952 0.74000001 1.3790304e-39
0.027485715 0.016209528 0.73999995 7.3510716e-40
0.028973337 0.016253322 0.74200004 8.2766012e-40
0.030386671 0.016253322 0.7420001 1.0106361e-39
0.031800006 0.016253322 0.74200004 7.3694426e-40
0.033258099 0.016275249 0.74299997 5.5830253e-40
0.034673337 0.016275249 0.74300003 1.4784582e-39
0.036185715 0.016319051 0.74500006 2.4907884e-39
0.037604764 0.016319044 0.74500006 2.9521057e-39
0.039128575 0.016362868 0.74699998 3.4112537e-39
0.040551431 0.016362861 0.74699998 1.9343216e-39
0.04203048 0.016384758 0.74800003 3.6776798e-40
0.043571431 0.01642856 0.75000006 5.5417949e-39
0.045120005 0.016472392 0.75200003 1.0604896e-38
0.046614293 0.016494296 0.75299996 7.1857702e-39
0.048176195 0.016538091 0.75500005 3.7659742e-39
0.049680002 0.016560011 0.75599998 3.7713552e-39
0.051255241 0.016603813 0.75800002 3.7666917e-39
0.052907627 0.016669519 0.76100004 3.9550262e-39
0.054357149 0.016669534 0.76099998 4.2255104e-39
0.078400016 0.01717335 0.78399998 8.3139781e-39
0.079893343 0.017173342 0.78400004 1.3126375e-38
0.081386678 0.017173342 0.78399998 1.4678969e-38
0.082880013 0.017173335 0.78400004 1.6346357e-38
0.084373347 0.017173342 0.78400004 1.6335236e-38
0.085866682 0.017173335 0.78400004 1.6346357e-38
0.08736001 0.017173335 0.78400004 1.6519983e-38
0.088853344 0.017173342 0.78399998 1.6713699e-38
0.090346679 0.017173335 0.78400004 1.6612536e-38
-0.01949143 0.018047616 0.75800002 6.0648604e-39
-0.018000001 0.018000014 0.75599998 1.1893996e-38
-0.016494287 0.017928563 0.75300002 1.532321e-38
-0.015040002 0.017904766 0.75200003 1.8623502e-38
-0.013607621 0.017904781 0.75200003 1.761434e-38
-0.01217524 0.017904781 0.75199997 1.6591243e-38
-0.010742859 0.017904773 0.75199997 1.5950196e-38
-0.0092857154 0.017857127 0.75000006 1.5205435e-38
-0.0078571439 0.017857134 0.75000006 1.5577767e-38
-0.0064285723 0.017857142 0.75000006 1.5841389e-38
-0.0049866675 0.017809525 0.74800003 1.2709968e-38
-0.003557143 0.017785713 0.74699998 9.4986526e-39
-0.0021228574 0.017690487 0.74299997 1.0611498e-38
-0.00070761913 0.017690502 0.74299997 1.1603741e-38
0.00070666679 0.01766666 0.74200004 9.4595858e-39
0.0021200003 0.01766666 0.74200004 7.2781354e-39
0.0035238101 0.017619051 0.73999995 7.0880101e-39
0.0049333335 0.017619029 0.74000001 6.81856e-39
0.0063428576 0.017619044 0.74000001 6.0615926e-39
0.0077523817 0.017619044 0.74000001 5.3434383e-39
0.0091619063 0.017619058 0.74000001 3.8575967e-39
0.01057143 0.017619051 0.74000001 2.3121523e-39
0.011980955 0.017619044 0.73999995 1.4698248e-39
0.013390478 0.017619044 0.73999995 5.6292682e-40
0.014780002 0.017595232 0.73899996 7.3509595e-40
0.016209524 0.017619044 0.74000001 9.2775908e-40
0.017619049 0.017619044 0.74000001 1.102487e-39
0.019028572 0.017619051 0.74000001 1.2958676e-39
0.020438097 0.017619051 0.74000001 2.0208896e-39
0.021847621 0.017619044 0.73999995 2.7720879e-39
0.023320001 0.01766666 0.74200004 3.2147763e-39
0.024666669 0.017619036 0.74000001 3.6893274e-39
0.026146669 0.017666653 0.74200004 2.4799872e-39
0.027560001 0.017666668 0.74200004 1.3004736e-39
0.028973335 0.017666653 0.7420001 1.1946462e-39
0.03038667 0.017666645 0.7420001 1.1118e-39
0.031842858 0.017690495 0.74299997 6.4331651e-40
0.033258099 0.017690487 0.74299997 1.8917249e-40
0.03476667 0.017738096 0.74500006 1.3884247e-39
0.036185715 0.017738096 0.74500006 2.4918716e-39
0.037705716 0.017785721 0.74700004 3.0439482e-39
0.039128575 0.017785721 0.74699998 3.5931282e-39
0.040605716 0.017809525 0.74800003 2.0239949e-39
0.042142861 0.017857142 0.75000006 3.7816141e-40
0.043571431 0.017857127 0.75000012 5.9163031e-39
0.045180004 0.017928571 0.75300002 1.1423884e-38
0.046614293 0.017928571 0.75300002 7.8304236e-39
0.048240002 0.018000007 0.75599998 4.1530521e-39
0.049680002 0.018000007 0.75599998 5.4398196e-39
0.05139048 0.018095233 0.76000005 6.7237243e-39
0.052907623 0.018119052 0.76100004 7.0006671e-39
0.054357145 0.018119045 0.76100004 7.2761932e-39
0.078600012 0.018714286 0.78600007 1.378142e-39
0.080097154 0.018714294 0.78600001 2.7004156e-39
0.081594296 0.018714294 0.78600001 6.0089906e-39
0.082880013 0.018666677 0.78400004 9.2347054e-39
0.084373347 0.018666677 0.78399998 9.2296762e-39
0.085866682 0.018666662 0.78400004 9.1432315e-39
0.08736001 0.018666685 0.78399998 9.5102259e-39
0.088853344 0.018666677 0.78400004 9.8797175e-39
0.090346679 0.018666685 0.78399998 9.8800748e-39
-0.020935241 0.019491427 0.75800002 1.8419228e-40
-0.019491432 0.019491427 0.75799996 6.4545727e-39
-0.017976191 0.019414291 0.75500005 1.2742483e-38
-0.016538097 0.019414283 0.75500011 1.5692746e-38
-0.015060001 0.019362867 0.75299996 1.873121e-38
-0.013607621 0.019337147 0.75200003 1.7436903e-38
-0.01217524 0.019337147 0.75200003 1.615013e-38
-0.010742859 0.019337147 0.75199997 1.6880151e-38
-0.0092857145 0.019285709 0.75000006 1.7715271e-38
-0.0078571429 0.019285709 0.75000006 1.7893553e-38
-0.0064285719 0.019285716 0.75000006 1.8176488e-38
-0.0049866671 0.019234277 0.74800003 1.6690511e-38
-0.0035619047 0.019234285 0.74800003 1.5131187e-38
-0.0021228574 0.019105725 0.74300003 1.5958508e-38
-0.00070761907 0.019105725 0.74299997 1.6699995e-38
0.00070761913 0.019105732 0.74299997 1.5672213e-38
0.0021200003 0.019079991 0.7420001 1.4767847e-38
0.003533334 0.019079991 0.74200004 1.4203201e-38
0.0049333335 0.019028567 0.74000001 1.3664307e-38
0.0063428576 0.019028574 0.74000001 1.3648803e-38
0.0077523817 0.019028574 0.73999995 1.3750367e-38
0.0091495244 0.019002862 0.73900002 1.3096083e-38
0.010557144 0.019002855 0.73900002 1.2552554e-38
0.011980955 0.019028567 0.74000001 1.0886552e-38
0.013390478 0.019028567 0.74000001 9.3213673e-39
0.014800002 0.019028582 0.74000001 8.4801048e-39
0.016209524 0.019028574 0.74000001 7.7504949e-39
0.01766667 0.019079991 0.74200004 8.5745551e-39
0.019080004 0.019079983 0.7420001 9.4983331e-39
0.020493336 0.019079991 0.7420001 1.0793399e-38
0.02190667 0.019079983 0.74200004 1.2096345e-38
0.023320002 0.019079991 0.74200004 1.2268564e-38
0.024733337 0.019079998 0.74200004 1.2459671e-38
0.026146671 0.019079991 0.74200004 1.143826e-38
0.027560003 0.019079991 0.74200004 1.0526001e-38
0.028973337 0.019079998 0.7420001 7.479282e-39
0.030427625 0.019105725 0.74300003 4.4455031e-39
0.031842854 0.019105732 0.74300003 2.3064013e-39
0.033258095 0.019105725 0.74299997 1.870243e-40
0.03476667 0.019157156 0.74500006 1.2962389e-39
0.036185715 0.019157141 0.74500006 2.4936737e-39
0.037705716 0.019208565 0.74700004 3.04503e-39
0.039180957 0.019234285 0.74800003 3.5967142e-39
0.040605716 0.019234285 0.74799997 1.9339418e-39
0.042142861 0.019285694 0.75000006 2.7591287e-40
0.043571431 0.019285716 0.75000006 6.9150057e-39
0.045180004 0.019362859 0.75300002 1.363009e-38
0.046614289 0.019362867 0.75299996 1.2071011e-38
0.048240006 0.019439995 0.75599998 1.0503697e-38
0.049680006 0.01944001 0.75599998 9.8583267e-39
0.051255245 0.019491427 0.75800002 9.2183509e-39
0.053046666 0.019619994 0.76300001 7.5520402e-39
0.054500002 0.019620001 0.76300001 5.9072928e-39
0.079300016 0.020391427 0.79300004 1.8479764e-39
0.080402866 0.020288572 0.78900003 3.328437e-39
0.081801921 0.020262852 0.78800005 6.3679472e-39
0.083091438 0.020211428 0.78600001 9.3030818e-39
0.084588587 0.020211428 0.78600001 9.3077313e-39
0.085866682 0.020160004 0.78399998 9.200134e-39
0.08736001 0.020160012 0.78400004 9.4892933e-39
0.089080013 0.020211421 0.78600001 9.6589695e-39
0.090577155 0.020211428 0.78600001 9.6693672e-39
-0.020935239 0.020935245 0.75799996 1.0096215e-40
-0.01949143 0.020935237 0.75800002 6.8265712e-39
-0.018000003 0.020880006 0.75599998 1.3470699e-38
-0.016538097 0.020852372 0.75500011 1.6156932e-38
-0.015060001 0.020797148 0.75300002 1.8725822e-38
-0.013607621 0.020769536 0.75199997 1.7251439e-38
-0.01217524 0.020769529 0.75200003 1.5686648e-38
-0.010742859 0.020769536 0.75200003 1.7888547e-38
-0.0093104774 0.020769536 0.75199997 2.010264e-38
-0.0078571439 0.020714283 0.75000006 2.0287383e-38
-0.0064285723 0.020714276 0.75000006 2.0470642e-38
-0.0049866675 0.020659052 0.74799997 2.0652826e-38
-0.0035619049 0.020659037 0.74800003 2.0745062e-38
-0.0021228571 0.020520963 0.74300003 2.1298628e-38
-0.00070761918 0.020520978 0.74300003 2.1758157e-38
0.00070761907 0.02052097 0.74299997 2.194541e-38
0.0021200003 0.020493314 0.7420001 2.2123693e-38
0.0035333338 0.020493321 0.74200004 2.1292505e-38
0.0049333335 0.02043809 0.74000001 2.0376627e-38
0.0063428581 0.020438083 0.74000001 2.1210288e-38
0.0077523817 0.02043809 0.74000001 2.2032882e-38
0.0091495244 0.020410486 0.73899996 2.2406704e-38
0.010557144 0.020410478 0.73900002 2.2675369e-38
0.011964763 0.020410478 0.73900002 2.0386274e-38
0.013372383 0.020410478 0.73900002 1.8063427e-38
0.014800002 0.02043809 0.74000001 1.6296975e-38
0.016209524 0.020438097 0.74000001 1.4471436e-38
0.01766667 0.020493336 0.74200004 1.6130267e-38
0.019080004 0.020493321 0.7420001 1.7700829e-38
0.020493336 0.020493314 0.74200004 1.9558019e-38
0.02190667 0.020493314 0.74200004 2.1388645e-38
0.023320002 0.020493329 0.74200004 2.1303281e-38
0.024733337 0.020493321 0.74200004 2.111131e-38
0.026146671 0.020493321 0.74200004 2.0471641e-38
0.027560003 0.020493321 0.7420001 1.9727616e-38
0.028973337 0.020493321 0.7420001 1.3750402e-38
0.030427624 0.020520963 0.74300003 7.6486738e-39
0.031842858 0.020520955 0.74300003 3.8575407e-39
0.033258099 0.020520963 0.74300003 9.7327185e-41
0.03476667 0.020576201 0.74500006 1.2991004e-39
0.036185715 0.020576194 0.74500006 2.4021927e-39
0.037756193 0.020659029 0.74800003 3.0457502e-39
0.039180957 0.020659052 0.74800003 3.593494e-39
0.04071429 0.020714276 0.75000006 1.8392519e-39
0.042142861 0.020714283 0.75000006 1.0085425e-40
0.043571431 0.020714283 0.75000006 7.9298513e-39
0.045180004 0.020797148 0.75300002 1.575958e-38
0.046738099 0.020852372 0.75500011 1.6319237e-38
0.048240002 0.020879999 0.75600004 1.6861571e-38
0.049942862 0.020990476 0.76000005 1.4270737e-38
0.051458102 0.021018095 0.76100004 1.1698269e-38
0.05304667 0.021073334 0.76300001 8.0818922e-39
0.054500002 0.021073334 0.76300001 4.5283086e-39
0.080606677 0.021846652 0.79100001 3.9730945e-39
0.08190573 0.021791436 0.78900003 6.738899e-39
0.083091438 0.02170857 0.78600001 9.4035493e-39
0.084588587 0.02170857 0.78600001 9.4060464e-39
0.086085729 0.02170857 0.78600001 9.3088425e-39
0.087582871 0.02170857 0.78600001 9.4039192e-39
0.089080013 0.02170857 0.78600001 9.4918129e-39
0.090577155 0.021708563 0.78600001 9.4954044e-39
-0.020990478 0.022438101 0.76000005 1.6539105e-39
-0.019491432 0.022379041 0.75800002 4.9887781e-39
-0.018000001 0.022320002 0.75600004 8.4215291e-39
-0.016560001 0.022319995 0.75599998 1.1273492e-38
-0.015100002 0.022290476 0.75500005 1.4130811e-38
-0.013625715 0.02223143 0.75300002 1.4858335e-38
-0.01219143 0.022231437 0.75300002 1.5680549e-38
-0.010742859 0.022201911 0.75200003 1.6790826e-38
-0.0093104774 0.022201918 0.75200003 1.7999396e-38
-0.0078571429 0.022142865 0.75000006 1.9187517e-38
-0.0064285723 0.022142842 0.75000006 2.0378509e-38
-0.0049866671 0.022083819 0.74799997 2.0749797e-38
-0.0035571428 0.0220543 0.74699998 2.1213638e-38
-0.0021228571 0.021936201 0.74300003 2.1209692e-38
-0.00070761913 0.021936201 0.74300003 2.1211127e-38
0.00070761907 0.021936208 0.74299997 2.1028532e-38
0.0021200005 0.021906652 0.74200004 2.0938122e-38
0.003533334 0.021906652 0.74200004 2.02845e-38
0.0049466668 0.021906652 0.74200004 1.9737444e-38
0.0063600005 0.021906666 0.74200004 2.1027456e-38
0.0077523817 0.021847621 0.74000001 2.2315664e-38
0.0091866683 0.021906652 0.7420001 2.24075e-38
0.010600002 0.021906659 0.7420001 2.2591171e-38
0.012013335 0.021906652 0.74200004 2.1117857e-38
0.013426669 0.021906652 0.74200004 1.9729131e-38
0.014840002 0.021906652 0.74200004 1.8249286e-38
0.016253335 0.021906666 0.74200004 1.6789297e-38
0.01766667 0.021906652 0.7420001 1.7799538e-38
0.019080004 0.021906659 0.7420001 1.8728319e-38
0.020493336 0.021906659 0.74200004 1.9554859e-38
0.02190667 0.021906659 0.74200004 2.0383173e-38
0.023320002 0.021906652 0.74200004 2.0749797e-38
0.024733337 0.021906666 0.74200004 2.1210409e-38
0.026146671 0.021906652 0.7420001 2.1119291e-38
0.027560003 0.021906652 0.7420001 2.1029943e-38
0.028973337 0.021906659 0.74200004 1.2541234e-38
0.030386671 0.021906659 0.74200004 4.1331452e-39
0.031842858 0.021936193 0.74300003 2.2055569e-39
0.033347622 0.021995239 0.74500006 3.7210079e-40
0.034860004 0.0220543 0.74699998 1.4806092e-39
0.03628286 0.0220543 0.74699998 2.6784139e-39
0.037705716 0.022054285 0.74700004 3.1375885e-39
0.039180957 0.022083819 0.74799997 3.6885665e-39
0.040605716 0.022083811 0.74800003 1.9332538e-39
0.04203048 0.022083804 0.74800003 9.2248879e-41
0.043687623 0.022201918 0.75199997 9.6869142e-39
0.045120005 0.022201911 0.75200003 1.9280952e-38
0.046738099 0.022290476 0.75500005 1.9735562e-38
0.048367627 0.022379041 0.75800002 2.0199995e-38
0.049811434 0.022379033 0.75800002 1.8897669e-38
0.051458098 0.022467636 0.76099998 1.7610182e-38
0.052907623 0.022467621 0.76100004 1.5758769e-38
0.054642864 0.022585735 0.76499999 1.4017123e-38
0.056100007 0.02258572 0.76500005 1.3731929e-38
0.080606684 0.023353331 0.79100001 3.4170747e-39
0.08190573 0.023294292 0.78899997 6.6456496e-39
0.083302878 0.023264773 0.78800005 9.8706399e-39
0.084803827 0.023264781 0.78799999 9.8688322e-39
0.086304784 0.023264773 0.78800005 9.8684777e-39
0.087805733 0.023264773 0.78799999 1.005e-38
0.08930669 0.023264758 0.78800005 1.0234762e-38
0.090577155 0.023205705 0.78600001 1.0325892e-38
0.092074297 0.023205705 0.78600001 1.0418082e-38
-0.024137147 0.024137139 0.76800001 3.7789628e-39
-0.022526668 0.023979999 0.76300001 3.4991235e-39
-0.021018097 0.023917161 0.76099998 3.1325579e-39
-0.01954286 0.023885705 0.76000011 3.2362918e-39
-0.018000001 0.023760006 0.75600004 3.2481748e-39
-0.016560001 0.023760006 0.75599998 6.383901e-39
-0.015100002 0.023728564 0.75500005 9.4166654e-39
-0.013625716 0.023665719 0.75300002 1.2554538e-38
-0.01217524 0.0236343 0.75199997 1.5582943e-38
-0.010742859 0.023634292 0.75199997 1.5778439e-38
-0.0093104774 0.023634285 0.75200003 1.5867785e-38
-0.0078571429 0.023571417 0.75000006 1.8084415e-38
-0.0064285723 0.023571424 0.75000006 2.0193044e-38
-0.0049866675 0.023508579 0.74800003 2.0937055e-38
-0.0035619049 0.023508579 0.74800003 2.1573088e-38
-0.0021228571 0.023351438 0.74300003 2.1114987e-38
-0.00070761907 0.023351431 0.74300003 2.0656524e-38
0.00070666685 0.023319989 0.74200004 2.0202367e-38
0.0021200005 0.023319982 0.74200004 1.9638433e-38
0.003533334 0.023319997 0.74200004 1.9353591e-38
0.0049466672 0.023319989 0.74200004 1.8999532e-38
0.0063428581 0.023257136 0.74000001 2.0754461e-38
0.0077523817 0.023257136 0.74000001 2.2499335e-38
0.0091866683 0.023319989 0.7420001 2.2499335e-38
0.010600002 0.023319989 0.74200004 2.2499335e-38
0.012013335 0.023319982 0.74200004 2.1948322e-38
0.013426669 0.023319997 0.74200004 2.129611e-38
0.014840002 0.023319989 0.74200004 2.0181132e-38
0.016253334 0.023319982 0.74200004 1.9089177e-38
0.017666668 0.023319997 0.7420001 1.9458339e-38
0.019080004 0.023319989 0.74200004 1.9736005e-38
0.020493336 0.023319982 0.74200004 1.9549114e-38
0.02190667 0.023319997 0.74200004 1.9276477e-38
0.023320002 0.023319997 0.74200004 2.0285593e-38
0.024733337 0.023319989 0.74200004 2.1207538e-38
0.026146671 0.023319975 0.7420001 2.1764651e-38
0.027597146 0.023351446 0.74300003 2.2300538e-38
0.029012384 0.023351438 0.74299997 1.1434834e-38
0.030427624 0.023351453 0.74299997 5.6337383e-40
0.031928577 0.023414284 0.74500006 6.4329689e-40
0.033437144 0.023477152 0.74699998 6.4833596e-40
0.034860004 0.023477152 0.74699998 1.7557611e-39
0.03633143 0.023508579 0.74800003 2.8606527e-39
0.037756193 0.023508571 0.74800003 3.3205421e-39
0.039180957 0.023508564 0.74800003 3.7753741e-39
0.040714294 0.023571432 0.75000006 1.9289364e-39
0.042142864 0.023571424 0.75000006 1.0664021e-40
0.043687623 0.0236343 0.75199997 1.1444801e-38
0.045300003 0.023728572 0.75500011 2.2765388e-38
0.046800002 0.023759998 0.75599998 2.3142126e-38
0.048367623 0.023822866 0.75800002 2.3416848e-38
0.050008576 0.023917139 0.76100004 2.3417499e-38
0.051593337 0.023979992 0.76300001 2.3412121e-38
0.05304667 0.023980007 0.76300001 2.3417148e-38
0.05464286 0.024042875 0.76499999 2.3406002e-38
0.056246668 0.024105728 0.76699996 2.1935174e-38
0.083831444 0.02492287 0.79300004 1.0326918e-38
0.084911443 0.024797156 0.78899997 1.0421588e-38
0.0864143 0.024797142 0.78900003 1.0420532e-38
0.087805726 0.024765708 0.78800005 1.0693189e-38
0.089306682 0.024765708 0.78799999 1.0879754e-38
0.090807632 0.024765722 0.78800005 1.1155284e-38
0.091840014 0.024640009 0.78400004 1.1339663e-38
0.093333349 0.024640024 0.78399998 1.1155263e-38
-0.025666671 0.025666669 0.76999998 3.5034732e-39
-0.024105716 0.025566675 0.76699996 4.0544553e-39
-0.02252667 0.025433332 0.76300001 3.5009004e-39
-0.021073334 0.025433324 0.76300001 2.9463295e-39
-0.019568572 0.025366686 0.76099998 2.672286e-39
-0.018047621 0.025266655 0.75800002 2.3892966e-39
-0.016560003 0.025200002 0.75600004 3.5950452e-39
-0.015100002 0.025166668 0.75500005 4.7803644e-39
-0.013625716 0.0251 0.75300002 6.2731158e-39
-0.01217524 0.025066681 0.75199997 7.8482817e-39
-0.010714287 0.024999999 0.75000012 7.9365019e-39
-0.0093104774 0.025066689 0.75199997 8.0269487e-39
-0.0078571439 0.024999999 0.75000006 9.0497396e-39
-0.0064285719 0.024999991 0.75000006 1.0168626e-38
-0.0049866675 0.024933331 0.74800003 1.0526641e-38
-0.0035571428 0.024900012 0.74699998 1.0904027e-38
-0.0021285713 0.024833344 0.74500006 1.2924048e-38
-0.00070761907 0.024766669 0.74300003 1.4862994e-38
0.00070761913 0.024766676 0.74300003 1.2737859e-38
0.0021228576 0.024766684 0.74300003 1.0620257e-38
0.003533334 0.024733327 0.74200004 1.2275084e-38
0.0049466668 0.024733335 0.74200004 1.3856028e-38
0.0063600005 0.024733327 0.74200004 1.596897e-38
0.0077733337 0.02473332 0.7420001 1.8091231e-38
0.0091866674 0.024733312 0.74200004 1.8086209e-38
0.010600001 0.024733327 0.74200004 1.8183067e-38
0.011980954 0.024666667 0.74000001 1.8178762e-38
0.013390477 0.02466666 0.74000001 1.8182348e-38
0.014840002 0.024733335 0.74200004 1.7897154e-38
0.016253334 0.024733312 0.7420001 1.7723888e-38
0.017666668 0.02473332 0.74200004 1.7440132e-38
0.019080002 0.024733327 0.74200004 1.7259684e-38
0.020493334 0.024733327 0.74200004 1.6146889e-38
0.021906668 0.024733327 0.74200004 1.5051682e-38
0.023320001 0.024733335 0.74200004 1.5504403e-38
0.024766672 0.024766676 0.74300003 1.5967172e-38
0.026146671 0.024733312 0.7420001 1.6144032e-38
0.027597148 0.024766669 0.74300003 1.6422314e-38
0.029012386 0.024766676 0.74299997 8.4841896e-39
0.030427625 0.024766684 0.74299997 5.5151044e-40
0.031928573 0.024833329 0.74500006 7.3658553e-40
0.033437144 0.024899997 0.74699998 8.3237829e-40
0.034860004 0.024900004 0.74699998 1.8476008e-39
0.03633143 0.024933353 0.74799997 2.8617303e-39
0.037756193 0.024933331 0.74800003 3.3194659e-39
0.039180957 0.024933331 0.74800003 3.7760846e-39
0.040714294 0.024999999 0.75000006 1.9314349e-39
0.042255241 0.025066674 0.75200003 9.2334358e-41
0.043687623 0.025066666 0.75200003 1.1533506e-38
0.045360003 0.025200002 0.75600004 2.2958456e-38
0.046923816 0.025266662 0.75800002 2.3142167e-38
0.048495241 0.025333337 0.76000005 2.3417666e-38
0.050140005 0.025433332 0.76300001 2.3417659e-38
0.051593337 0.025433339 0.76300001 2.3417662e-38
0.05304667 0.025433332 0.76300001 2.3417665e-38
0.054642864 0.025500007 0.76499999 2.3417616e-38
0.056246672 0.025566675 0.76700002 2.2679654e-38
0.083831444 0.026433341 0.79299998 1.0786066e-38
0.085126683 0.026366651 0.79100001 1.0881431e-38
0.086414292 0.026299998 0.78900003 1.097474e-38
0.087917149 0.026299991 0.78900003 1.115773e-38
0.089420006 0.026299998 0.78900003 1.1343588e-38
0.090807632 0.026266672 0.78799999 1.1711322e-38
0.092074297 0.026199996 0.78600001 1.2171202e-38
-0.025666671 0.027133338 0.77000004 3.9640744e-39
-0.024137147 0.027062863 0.76800001 4.3360757e-39
-0.022526668 0.026886664 0.76300001 3.5960065e-39
-0.021018097 0.026816197 0.76100004 2.7659109e-39
-0.019568572 0.026816197 0.76100004 2.2095296e-39
-0.01804762 0.026710458 0.75800002 1.5649029e-39
-0.016560001 0.026639991 0.75600004 8.2700712e-40
-0.015100002 0.026604757 0.75500005 9.4143435e-41
-0.013625716 0.026534297 0.75300002 9.2376397e-41
-0.01217524 0.026499063 0.75200003 1.0276843e-40
