# .PCD v0.7 - Point Cloud Data file format
VERSION 0.7
FIELDS x y z rgb
SIZE 4 4 4 4
TYPE F F F F
COUNT 1 1 1 1
WIDTH 967
HEIGHT 1
VIEWPOINT 0 0 0 1 0 0 0
POINTS 967
DATA ascii
0.019234288 0.0078361854 0.74800003 1.013178e-39
0.020659043 0.0078361928 0.74800003 1.014613e-39
0.022142846 0.0078571439 0.75000006 1.0164024e-39
0.023571428 0.0078571439 0.75000006 2.0316109e-39
0.025066659 0.00787808 0.75200003 3.0468264e-39
0.026499039 0.0078780651 0.75200009 3.415246e-39
0.02796858 0.0078885555 0.75300002 3.7840229e-39
0.029402858 0.0078885555 0.75300002 3.4156033e-39
0.030919034 0.007909514 0.75500005 3.0471838e-39
0.032357138 0.0079095215 0.75500005 2.9474534e-39
0.033840001 0.0079199895 0.75600004 2.7590992e-39
0.035373334 0.0079409406 0.75800002 5.9937697e-39
0.036962863 0.0079723746 0.76100004 9.1276574e-39
0.038614295 0.0080142915 0.76500005 9.2191342e-39
0.040228575 0.0080457032 0.76800001 9.4024745e-39
0.041800011 0.0080666542 0.77000004 9.0355178e-39
0.04337905 0.0080876052 0.77200001 8.7596162e-39
-0.036353353 0.0096447542 0.7790001 3.3169281e-39
-0.034780007 0.0096199811 0.77700007 5.3373945e-39
-0.033085715 0.0095580742 0.77200007 7.289996e-39
-0.031533334 0.0095333382 0.77000004 7.9464959e-39
-0.029988576 0.0095085651 0.76800001 8.4791897e-39
-0.028488576 0.0094961599 0.76700002 4.3167938e-39
-0.026886674 0.0094466656 0.76300001 1.0781871e-40
-0.02536667 0.0094219074 0.76100004 6.1151852e-39
-0.02388571 0.0094095245 0.76000005 1.1983274e-38
-0.022379052 0.0093847513 0.75800002 6.0824285e-39
-0.020880004 0.009359993 0.75600004 9.7664898e-41
-0.019440016 0.0093599707 0.7560001 3.6883437e-40
-0.017928584 0.0093228295 0.75300008 5.539501e-40
-0.0164943 0.009322837 0.75300008 3.7064765e-40
-0.015040008 0.0093104616 0.75200003 1.8841859e-40
-0.013607635 0.0093104541 0.75200003 3.7317279e-40
-0.012142868 0.0092857108 0.75000006 5.5540885e-40
-0.010714301 0.0092857033 0.75000006 6.4616815e-40
-0.0092857229 0.0092857182 0.75000006 6.4834156e-40
-0.007857156 0.0092857108 0.75000006 1.2029629e-39
-0.0064114328 0.009260945 0.74800003 1.6653774e-39
-0.0049866666 0.009260945 0.74800003 2.5905566e-39
-0.0035619035 0.0092609525 0.74800003 3.4178062e-39
-0.002134294 0.0092485622 0.74700004 3.6890205e-39
-0.00071143202 0.0092485622 0.74700004 3.9645158e-39
0.00071142305 0.0092485696 0.74700004 2.949652e-39
0.0021285636 0.0092238113 0.74500006 1.8436478e-39
0.0035571372 0.0092485622 0.74700004 1.01638e-39
0.0049799923 0.0092485696 0.74699998 1.8844381e-40
0.0063857012 0.009223789 0.74500006 3.7285049e-40
0.0078047588 0.0092238039 0.74500006 5.5435648e-40
0.0092238029 0.0092238113 0.745 6.4582203e-40
0.010671421 0.0092485622 0.74700004 6.4580802e-40
0.012094276 0.0092485771 0.74700004 1.0145709e-39
0.013517136 0.0092485547 0.74700004 1.2893712e-39
0.014939991 0.0092485622 0.74700004 1.0145933e-39
0.016384756 0.0092609525 0.74800003 7.3837639e-40
0.017809523 0.0092609525 0.74800003 8.2950283e-40
0.019234292 0.009260945 0.74800003 8.2949863e-40
0.020714274 0.0092857108 0.75000006 7.3730159e-40
0.022142855 0.0092857108 0.75000006 6.4905903e-40
0.023571426 0.0092857182 0.75000006 1.8475896e-39
0.025066648 0.0093104467 0.75200009 3.0446796e-39
0.026534282 0.009322837 0.75300008 3.4145328e-39
0.027968572 0.0093228221 0.75300008 3.7807677e-39
0.02940285 0.0093228295 0.75300002 3.0474892e-39
0.030919043 0.0093476102 0.75500005 2.2167028e-39
0.032399986 0.0093599781 0.7560001 2.2963793e-39
0.033929523 0.0093847513 0.75800002 2.4090044e-39
0.035466675 0.009409517 0.76000005 5.7236764e-39
0.036962859 0.0094219074 0.76100004 8.944362e-39
0.038614288 0.0094714239 0.76500005 9.0351073e-39
0.040176205 0.0094961822 0.76700002 9.0347611e-39
0.041800015 0.0095333233 0.77000004 8.8518202e-39
0.043266669 0.0095333233 0.77000004 8.5762913e-39
0.044733338 0.0095333233 0.77000004 8.391879e-39
-0.036400013 0.01114285 0.78000009 1.8428756e-39
-0.034869533 0.011128567 0.77900004 4.8932432e-39
-0.033085715 0.011028565 0.77200001 8.032907e-39
-0.031533331 0.010999992 0.77000004 6.4642066e-39
-0.029988583 0.010971412 0.76800001 4.8921796e-39
-0.028488565 0.010957122 0.76700002 2.6708454e-39
-0.026886672 0.010899998 0.76300001 4.6436088e-40
-0.025366666 0.010871425 0.76099998 6.2852314e-39
-0.023885703 0.01085715 0.75999999 1.2078692e-38
-0.022379061 0.010828547 0.75800008 6.0845655e-39
-0.020880006 0.010799989 0.75600004 9.2292319e-41
-0.019440018 0.010799974 0.7560001 3.6922533e-40
-0.017928582 0.010757118 0.75300002 5.5432425e-40
-0.016494296 0.010757126 0.75300002 4.6283907e-40
-0.015040012 0.010742843 0.75200003 3.7172945e-40
-0.013607631 0.010742851 0.75200003 4.6357195e-40
-0.012142871 0.010714285 0.75000006 5.5468018e-40
-0.010714293 0.010714285 0.75000006 4.6283487e-40
-0.0092857266 0.010714285 0.75000006 4.6429923e-40
-0.0078571578 0.01071427 0.75000006 8.3167064e-40
-0.0064285914 0.01071427 0.75000012 1.1965085e-39
-0.0050000059 0.010714285 0.75000006 1.7539857e-39
-0.0035714384 0.010714278 0.75000006 2.4004159e-39
-0.0021371429 0.010685705 0.74800003 2.4882983e-39
-0.00071238709 0.010685705 0.74800003 2.6658764e-39
0.00071238371 0.010685712 0.74800003 2.1177389e-39
0.0021342835 0.010671422 0.74700004 1.4734219e-39
0.0035571381 0.010671429 0.74700004 9.2165782e-40
0.0049799825 0.010671414 0.74700004 2.7739544e-40
0.0063857096 0.010642849 0.74500006 4.6144618e-40
0.0078047528 0.010642856 0.745 6.4403397e-40
0.0092485668 0.010671414 0.74700004 6.4474303e-40
0.010671423 0.010671422 0.74700004 7.3620158e-40
0.012094277 0.010671437 0.74699998 1.4719435e-39
0.013517137 0.010671422 0.74700004 2.1151633e-39
0.014960006 0.010685712 0.74800003 1.289374e-39
0.01638476 0.01068572 0.74800003 4.6358176e-40
0.017809516 0.010685697 0.74800003 5.547082e-40
0.019285703 0.0107143 0.75000006 7.3765612e-40
0.020714285 0.010714285 0.75000006 8.2984335e-40
0.022142854 0.010714285 0.75000006 1.0146059e-39
0.02357142 0.01071427 0.75000012 1.9372797e-39
0.025066663 0.010742843 0.75200003 2.9517736e-39
0.026534285 0.010757126 0.75300002 2.7688186e-39
0.027968576 0.010757118 0.75300002 2.5804239e-39
0.029480951 0.010785699 0.75500005 4.1433607e-39
0.030919038 0.010785706 0.75500005 5.7103823e-39
0.032400001 0.010799974 0.7560001 8.5792425e-39
0.033929531 0.010828547 0.75800002 1.1346492e-38
0.035466682 0.01085715 0.75999999 1.0792237e-38
0.036962867 0.010871433 0.76100004 1.0329445e-38
0.038513344 0.010899991 0.76300001 9.4950036e-39
0.040228564 0.010971412 0.76800001 8.6663304e-39
0.041908585 0.011028558 0.77200001 8.6677639e-39
0.04337905 0.011028565 0.77200007 8.6684715e-39
0.044849526 0.011028558 0.77200001 8.391879e-39
0.046320003 0.011028558 0.77200001 8.206413e-39
-0.036400009 0.012628578 0.78000003 3.8391094e-40
-0.034869533 0.01261238 0.77900004 4.5431203e-39
-0.033085715 0.012499042 0.77200001 8.6706856e-39
-0.031533331 0.012466654 0.77000004 4.985059e-39
-0.029988581 0.012434259 0.76800001 1.2082934e-39
-0.028488578 0.012418069 0.76700002 1.010601e-39
-0.026886668 0.012353316 0.76300001 8.4172496e-40
-0.025433341 0.012353323 0.76300001 6.4825202e-39
-0.023885714 0.012304761 0.76000005 1.2074032e-38
-0.022379054 0.012272365 0.75800002 6.0845851e-39
-0.020935247 0.012272365 0.75800008 9.8393573e-41
-0.019440003 0.012239993 0.75600004 3.6885399e-40
-0.017928571 0.012191415 0.75300002 5.539557e-40
-0.016494287 0.012191407 0.75300002 5.5431023e-40
-0.015040006 0.012175217 0.75200003 4.6285449e-40
-0.013607633 0.01217521 0.75200003 4.6251537e-40
-0.012175254 0.012175217 0.75200009 4.6250556e-40
-0.010714295 0.012142859 0.75000006 3.6958266e-40
-0.0092857294 0.012142859 0.75000006 2.7919611e-40
-0.0078571541 0.012142844 0.75000012 4.6288111e-40
-0.0064285775 0.012142859 0.75000006 6.4548432e-40
-0.0050000097 0.012142852 0.75000006 1.0121186e-39
-0.0035714412 0.012142852 0.75000006 1.2908495e-39
-0.0021371387 0.012110472 0.74800003 1.3808872e-39
-0.00071238336 0.012110464 0.74800003 1.3808928e-39
0.000712373 0.012110472 0.74800003 1.2894216e-39
0.0021342842 0.012094289 0.74700004 1.1053695e-39
0.0035619095 0.012110479 0.74800003 7.3621138e-40
0.0049866652 0.012110479 0.74800003 3.6924074e-40
0.0063857185 0.012061901 0.745 5.5184815e-40
0.0078047514 0.012061901 0.74500006 6.4403397e-40
0.0092485687 0.012094282 0.74700004 7.3586106e-40
0.010671423 0.012094274 0.74700004 8.2840421e-40
0.012094268 0.012094282 0.74700004 1.9304204e-39
0.013517137 0.012094282 0.74700004 2.9413353e-39
0.014959996 0.012110472 0.74800003 1.5638113e-39
0.016384764 0.012110479 0.74800003 9.5525115e-41
0.01780952 0.012110464 0.74800003 3.7175467e-40
0.019285714 0.012142852 0.75000006 5.5434667e-40
0.020714281 0.012142852 0.75000006 1.013164e-39
0.02214285 0.012142844 0.75000012 1.3823081e-39
0.023634272 0.012175232 0.75200003 2.118078e-39
0.025099996 0.012191415 0.75300002 2.7673879e-39
0.026534287 0.01219143 0.75300002 2.0366542e-39
0.028042845 0.012223788 0.75500011 1.294776e-39
0.029480934 0.012223788 0.75500011 5.2350745e-39
0.030959992 0.012239978 0.75600004 9.2235427e-39
0.032399982 0.012239985 0.7560001 1.4779673e-38
0.033929519 0.012272358 0.75800008 2.0276867e-38
0.035466678 0.012304753 0.76000005 1.5953405e-38
0.037060011 0.012353331 0.76300001 1.1616966e-38
0.038513336 0.012353331 0.76300001 9.9487805e-39
0.040176205 0.012418076 0.76700002 8.206427e-39
0.041800018 0.012466662 0.77000004 8.4844558e-39
0.043266669 0.012466654 0.77000004 8.759591e-39
0.044849526 0.012499027 0.77200001 8.4840719e-39
0.045660015 0.012320958 0.76099998 8.1127964e-39
-0.036400001 0.014114283 0.78000009 4.2413605e-39
-0.034869537 0.014096186 0.77900004 5.818414e-39
-0.033085711 0.013969511 0.77200001 7.3863773e-39
-0.031533331 0.013933323 0.77000004 4.7044364e-39
-0.029988572 0.013897136 0.76800001 2.0261417e-39
-0.028488573 0.013879038 0.76700002 1.2878704e-39
-0.026957147 0.013842858 0.76500005 5.5256421e-40
-0.025433345 0.013806663 0.76300001 6.1926504e-39
-0.023917153 0.013770469 0.76100004 1.1802833e-38
-0.022438083 0.013752386 0.75999999 5.993844e-39
-0.020935247 0.013716169 0.75800002 9.2297925e-41
-0.019440005 0.013679981 0.75600004 3.6883997e-40
-0.017976208 0.013661891 0.75500011 7.3797562e-40
-0.016494295 0.013625689 0.75300002 5.5394589e-40
-0.015040018 0.013607599 0.75200003 4.6214403e-40
-0.013607628 0.013607614 0.75200003 4.6217626e-40
-0.012175248 0.013607599 0.75200003 4.6252378e-40
-0.010742876 0.013607599 0.75200009 3.7067707e-40
-0.0093104849 0.013607591 0.75200003 3.7067567e-40
-0.0078571485 0.013571426 0.75000006 4.6250837e-40
-0.0064285803 0.013571434 0.75000006 5.5327888e-40
-0.0050000129 0.013571419 0.75000006 8.2951404e-40
-0.0035714454 0.013571426 0.75000012 1.1050191e-39
-0.0021371411 0.013535231 0.74800003 1.197212e-39
-0.00071237871 0.013535231 0.74800003 1.1975763e-39
0.00071237719 0.013535239 0.74800003 9.2279287e-40
0.0021371329 0.013535224 0.74800003 6.4727517e-40
0.003561914 0.013535239 0.74800003 5.5435227e-40
0.0049866694 0.013535239 0.74800003 3.6996802e-40
0.0064028543 0.013517141 0.74700004 4.6073012e-40
0.0078256996 0.013517134 0.74700004 5.5255721e-40
0.0092485687 0.013517149 0.74700004 6.4474303e-40
0.010671424 0.013517141 0.74699998 7.3693586e-40
0.012094283 0.013517141 0.74700004 1.3801403e-39
0.013517139 0.013517134 0.74700004 2.0233503e-39
0.014959999 0.013535231 0.74800003 1.1964749e-39
0.016384754 0.013535231 0.74800003 3.7067567e-40
0.017809525 0.013535224 0.74800003 5.5434947e-40
0.019285711 0.013571426 0.75000006 8.2985736e-40
0.020714277 0.013571434 0.75000006 1.105724e-39
0.022142857 0.013571434 0.75000006 1.4748638e-39
0.023634285 0.013607606 0.75200003 2.1216626e-39
0.025099989 0.013625696 0.75300008 2.7695431e-39
0.02653428 0.013625689 0.75300002 1.9426733e-39
0.028042842 0.013661884 0.75500011 1.1129477e-39
0.029480943 0.013661884 0.75500011 5.4356956e-39
0.030960005 0.013679981 0.75600004 9.8833469e-39
0.032400005 0.013679981 0.75600004 1.5142092e-38
0.033929534 0.013716176 0.75800002 2.029382e-38
0.035466686 0.013752386 0.75999999 1.5770175e-38
0.036962848 0.013770469 0.76100004 1.1153875e-38
0.038513336 0.013806656 0.76300001 9.6739704e-39
0.040176205 0.013879038 0.76699996 8.1135069e-39
0.041800011 0.013933331 0.77000004 8.3911882e-39
0.04326668 0.013933323 0.77000004 8.667038e-39
0.044849526 0.013969511 0.77200001 8.4826341e-39
0.046320017 0.013969518 0.77200001 8.2986324e-39
-0.036400013 0.015599996 0.78000009 8.0177912e-39
-0.034780011 0.015539996 0.77700001 7.1026788e-39
-0.033128574 0.015459992 0.77300006 6.0845346e-39
-0.031533331 0.015399985 0.77000004 4.5121502e-39
-0.029988579 0.015359975 0.76800001 2.8544464e-39
-0.028488578 0.015339985 0.76700002 1.5615734e-39
-0.026957136 0.015300013 0.76499999 2.8996789e-40
-0.025433343 0.015259989 0.76300001 5.9325708e-39
-0.02391715 0.015220001 0.76100004 1.15223e-38
-0.022438094 0.015199997 0.76000005 5.8123156e-39
-0.020935249 0.015159979 0.75800002 9.9109636e-41
-0.019491438 0.015159987 0.75800002 4.5995941e-40
-0.017976208 0.01509998 0.75500005 8.2838179e-40
-0.016494295 0.015059978 0.75300002 6.4435627e-40
-0.015040011 0.01503998 0.75200003 4.6142376e-40
-0.013607631 0.015039988 0.75200003 4.6180351e-40
-0.012175249 0.015039988 0.75200003 4.6215524e-40
-0.010742868 0.01503998 0.75200003 4.628657e-40
-0.0093104905 0.01503998 0.75200003 3.7172525e-40
-0.0078780996 0.01503998 0.75200003 3.7134549e-40
-0.006428584 0.014999993 0.75000006 3.7173365e-40
-0.0050000167 0.015000001 0.75000012 6.4798703e-40
-0.0035809579 0.01503998 0.75200003 9.220614e-40
-0.0021371443 0.014959991 0.74800003 1.0135424e-39
-0.00071429537 0.015000001 0.75000006 1.0146256e-39
0.00071238185 0.014959998 0.74800003 6.4872552e-40
0.0021371376 0.014959984 0.74800003 1.8774317e-40
0.0035619033 0.014959998 0.74800003 2.7956745e-40
0.0049866736 0.014960006 0.74800003 3.6996802e-40
0.0064114295 0.014959998 0.74800003 4.6072732e-40
0.0078257006 0.014939994 0.74700004 4.6107484e-40
0.0092485696 0.014940001 0.74700004 5.5361519e-40
0.010671415 0.014939994 0.74700004 6.4617936e-40
0.012094284 0.014939994 0.74700004 9.2205439e-40
0.013535248 0.014959991 0.74800003 1.1050037e-39
0.014960005 0.014959998 0.74800003 9.1989359e-40
0.01638476 0.014959998 0.74800003 6.454661e-40
0.017809529 0.014959984 0.74800003 8.2878116e-40
0.019285707 0.015000001 0.75000006 1.0128123e-39
0.020714285 0.015000001 0.75000006 1.2883216e-39
0.022142854 0.014999993 0.75000006 1.5674196e-39
0.023634272 0.01503998 0.75200003 2.2156533e-39
0.025099991 0.015059993 0.75300002 2.7695417e-39
0.026534282 0.015059985 0.75300002 1.8515511e-39
0.028042851 0.015099987 0.75500011 8.3421119e-40
0.02948094 0.01509998 0.75500011 5.6943445e-39
0.030960003 0.015119977 0.75600004 1.0520457e-38
0.032485716 0.015159979 0.75800008 1.5428002e-38
0.034019072 0.015199997 0.75999999 2.0286255e-38
0.035466682 0.015199997 0.76000005 1.5495323e-38
0.037060004 0.015260004 0.76300001 1.0692504e-38
0.03851334 0.015260004 0.76300001 9.3873278e-39
0.040176205 0.015339985 0.76700002 8.0191505e-39
0.041800007 0.015399978 0.7700001 8.2989912e-39
0.043266673 0.015399992 0.77000004 8.4822824e-39
0.044733338 0.015399985 0.77000004 8.480109e-39
0.046200007 0.015399985 0.77000004 8.4769098e-39
-0.036400001 0.017085716 0.78000003 6.6489216e-39
-0.034780003 0.017019987 0.77700001 5.8098101e-39
-0.033085708 0.016910471 0.77200001 5.0617871e-39
-0.031533342 0.016866662 0.7700001 4.1433663e-39
-0.029988581 0.016822845 0.76800001 3.2253673e-39
-0.028488571 0.016800947 0.76700002 1.9321341e-39
-0.026957139 0.016757153 0.76500005 7.3586807e-40
-0.0255 0.016757138 0.76500005 6.0986653e-39
-0.023979999 0.016713321 0.76300001 1.1429025e-38
-0.022467623 0.016669527 0.76100004 5.8097946e-39
-0.020990474 0.016647622 0.76000005 2.7596051e-40
-0.01949144 0.016603798 0.75800002 6.4399053e-40
-0.018000012 0.016559981 0.7560001 1.0124171e-39
-0.01653811 0.016538069 0.75500005 8.283944e-40
-0.015059999 0.016494282 0.75300002 7.3692745e-40
-0.013607626 0.016472362 0.75200003 5.53625e-40
-0.012175253 0.016472362 0.75200003 4.617867e-40
-0.010742874 0.016472369 0.75200009 5.5505292e-40
-0.009310483 0.016472362 0.75200003 5.5752341e-40
-0.0078781107 0.016472362 0.75200003 4.6492981e-40
-0.0064457217 0.016472377 0.75200003 3.7278323e-40
-0.005013342 0.016472362 0.75200003 6.4761989e-40
-0.00358097 0.016472362 0.75200009 9.2205859e-40
-0.0021371401 0.016384758 0.74800003 1.0142598e-39
-0.00071238476 0.016384751 0.74800003 1.1071799e-39
0.00071238604 0.016384758 0.74800003 7.3841142e-40
0.002137142 0.016384743 0.74800003 4.6110146e-40
0.0035618974 0.016384751 0.74800003 4.6144899e-40
0.0049866783 0.016384766 0.74800003 5.5256421e-40
0.0064114342 0.016384758 0.74800003 4.6072451e-40
0.0078361901 0.016384758 0.74800003 4.6035037e-40
0.009260946 0.016384766 0.74800003 4.6176988e-40
0.010685717 0.016384743 0.74800003 4.6322863e-40
0.012110482 0.016384766 0.74800003 7.3911628e-40
0.013535238 0.016384751 0.74800003 1.1057296e-39
0.014960009 0.016384758 0.74800003 8.2985315e-40
0.016384764 0.016384758 0.74800003 5.547082e-40
0.01780952 0.016384751 0.74800003 7.3766313e-40
0.019285703 0.01642856 0.75000012 1.0120976e-39
0.020714281 0.016428575 0.75000006 1.1968476e-39
0.022201898 0.016472355 0.75200003 1.4745107e-39
0.023634287 0.016472362 0.75200003 2.2149372e-39
0.025100008 0.016494267 0.75300002 2.9553637e-39
0.026534285 0.016494274 0.75300002 2.2174525e-39
0.028042844 0.016538076 0.75500005 1.5660253e-39
0.029480932 0.016538076 0.75500005 5.5275367e-39
0.030960001 0.016559981 0.75600004 9.5152902e-39
0.032485716 0.016603805 0.75800002 1.3205296e-38
0.034019053 0.016647615 0.76000005 1.6886875e-38
0.035466675 0.016647615 0.76000005 1.3555594e-38
0.037060007 0.016713336 0.76300001 1.0222526e-38
0.038614303 0.016757153 0.76500005 8.5658138e-39
0.040228572 0.016822845 0.76800001 6.9196258e-39
0.041800003 0.016866647 0.7700001 7.2866441e-39
0.04326668 0.016866654 0.77000004 7.6568307e-39
0.044849537 0.016910471 0.77200001 7.5628162e-39
0.046320003 0.016910471 0.77200001 7.5621296e-39
-0.034780007 0.0185 0.77700001 4.6094704e-39
-0.033085711 0.01838094 0.77200001 3.9612003e-39
-0.031533342 0.018333316 0.7700001 3.7739028e-39
-0.029988578 0.018285699 0.76800001 3.5894975e-39
-0.028414277 0.0182143 0.76499999 2.3891634e-39
-0.026957145 0.018214285 0.76500005 1.1168363e-39
-0.025433343 0.018166669 0.76300001 6.2973891e-39
-0.023917144 0.018119052 0.76099998 1.1338972e-38
-0.022438088 0.018095225 0.76000005 5.9055692e-39
-0.020990474 0.018095233 0.76000005 3.7461753e-40
-0.019491442 0.018047601 0.75800008 8.2696368e-40
-0.018000014 0.017999984 0.7560001 1.195742e-39
-0.016538115 0.017976165 0.75500005 1.1039093e-39
-0.015060007 0.017928548 0.75300002 9.2095998e-40
-0.013607637 0.017904751 0.75200003 7.3801065e-40
-0.012175246 0.017904758 0.75200003 4.6215384e-40
-0.010742866 0.017904744 0.75200003 6.4547311e-40
-0.0093104877 0.017904744 0.75200003 7.3943157e-40
-0.0078781052 0.017904744 0.75200003 5.5752481e-40
-0.0064457259 0.017904744 0.75200003 2.8096595e-40
-0.0050133457 0.017904744 0.75200009 6.4797302e-40
-0.003580963 0.017904744 0.75200003 9.2241172e-40
-0.0021371434 0.017809518 0.74800003 1.1064499e-39
-0.00071237964 0.017809518 0.74800003 1.1972148e-39
0.0007123758 0.017809525 0.74800003 9.2063768e-40
0.0021371467 0.01780951 0.74800003 6.4476685e-40
0.0035619019 0.01780951 0.74800003 6.4440251e-40
0.0049866675 0.017809525 0.74800003 6.4440391e-40
0.0064114239 0.017809518 0.74800003 5.5256982e-40
0.0078361947 0.017809518 0.74800003 3.6924635e-40
0.0092609506 0.01780951 0.74800003 3.6923654e-40
0.010685706 0.01780951 0.74800003 2.7920311e-40
0.012110487 0.017809533 0.74800003 6.4834717e-40
0.013535243 0.017809518 0.74800003 1.0149563e-39
0.014959997 0.017809518 0.74800003 7.3835958e-40
0.016428566 0.017857142 0.75000006 4.6321883e-40
0.017857132 0.017857142 0.75000012 7.3909105e-40
0.019285711 0.017857142 0.75000006 9.2133272e-40
0.020769507 0.017904736 0.75200003 1.1039345e-39
0.022201896 0.017904751 0.75200003 1.291553e-39
0.023665709 0.017928556 0.75300008 2.2138568e-39
0.025100002 0.017928548 0.75300002 3.0454027e-39
0.026604751 0.017976172 0.75500005 2.6802187e-39
0.02804284 0.01797618 0.75500005 2.3071609e-39
0.029480942 0.01797618 0.75500005 5.3341687e-39
0.030959999 0.017999977 0.75600004 8.3978023e-39
0.03248572 0.018047594 0.75800002 1.0990422e-38
0.03401906 0.018095247 0.75999999 1.3463454e-38
0.035513338 0.018119045 0.76100004 1.1618065e-38
0.037060011 0.018166661 0.76300001 9.7651347e-39
0.038614299 0.018214285 0.76500005 7.7331973e-39
0.040176202 0.018261887 0.76700002 5.721084e-39
0.04169143 0.018285707 0.76800001 6.2710376e-39
0.043266673 0.018333331 0.77000004 6.734866e-39
0.044733338 0.018333331 0.77000004 6.7359296e-39
0.046320003 0.01838094 0.77200001 6.6380097e-39
-0.034779999 0.019979984 0.77700001 3.7811363e-39
-0.033128578 0.019877136 0.77300006 3.5938639e-39
-0.031533338 0.019799978 0.77000004 3.4091013e-39
-0.029988572 0.019748576 0.76800001 3.2246834e-39
-0.028488573 0.019722849 0.76700002 2.4835129e-39
-0.026957149 0.019671418 0.76500005 1.6563642e-39
-0.025433339 0.019619994 0.76300001 7.6666552e-39
-0.02391715 0.01956857 0.76100004 1.3641664e-38
-0.022438088 0.019542858 0.75999999 6.9143177e-39
-0.020990474 0.019542858 0.75999999 2.7597172e-40
-0.019491434 0.019491419 0.75800002 7.3586386e-40
-0.018000016 0.019439988 0.7560001 1.288309e-39
-0.016538115 0.019414276 0.75500005 1.104275e-39
-0.015060003 0.019362837 0.75300002 9.2132151e-40
-0.013625713 0.019362845 0.75300002 7.3729038e-40
-0.012175251 0.019337125 0.75200003 6.4619197e-40
-0.01074287 0.019337133 0.75200009 6.4621019e-40
-0.0093104886 0.019337125 0.75200003 7.3802747e-40
-0.0078781089 0.019337125 0.75200003 6.4724855e-40
-0.0064457189 0.019337125 0.75200003 5.5541305e-40
-0.0050133471 0.019337133 0.75200003 6.4653109e-40
-0.0035809672 0.019337118 0.75200003 7.3801766e-40
-0.0021371383 0.019234277 0.74800003 8.2950283e-40
-0.00071237545 0.019234285 0.74800003 1.0117417e-39
0.00071237999 0.019234285 0.74800003 7.3659674e-40
0.0021371359 0.01923427 0.74800003 5.5256702e-40
0.0035619061 0.019234277 0.74800003 6.4440111e-40
0.0049866722 0.019234292 0.74800003 7.3624361e-40
0.0064114281 0.019234285 0.74800003 5.5257823e-40
0.0078361984 0.019234277 0.74800003 3.6961909e-40
0.0092609543 0.01923427 0.74800003 4.6180772e-40
0.01068571 0.01923427 0.74800003 5.5471381e-40
0.012110466 0.019234277 0.74800003 9.2312638e-40
0.013535247 0.019234277 0.74800003 1.2911676e-39
0.014960003 0.019234285 0.74800003 1.1064008e-39
0.016428562 0.019285716 0.75000012 9.2274243e-40
0.01785714 0.019285716 0.75000006 9.2239491e-40
0.019285707 0.019285716 0.75000006 1.0135227e-39
0.02076952 0.019337133 0.75200003 1.2893964e-39
0.022201899 0.019337118 0.75200003 1.5681329e-39
0.023665713 0.019362837 0.75300002 2.398241e-39
0.025166659 0.019414268 0.75500005 3.1375955e-39
0.026604746 0.019414268 0.75500005 3.2301555e-39
0.028042849 0.019414283 0.75500005 3.320933e-39
0.029480938 0.019414268 0.75500005 4.6098754e-39
0.031041898 0.019491412 0.75800008 5.9142628e-39
0.032571446 0.019542858 0.75999999 6.3695293e-39
0.034019057 0.019542858 0.76000005 6.8279431e-39
0.03551333 0.019568563 0.76100004 1.0415578e-38
0.037060011 0.019620001 0.76300001 1.3987049e-38
0.038614292 0.019671433 0.76500005 1.3260187e-38
0.040176202 0.019722849 0.76700002 1.2613752e-38
0.041691419 0.019748546 0.76800001 1.2804237e-38
0.04326668 0.019799992 0.77000004 1.2980016e-38
0.044733334 0.019799992 0.77000004 1.289392e-38
0.0462 0.019799992 0.77000004 1.2790605e-38
-0.033085719 0.021321878 0.77200001 3.1364633e-39
-0.031533338 0.021266647 0.77000004 3.0438907e-39
-0.030066658 0.021266654 0.77000004 2.8580463e-39
-0.028525723 0.021211408 0.76800001 2.5717582e-39
-0.027062859 0.021211408 0.76800001 2.2285508e-39
-0.025433345 0.021073334 0.76300001 9.0711136e-39
-0.023979997 0.021073334 0.76300001 1.5845016e-38
-0.02246763 0.021018088 0.76100004 8.0174325e-39
-0.020990476 0.020990476 0.76000005 9.911384e-41
-0.019491436 0.02093523 0.75800002 7.3512958e-40
-0.018000009 0.020879976 0.7560001 1.287223e-39
-0.016538111 0.020852357 0.75500005 1.1035576e-39
-0.015060012 0.020797111 0.75300008 9.2060405e-40
-0.013625721 0.020797126 0.75300008 8.2769375e-40
-0.012175244 0.020769514 0.75200003 7.3765893e-40
-0.010742864 0.020769499 0.75200003 7.383834e-40
-0.0093104923 0.020769507 0.75200003 6.4582063e-40
-0.0078781024 0.020769507 0.75200003 7.3728758e-40
-0.0064457301 0.020769499 0.75200003 8.2911747e-40
-0.0050133504 0.020769499 0.75200009 6.4400735e-40
-0.0035809602 0.020769499 0.75200003 4.6143357e-40
-0.0021371415 0.020659044 0.74800003 6.4584165e-40
-0.00071238616 0.020659052 0.74800003 7.3695547e-40
0.00071238418 0.020659052 0.74800003 5.5256281e-40
0.0021371401 0.020659037 0.74800003 3.6887921e-40
0.0035618958 0.020659044 0.74800003 6.4437309e-40
0.0049866764 0.020659044 0.74800003 8.2806089e-40
0.0064114323 0.020659044 0.74800003 6.4368925e-40
0.0078361882 0.020659044 0.74800003 3.6925616e-40
0.009260959 0.020659037 0.74800003 6.4511858e-40
0.010685715 0.020659037 0.74800003 8.2986156e-40
0.012110471 0.020659037 0.74800003 1.1982755e-39
0.013535236 0.020659037 0.74800003 1.4737736e-39
0.014960007 0.020659044 0.74800003 1.3808549e-39
0.016384762 0.020659044 0.74800003 1.2893768e-39
0.017857136 0.020714283 0.75000006 1.1975399e-39
0.019285703 0.02071429 0.75000006 1.0135185e-39
0.020714272 0.020714268 0.75000012 1.4712709e-39
0.022201899 0.020769514 0.75200003 1.8425631e-39
0.023665715 0.020797126 0.75300002 2.5815575e-39
0.025100006 0.020797133 0.75300002 3.227636e-39
0.026604757 0.02085238 0.75500005 3.7811615e-39
0.028042844 0.020852372 0.75500005 4.2392782e-39
0.029480947 0.020852365 0.75500005 3.8694391e-39
0.031041913 0.020935215 0.75800002 3.4127755e-39
0.032571442 0.020990476 0.76000005 1.7453887e-39
0.034019049 0.020990476 0.75999999 1.1243879e-40
0.035513345 0.021018095 0.76099998 9.1374287e-39
0.037060015 0.021073334 0.76300001 1.81484e-38
0.038614299 0.02112858 0.76499999 1.8890948e-38
0.040176202 0.021183796 0.76700002 1.953308e-38
0.041691437 0.021211408 0.76800001 1.9444116e-38
0.043154292 0.021211423 0.76800001 1.9255776e-38
0.044733342 0.021266654 0.77000004 1.9069228e-38
-0.034600955 0.022821896 0.77300006 2.6787292e-39
-0.033085708 0.022792377 0.77200001 2.6783452e-39
-0.031533338 0.022733316 0.77000004 4.0594397e-39
-0.030066669 0.022733323 0.77000004 5.5298727e-39
-0.028525723 0.022674263 0.76800001 4.8834257e-39
-0.027027616 0.022644758 0.76700002 4.338982e-39
-0.025500001 0.022585712 0.76500005 9.8786399e-39
-0.023980003 0.022526667 0.76300001 1.5476973e-38
-0.022467626 0.022467621 0.76100004 7.8323392e-39
-0.020990469 0.022438094 0.75999999 1.8413202e-40
-0.019542847 0.022438094 0.75999999 7.354701e-40
-0.018000012 0.022319987 0.7560001 1.2868558e-39
-0.016560005 0.022319987 0.75600004 1.1039149e-39
-0.015120006 0.022319995 0.75600004 1.0127997e-39
-0.01362572 0.022231407 0.75300002 8.2913008e-40
-0.012191434 0.022231407 0.75300002 6.4653109e-40
-0.010742876 0.022201888 0.75200009 6.4652548e-40
-0.0093104849 0.022201881 0.75200003 7.3728478e-40
-0.0078781061 0.022201881 0.75200003 8.2911887e-40
-0.0064457241 0.022201896 0.75200003 8.2911047e-40
-0.0050133443 0.022201888 0.75200003 6.447122e-40
-0.0035809649 0.022201888 0.75200009 3.6923794e-40
-0.0021371373 0.022083804 0.74800003 5.5365723e-40
-0.0007123815 0.022083811 0.74800003 7.3731701e-40
0.00071238837 0.022083819 0.74800003 7.3658693e-40
0.0021371443 0.022083804 0.74800003 7.3584565e-40
0.0035619007 0.022083804 0.74800003 1.1035225e-39
0.0049866559 0.022083804 0.74800003 1.4708911e-39
0.0064114365 0.022083811 0.74800003 1.1032171e-39
0.0078361928 0.022083811 0.74800003 7.3623381e-40
0.0092609487 0.022083819 0.74800003 7.3695127e-40
0.010685719 0.022083804 0.74800003 8.291427e-40
0.012110475 0.022083804 0.74800003 1.1971993e-39
0.013535241 0.022083804 0.74800003 1.565263e-39
0.014960011 0.022083804 0.74800003 1.3812375e-39
0.016428566 0.022142857 0.75000006 1.2893866e-39
0.017857132 0.022142865 0.75000006 1.2890124e-39
0.019285699 0.022142842 0.75000012 1.289381e-39
0.020769523 0.022201903 0.75200003 1.4719856e-39
0.022201888 0.022201881 0.75200003 1.7485767e-39
0.023665706 0.022231407 0.75300002 2.4872137e-39
0.025166662 0.022290461 0.75500005 3.3183939e-39
0.026604751 0.022290461 0.75500005 3.7786433e-39
0.028042851 0.022290468 0.75500005 4.241062e-39
0.02948094 0.022290461 0.75500005 4.1467266e-39
0.030959992 0.02231998 0.7560001 4.1420323e-39
0.03257145 0.022438094 0.75999999 2.1183905e-39
0.034019057 0.022438101 0.75999999 9.6262198e-41
0.035513327 0.022467621 0.76100004 1.0429237e-38
0.037060004 0.022526667 0.76300001 2.084397e-38
0.038513336 0.022526667 0.76300001 2.1114467e-38
0.040176202 0.022644743 0.76700002 2.1488988e-38
0.041637145 0.022644743 0.76700002 2.1391058e-38
0.043098118 0.022644751 0.76700002 2.1397144e-38
0.044617146 0.022674277 0.76800001 2.1297403e-38
0.046080004 0.02267427 0.76800001 2.1213449e-38
-0.034556195 0.024262846 0.77200007 2.310992e-39
-0.033128578 0.024294287 0.77300006 2.2191733e-39
-0.031615239 0.024262838 0.77200001 5.1690467e-39
-0.030144759 0.02426286 0.77200001 8.1074351e-39
-0.0286 0.024199992 0.77000004 7.2762633e-39
-0.027027624 0.024105698 0.76700002 6.3719676e-39
-0.025499998 0.02404286 0.76500005 1.0719156e-38
-0.024042856 0.02404286 0.76500005 1.5017082e-38
-0.022467624 0.023917146 0.76100004 7.6511835e-39
-0.02099048 0.023885712 0.76000005 1.9130106e-40
-0.019491438 0.023822844 0.75800002 7.3509875e-40
-0.018000014 0.023759969 0.7560001 1.2872061e-39
-0.016560007 0.023759983 0.75600004 1.1957476e-39
-0.015120008 0.023759991 0.75600004 1.0127927e-39
-0.013625716 0.023665696 0.75300002 7.3764491e-40
-0.012191425 0.023665696 0.75300002 4.6285169e-40
-0.010742869 0.023634262 0.75200003 6.4759467e-40
-0.0093104905 0.02363427 0.75200009 8.294748e-40
-0.007878107 0.02363427 0.75200003 8.2840141e-40
-0.0064457273 0.02363427 0.75200003 8.2911467e-40
-0.0050133481 0.02363427 0.75200009 5.5288651e-40
-0.0035809579 0.02363427 0.75200003 2.7811851e-40
-0.0021371397 0.023508564 0.74800003 4.6181192e-40
-0.00071237731 0.023508571 0.74800003 6.4475984e-40
0.00071237813 0.023508579 0.74800003 8.280665e-40
0.002137149 0.023508564 0.74800003 1.0117249e-39
0.0035619049 0.023508571 0.74800003 1.5627252e-39
0.0049866601 0.023508556 0.74800003 2.1137522e-39
0.0064114262 0.023508579 0.74800003 1.5623945e-39
0.0078361966 0.023508571 0.74800003 1.0117417e-39
0.0092609534 0.023508564 0.74800003 9.2026633e-40
0.010685709 0.023508564 0.74800003 7.3695127e-40
0.012110479 0.023508571 0.74800003 1.1961259e-39
0.013535245 0.023508571 0.74800003 1.5645455e-39
0.014960001 0.023508579 0.74800003 1.4730716e-39
0.016428562 0.023571432 0.75000006 1.2886607e-39
0.017857129 0.023571417 0.75000012 1.4715932e-39
0.019285707 0.023571424 0.75000006 1.564163e-39
0.020769512 0.023634262 0.75200009 1.5627463e-39
0.022201901 0.023634277 0.75200003 1.5638309e-39
0.023665709 0.023665704 0.75300002 2.4839893e-39
0.0251 0.023665704 0.75300002 3.405912e-39
0.026604759 0.023728564 0.75500005 3.8657873e-39
0.028042847 0.023728557 0.75500005 4.2439011e-39
0.029480949 0.023728557 0.75500005 4.5183412e-39
0.031123819 0.023885719 0.75999999 4.7934553e-39
0.03261428 0.023917139 0.76100004 2.4903596e-39
0.034063816 0.023917146 0.76100004 1.1492329e-40
0.035606671 0.023980007 0.76299995 1.1822605e-38
0.037060007 0.023979992 0.76300001 2.3411115e-38
0.038614303 0.024042845 0.76500005 2.341759e-38
0.040176205 0.024105705 0.76700002 2.3416867e-38
0.04169143 0.024137132 0.76800001 2.3417578e-38
0.043154296 0.024137124 0.76800001 2.3417575e-38
0.044733346 0.024199992 0.77000004 2.3417572e-38
-0.034600951 0.025766671 0.77300006 2.3952577e-39
-0.033085715 0.025733322 0.77200001 3.1256957e-39
-0.031615239 0.025733322 0.77200007 6.4551486e-39
-0.03014476 0.025733337 0.77200001 9.7702298e-39
-0.028599998 0.025666654 0.77000004 9.0316334e-39
-0.027062858 0.025599994 0.76800001 8.2962572e-39
-0.025566664 0.02556666 0.76699996 1.0700507e-38
-0.024042852 0.025500007 0.76499999 1.3088182e-38
-0.022526676 0.025433332 0.76300001 6.7299615e-39
-0.021018097 0.025366664 0.76100004 3.677932e-40
-0.019542849 0.025333337 0.75999999 9.194732e-40
-0.018000007 0.025199987 0.75600004 1.3801094e-39
-0.016560011 0.02519998 0.75600004 1.1964623e-39
-0.015120002 0.025199994 0.75600004 1.0127871e-39
-0.013625723 0.025099978 0.75300002 8.294706e-40
-0.012175254 0.025066651 0.75200003 7.3834977e-40
-0.010742873 0.025066651 0.75200009 8.2982373e-40
-0.009310483 0.025066644 0.75200003 1.0127843e-39
-0.0078781107 0.025066651 0.75200003 8.2911887e-40
-0.0064457217 0.025066651 0.75200003 7.3835958e-40
-0.005013342 0.025066651 0.75200003 5.5432985e-40
-0.0035809695 0.025066651 0.75200009 3.7067147e-40
-0.0021371467 0.024933323 0.74800003 4.6144338e-40
-0.00071237312 0.024933338 0.74800003 5.5184395e-40
0.00071238325 0.024933338 0.74800003 7.3587367e-40
0.0021371387 0.024933323 0.74800003 1.0113802e-39
0.0035619093 0.024933331 0.74800003 1.2868852e-39
0.0049866647 0.024933331 0.74800003 1.6542286e-39
0.0064114309 0.024933331 0.74800003 1.1950526e-39
0.0078361873 0.024933338 0.74800003 8.280721e-40
0.0092609571 0.024933331 0.74800003 8.2807351e-40
0.010685713 0.024933331 0.74800003 8.2842944e-40
0.012110469 0.024933331 0.74800003 1.3794396e-39
0.01353524 0.024933316 0.74800003 2.0230055e-39
0.014999991 0.025000006 0.75000006 1.5638281e-39
0.016428558 0.025000006 0.75000006 1.195742e-39
0.017857136 0.025000006 0.75000006 1.3804612e-39
0.019285703 0.024999999 0.75000006 1.5652336e-39
0.02076951 0.025066659 0.75200003 1.288316e-39
0.02220189 0.025066637 0.75200003 1.0113858e-39
0.023665711 0.025099985 0.75300002 1.6560391e-39
0.025099991 0.025099985 0.75300008 2.3017224e-39
0.026604755 0.025166653 0.75500005 5.5356586e-39
0.028042857 0.025166661 0.75500005 8.7585176e-39
0.029519999 0.025199987 0.75600004 7.9255479e-39
0.030959988 0.02519998 0.7560001 7.1040157e-39
0.032614291 0.025366664 0.76100004 6.0826681e-39
0.034063827 0.025366679 0.76099998 5.0600565e-39
0.035606675 0.025433332 0.76299995 1.4018457e-38
0.037157152 0.0255 0.76500005 2.2958451e-38
0.038715247 0.025566645 0.76700002 2.3141428e-38
0.040176202 0.02556666 0.76700002 2.3231453e-38
0.04169143 0.025599986 0.76800001 2.3231078e-38
0.043154288 0.025599986 0.76800001 2.332579e-38
0.044733334 0.025666662 0.77000004 2.3232885e-38
-0.034600962 0.02723904 0.77300006 2.4799914e-39
-0.033085711 0.027203798 0.77200001 4.0652789e-39
-0.031615227 0.027203806 0.77200001 7.7548908e-39
-0.030144766 0.027203798 0.77200001 1.1432625e-38
-0.028599998 0.027133323 0.77000004 1.0875524e-38
-0.027027622 0.0270276 0.76700002 1.0238809e-38
-0.025500003 0.026957147 0.76500005 1.0698378e-38
-0.023980001 0.026886672 0.76300001 1.1157853e-38
-0.022467626 0.026816197 0.76100004 5.9037979e-39
-0.020990472 0.026780955 0.75999999 5.5792979e-40
-0.019491443 0.026710466 0.75800008 1.0106122e-39
-0.018000001 0.026639983 0.75600004 1.4715988e-39
-0.016560012 0.026639983 0.7560001 1.1968252e-39
-0.015100026 0.026604734 0.75500011 9.2059984e-40
-0.013625714 0.026534274 0.75300002 9.2023971e-40
-0.012191432 0.026534274 0.75300002 9.2095577e-40
-0.010742866 0.026499033 0.75200003 1.0124311e-39
-0.0093104942 0.026499033 0.75200003 1.1046254e-39
-0.0078781052 0.026499033 0.75200003 9.2095577e-40
-0.0064457259 0.026499033 0.75200003 6.4652128e-40
-0.0050133453 0.026499033 0.75200009 5.5468158e-40
-0.003580963 0.026499033 0.75200003 3.7030853e-40
-0.0021371499 0.026358083 0.74800003 4.6108465e-40
-0.00071238336 0.026358098 0.74800003 4.6108605e-40
0.00071238744 0.026358105 0.74800003 7.3587788e-40
0.0021371429 0.02635809 0.74800003 9.199104e-40
0.0035618991 0.026358098 0.74800003 1.0113914e-39
0.0049866689 0.026358075 0.74800003 1.1035814e-39
0.0064114351 0.02635809 0.74800003 9.1954747e-40
0.0078361919 0.026358098 0.74800003 6.4439971e-40
0.0092609618 0.02635809 0.74800003 7.3587647e-40
0.010685718 0.02635809 0.74800003 8.280707e-40
0.012110473 0.026358098 0.74800003 1.65423e-39
0.013535229 0.026358083 0.74800003 2.3899944e-39
0.014999988 0.026428573 0.75000006 1.7471501e-39
0.016428554 0.026428565 0.75000012 1.1053554e-39
0.017857132 0.026428573 0.75000006 1.2897229e-39
0.019285699 0.026428558 0.75000006 1.4734093e-39
0.020769514 0.026499026 0.75200009 9.2205299e-40
0.022201905 0.02649904 0.75200003 3.6925195e-40
0.023665704 0.026534267 0.75300002 7.3552195e-40
0.025099995 0.026534259 0.75300002 1.1190139e-39
0.026604738 0.026604749 0.75500011 7.2160369e-39
0.028042842 0.026604749 0.75500011 1.3178162e-38
0.029519999 0.026639998 0.75600004 1.1321358e-38
0.030960001 0.026639983 0.7560001 9.402141e-39
0.032614287 0.026816189 0.76100004 9.6758552e-39
0.034063812 0.026816197 0.76100004 9.9611385e-39
0.035606679 0.026886672 0.76299995 1.6232588e-38
0.037157144 0.026957154 0.76500005 2.249355e-38
0.038715247 0.027027607 0.76700002 2.2773726e-38
0.040176205 0.027027607 0.76700002 2.3045989e-38
0.041691434 0.027062856 0.76800001 2.3132786e-38
0.043154288 0.027062848 0.76800001 2.3136384e-38
0.044733346 0.027133331 0.77000004 2.3137471e-38
-0.034600955 0.028711416 0.77300012 7.6522681e-39
-0.033128582 0.028711423 0.77300006 9.9718725e-39
-0.031615231 0.028674282 0.77200001 1.1812209e-38
-0.030066676 0.028599985 0.77000004 1.3655721e-38
-0.028599996 0.0286 0.77000004 1.3649607e-38
-0.027062867 0.028525703 0.76800001 1.3656108e-38
-0.025499992 0.028414294 0.76499999 1.3746193e-38
-0.023979999 0.028339989 0.76300001 1.3838313e-38
-0.022467623 0.028265715 0.76100004 7.1008838e-39
-0.021018101 0.028265715 0.76100004 3.6781002e-40
-0.019542851 0.028228581 0.76000005 9.191551e-40
-0.018000001 0.028079979 0.75600004 1.47161e-39
-0.016560014 0.028079987 0.7560001 1.0124395e-39
-0.015100024 0.028042838 0.75500011 6.4438289e-40
-0.013661928 0.028042845 0.75500011 7.3693726e-40
-0.012191428 0.027968571 0.75300002 8.2913149e-40
-0.010742871 0.027931422 0.75200009 9.2096558e-40
-0.0093104886 0.027931415 0.75200003 1.0124381e-39
-0.0078781089 0.027931415 0.75200003 8.2948041e-40
-0.0064457189 0.027931429 0.75200003 5.5540044e-40
-0.0050133471 0.027931415 0.75200003 4.6212161e-40
-0.0035809672 0.027931422 0.75200009 4.6178249e-40
-0.0021371457 0.027782843 0.74800003 3.7032395e-40
-0.00071237871 0.027782857 0.74800003 2.7957025e-40
0.00071237719 0.027782865 0.74800003 5.5400475e-40
0.0021371476 0.02778285 0.74800003 8.2915951e-40
0.003561903 0.027782857 0.74800003 8.2916652e-40
0.0049866582 0.027782857 0.74800003 8.2915811e-40
0.006411429 0.02778285 0.74800003 6.4475984e-40
0.0078361956 0.027782865 0.74800003 4.6072872e-40
0.0092609515 0.02778285 0.74800003 6.4439691e-40
0.010685722 0.02778285 0.74800003 8.2771057e-40
0.012110477 0.027782857 0.74800003 1.2872482e-39
0.013535234 0.027782843 0.74800003 1.8393458e-39
0.014999985 0.027857132 0.75000012 1.1979392e-39
0.016428562 0.027857147 0.75000006 6.476283e-40
0.017857129 0.02785714 0.75000006 1.4737736e-39
0.019285711 0.027857132 0.75000006 2.2995826e-39
0.020769512 0.027931422 0.75200003 1.2883216e-39
0.022201894 0.0279314 0.75200003 2.7669479e-40
0.023665721 0.027968548 0.75300002 1.7474963e-39
0.025066663 0.027931422 0.75200003 3.3144899e-39
0.026604747 0.028042838 0.75500011 8.7744461e-39
0.028042836 0.028042838 0.75500011 1.4303928e-38
0.029519996 0.028079994 0.75600004 1.327291e-38
0.031123821 0.028228566 0.76000005 1.22624e-38
0.032614298 0.028265722 0.76099998 1.1990879e-38
0.034063824 0.028265707 0.76100004 1.1631475e-38
0.035606682 0.028340004 0.76299995 1.7154924e-38
0.037157137 0.028414287 0.76500005 2.2774813e-38
0.038715247 0.028488554 0.76700002 2.2957394e-38
0.040176202 0.028488562 0.76700002 2.3230018e-38
0.041691441 0.028525688 0.76800001 2.3227852e-38
0.043154292 0.02852571 0.76800001 2.3316114e-38
-0.034600958 0.0301838 0.77300006 1.273019e-38
-0.033128574 0.030183807 0.77300006 1.5856558e-38
-0.031615239 0.030144759 0.77200001 1.5866618e-38
-0.030144768 0.030144744 0.77200007 1.5859448e-38
-0.028599996 0.030066662 0.77000004 1.6411541e-38
-0.027062867 0.029988557 0.76800001 1.6965436e-38
-0.025566669 0.029949509 0.76700002 1.6791465e-38
-0.023980001 0.029793337 0.76300001 1.6494365e-38
-0.022467621 0.029715233 0.76099998 8.2929558e-39
-0.020990465 0.029676199 0.75999999 9.9108235e-41
-0.019542843 0.029676184 0.75999999 7.3509875e-40
-0.018047627 0.029598087 0.75800002 1.3794046e-39
-0.016560016 0.029519983 0.7560001 8.2913149e-40
-0.015120009 0.029519998 0.75600004 2.7811851e-40
-0.013661927 0.029480934 0.75500011 4.6214963e-40
-0.012191436 0.029402852 0.75300002 6.4617936e-40
-0.010757145 0.029402845 0.75300002 8.2985035e-40
-0.0093104923 0.029363796 0.75200009 9.2132712e-40
-0.0078781024 0.029363796 0.75200003 7.3765612e-40
-0.0064457236 0.029363796 0.75200003 4.617853e-40
-0.005000005 0.029285707 0.75000006 4.607049e-40
-0.0035714374 0.029285714 0.75000006 4.6143497e-40
-0.0021371481 0.02920761 0.74800003 2.7813532e-40
-0.00071237498 0.029207624 0.74800003 9.5183198e-41
0.00071238092 0.029207624 0.74800003 3.7104982e-40
0.0021371369 0.02920761 0.74800003 6.4619337e-40
0.0035619074 0.029207617 0.74800003 6.4690663e-40
0.0049866629 0.029207602 0.74800003 5.5435507e-40
0.0064114188 0.02920761 0.74800003 3.6960929e-40
0.0078362003 0.029207624 0.74800003 1.8557396e-40
0.0092857098 0.029285721 0.75000006 5.5327047e-40
0.010714278 0.029285707 0.75000006 8.2877976e-40
0.012142845 0.029285714 0.75000006 1.0117375e-39
0.013571413 0.029285714 0.75000012 1.1982811e-39
0.014999991 0.029285714 0.75000006 7.4090153e-40
0.016428558 0.029285721 0.75000006 1.8844522e-40
0.017857125 0.029285699 0.75000006 1.6574474e-39
0.019285703 0.029285714 0.75000006 3.0342638e-39
0.020769516 0.029363789 0.75200009 1.5623875e-39
0.02220189 0.029363804 0.75200003 9.267067e-41
0.023665713 0.02940283 0.75300008 2.7555525e-39
0.025099989 0.029402837 0.75300008 5.4497086e-39
0.026604744 0.029480934 0.75500011 1.0446209e-38
0.028042844 0.029480934 0.75500011 1.5399907e-38
0.029519994 0.029519998 0.75600004 1.5295477e-38
0.031123828 0.029676192 0.76000005 1.5121899e-38
0.032614283 0.029715233 0.76100004 1.4209333e-38
0.03406382 0.029715233 0.76099998 1.3287762e-38
0.035606667 0.02979333 0.76299995 1.8163667e-38
0.037157148 0.029871434 0.76499999 2.295382e-38
0.038715243 0.029949509 0.76700002 2.3233988e-38
0.040176202 0.029949516 0.76699996 2.3415501e-38
0.041691422 0.029988565 0.76800001 2.3416572e-38
0.043266673 0.030066654 0.77000004 2.3412271e-38
-0.034600955 0.031656183 0.77300006 1.2087406e-38
-0.033128578 0.031656183 0.77300006 1.328664e-38
-0.031615239 0.031615213 0.77200001 1.3652537e-38
-0.030144757 0.031615227 0.77200001 1.4105281e-38
-0.028674291 0.031615227 0.77200001 1.3093678e-38
-0.027062869 0.031451419 0.76800001 1.2186786e-38
-0.025566665 0.031410471 0.76700002 1.3008624e-38
-0.023980001 0.031246662 0.76300001 1.3829699e-38
-0.022467615 0.031164765 0.76099998 6.9147101e-39
-0.020990476 0.031123802 0.76000005 9.2281109e-41
-0.019542852 0.03112381 0.76000005 6.439541e-40
-0.018047621 0.03104189 0.75800002 1.1964398e-39
-0.016560011 0.030959979 0.7560001 8.2913429e-40
-0.015120003 0.030959994 0.75600004 3.7067427e-40
-0.013661926 0.03091903 0.75500011 5.547026e-40
-0.01222383 0.03091903 0.75500011 7.3909245e-40
-0.010757144 0.030837134 0.75300002 8.3021049e-40
-0.0093104849 0.030796178 0.75200003 9.2205159e-40
-0.0078781061 0.03079617 0.75200003 1.0128151e-39
-0.0064457241 0.03079617 0.75200003 1.0117375e-39
-0.0050133443 0.03079617 0.75200003 8.280637e-40
-0.0035809649 0.030796178 0.75200009 6.4439971e-40
-0.0021371434 0.030632369 0.74800003 4.6109446e-40
-0.00071238057 0.030632369 0.74800003 2.7813813e-40
0.00071238558 0.030632384 0.74800003 4.6216505e-40
0.0021371411 0.030632377 0.74800003 6.4618076e-40
0.0035619119 0.030632384 0.74800003 6.4652408e-40
0.0049866675 0.030632362 0.74800003 6.4761149e-40
0.006411423 0.030632369 0.74800003 4.6179931e-40
0.0078361901 0.030632384 0.74800003 2.7740385e-40
0.0092857061 0.030714281 0.75000006 5.5326206e-40
0.010714275 0.030714288 0.75000006 9.2168585e-40
0.012142842 0.030714288 0.75000006 1.3812263e-39
0.01357142 0.030714288 0.75000006 1.8432736e-39
0.014999987 0.030714288 0.75000006 1.3830199e-39
0.016428569 0.030714266 0.75000006 9.2240752e-40
0.017857121 0.030714273 0.75000012 1.8411198e-39
0.019285714 0.030714288 0.75000006 2.7598321e-39
0.020769516 0.03079617 0.75200003 1.379427e-39
0.022201894 0.03079617 0.75200003 9.2317543e-41
0.023665717 0.030837126 0.75300002 5.1569241e-39
0.025100006 0.030837126 0.75300002 1.0241341e-38
0.026604751 0.030919038 0.75500011 1.3382863e-38
0.028079994 0.030959994 0.7560001 1.6411226e-38
0.029598081 0.031041883 0.75800008 1.5772983e-38
0.031123821 0.03112381 0.75999999 1.5047326e-38
0.03261428 0.031164758 0.76100004 1.365371e-38
0.034063805 0.031164765 0.76100004 1.2269342e-38
0.035606671 0.031246677 0.76299995 1.6510255e-38
0.037157156 0.031328581 0.76500005 2.075443e-38
0.038715243 0.031410456 0.76700002 2.0656864e-38
0.040228583 0.031451419 0.76800001 2.0567543e-38
0.041800007 0.031533323 0.77000004 2.0563958e-38
0.043266673 0.031533323 0.77000004 2.0565029e-38
-0.034556188 0.033085704 0.77200001 1.1437355e-38
-0.033085711 0.033085704 0.77200001 1.0707338e-38
-0.031615235 0.033085704 0.77200001 1.1535298e-38
-0.030144762 0.033085704 0.77200001 1.2263171e-38
-0.028599996 0.032999992 0.77000004 9.7631673e-39
-0.027062867 0.032914273 0.76800001 7.3011882e-39
-0.025566667 0.032871418 0.76700002 9.225789e-39
-0.024042858 0.032785729 0.76500005 1.1067095e-38
-0.022467624 0.032614291 0.76100004 5.6279285e-39
-0.020990469 0.032571442 0.76000005 9.8743898e-41
-0.019542845 0.032571428 0.75999999 5.5142356e-40
-0.018047633 0.032485701 0.75800008 1.0120598e-39
-0.016603822 0.032485709 0.75800002 7.3621979e-40
-0.015120005 0.03239999 0.75600004 4.6250416e-40
-0.013661922 0.032357126 0.75500011 6.4617235e-40
-0.012223828 0.032357134 0.75500011 7.3836378e-40
-0.010757151 0.032271415 0.75300008 8.2912028e-40
-0.0093104905 0.032228559 0.75200009 9.2133132e-40
-0.0078780996 0.032228552 0.75200003 1.2876139e-39
-0.0064457273 0.032228559 0.75200003 1.5634735e-39
-0.0050133481 0.032228552 0.75200009 1.1954085e-39
-0.0035809579 0.032228552 0.75200003 8.2771337e-40
-0.0021371467 0.032057129 0.74800003 6.4368925e-40
-0.00071239081 0.032057129 0.74800003 3.6925756e-40
0.00071238977 0.032057129 0.74800003 4.6145179e-40
0.0021371457 0.032057136 0.74800003 5.5363761e-40
0.0035619014 0.032057144 0.74800003 6.454647e-40
0.0049866717 0.032057129 0.74800003 6.4582483e-40
0.0064114272 0.032057136 0.74800003 4.6107904e-40
0.0078571355 0.032142848 0.75000006 2.7739264e-40
0.0092857033 0.032142855 0.75000006 6.4471921e-40
0.010714271 0.032142855 0.75000006 9.2095437e-40
0.012142849 0.032142855 0.75000006 1.6556495e-39
0.013571416 0.032142863 0.75000006 2.3921314e-39
0.014999984 0.032142863 0.75000006 2.0255111e-39
0.016428566 0.032142848 0.75000012 1.5656161e-39
0.017857144 0.032142863 0.75000006 2.024795e-39
0.019285711 0.032142863 0.75000006 2.3917727e-39
0.020714277 0.032142855 0.75000006 1.2868712e-39
0.022201894 0.032228567 0.75200003 9.4500766e-41
0.023665717 0.032271408 0.75300002 7.5382529e-39
0.025066664 0.032228567 0.75200003 1.5023266e-38
0.026604746 0.032357126 0.75500005 1.6248399e-38
0.028079992 0.032399982 0.7560001 1.743611e-38
0.029676195 0.032571428 0.76000005 1.6245784e-38
0.031123819 0.032571435 0.76000005 1.4939693e-38
0.032614291 0.032614283 0.76100004 1.3088688e-38
0.034063816 0.032614283 0.76100004 1.1260585e-38
0.035606675 0.032700002 0.76299995 1.4853289e-38
0.037157152 0.032785714 0.76500005 1.8444553e-38
0.038715243 0.032871418 0.76700002 1.8070748e-38
0.040228572 0.032914273 0.76800001 1.7616959e-38
0.041800015 0.033000007 0.77000004 1.7614456e-38
0.043379068 0.033085711 0.77200001 1.7614453e-38
0.04484953 0.033085696 0.77200001 1.8255147e-38
-0.034600951 0.034600958 0.77300006 1.2080532e-38
-0.033085719 0.03455618 0.77200007 1.1620298e-38
-0.031615235 0.03455618 0.77200001 1.2269265e-38
-0.030066673 0.034466654 0.77000004 1.2913892e-38
-0.028599994 0.034466662 0.77000004 1.1987986e-38
