# .PCD v0.7 - Point Cloud Data file format
VERSION 0.7
FIELDS x y z rgb
SIZE 4 4 4 4
TYPE F F F F
COUNT 1 1 1 1
WIDTH 970
HEIGHT 1
VIEWPOINT 0 0 0 1 0 0 0
POINTS 970
DATA ascii
0.023634287 0.0078781024 0.75200003 3.5975213e-39
0.025100015 0.0078885779 0.75299996 4.1481559e-39
0.026534298 0.0078885779 0.75300002 4.1481349e-39
0.028042866 0.0079095364 0.755 4.1477552e-39
0.02948097 0.0079095438 0.755 3.2257919e-39
0.030960018 0.0079200119 0.75600004 2.3034993e-39
0.032485705 0.0079409555 0.75800002 5.9952215e-39
0.034019057 0.0079619214 0.76000005 9.5854098e-39
0.035513353 0.0079723969 0.76100004 9.585044e-39
0.037060004 0.007993333 0.76300001 9.5857587e-39
0.038513355 0.0079933479 0.76300001 9.4017262e-39
0.040176187 0.0080352426 0.76700002 9.2176838e-39
-0.035933319 0.0095333457 0.77000004 3.4062609e-39
-0.03437712 0.0095085725 0.76800001 2.2109421e-39
-0.03287141 0.0094962046 0.76699996 1.0196352e-39
-0.031328596 0.0094714314 0.76500005 4.9822354e-39
-0.029793331 0.0094466731 0.76300001 8.8522574e-39
-0.028265711 0.0094219074 0.76100004 7.7645962e-39
-0.02671048 0.0093847588 0.75800002 6.5531569e-39
-0.025266664 0.0093847737 0.75800002 9.8664094e-39
-0.023759978 0.0093600005 0.75600004 1.309723e-38
-0.02231998 0.0093600154 0.75600004 1.4023553e-38
-0.020852381 0.0093476176 0.75500005 1.4827781e-38
-0.019337157 0.0093104839 0.75200003 7.4392763e-39
-0.017904768 0.009310469 0.75200003 1.0138535e-40
-0.016472409 0.009310469 0.75200003 6.7303833e-39
-0.015000007 0.0092857257 0.75 1.3276538e-38
-0.01357144 0.0092857182 0.75000006 9.6971129e-39
-0.012142872 0.0092857257 0.75000006 5.9834337e-39
-0.010714305 0.0092857182 0.75000006 3.5819991e-39
-0.0092857359 0.0092857033 0.75000006 1.108933e-39
-0.0078361919 0.0092609674 0.74800003 1.9401524e-39
-0.0064114421 0.0092609525 0.74800003 2.7684753e-39
-0.0049799974 0.0092485696 0.74700004 2.9478527e-39
-0.0035618877 0.0092609599 0.74800003 3.13546e-39
-0.0021285934 0.0092238188 0.74500006 2.121315e-39
-0.00070953439 0.0092238039 0.74500006 1.0171213e-39
0.00070950226 0.0092238113 0.74500006 9.2024812e-40
0.0021285668 0.0092238188 0.74500006 8.2912308e-40
0.0035475998 0.0092238113 0.74500006 5.5361098e-40
0.0049666348 0.0092238113 0.74500006 2.7811711e-40
0.0063856994 0.0092238188 0.74500006 6.4439411e-40
0.0077838111 0.009199053 0.74300003 1.012462e-39
0.0092485687 0.0092485845 0.74699998 1.7485893e-39
0.010685715 0.0092609674 0.74800003 2.3917867e-39
0.012110463 0.0092609599 0.74800003 1.5649001e-39
0.013535243 0.0092609599 0.74799997 7.3872952e-40
0.014960018 0.0092609525 0.74800003 4.6249716e-40
0.016384769 0.0092609674 0.74800003 1.8699908e-40
0.017809518 0.0092609599 0.74800003 8.3021609e-40
0.019234266 0.0092609525 0.74800003 1.4773722e-39
0.020714279 0.0092857182 0.75000006 2.0344878e-39
0.022201909 0.0093104839 0.75200003 2.4958289e-39
0.023634268 0.0093104765 0.75200003 3.231959e-39
0.025100019 0.0093228742 0.75299996 3.8733613e-39
0.026534302 0.0093228742 0.75299996 3.9648269e-39
0.028042858 0.0093476325 0.75500005 4.0555722e-39
0.029480962 0.0093476251 0.75500005 3.226529e-39
0.030959979 0.0093599856 0.75600004 2.3124872e-39
0.032485683 0.0093847588 0.75800002 6.09461e-39
0.034019053 0.0094095245 0.76000005 9.8620121e-39
0.035513349 0.0094219074 0.76099998 9.5854238e-39
0.037059989 0.0094466656 0.76300001 9.2177105e-39
0.038614292 0.0094714314 0.76500005 9.2176979e-39
0.040228587 0.0095085874 0.76800001 9.2187586e-39
-0.035933342 0.011 0.77000004 4.3278557e-39
-0.034377132 0.010971434 0.76800001 3.0389133e-39
-0.032871418 0.010957152 0.76699996 1.6581537e-39
-0.03132857 0.010928571 0.76500005 3.0417846e-39
-0.029793348 0.010900006 0.76300001 4.510833e-39
-0.028265717 0.010871448 0.76100004 3.8726873e-39
-0.026780941 0.010857157 0.76000005 3.3066328e-39
-0.025266686 0.010828584 0.75800002 8.3048752e-39
-0.023760017 0.010799989 0.75600004 1.3194097e-38
-0.022320019 0.010800004 0.75600004 1.0891091e-38
-0.020852391 0.010785721 0.75500005 8.6812093e-39
-0.019337149 0.010742851 0.75200003 4.3289767e-39
-0.01790479 0.010742873 0.75200003 9.2366588e-41
-0.016472405 0.010742851 0.75200003 6.5488521e-39
-0.014999995 0.010714293 0.75000006 1.3102191e-38
-0.013607628 0.010742866 0.75200003 9.9622217e-39
-0.012142884 0.010714285 0.75000006 6.7963354e-39
-0.010714317 0.010714293 0.75000006 3.7667659e-39
-0.0092857191 0.0107143 0.75000006 6.4725836e-40
-0.0078571523 0.010714293 0.75000006 1.292646e-39
-0.006411416 0.010685727 0.74800003 1.8418653e-39
-0.0049866666 0.010685712 0.74800003 2.1180893e-39
-0.0035619184 0.010685712 0.74800003 2.3918007e-39
-0.0021285841 0.010642856 0.74500006 1.6581915e-39
-0.00070955115 0.010642849 0.74500006 9.22067e-40
0.0007095153 0.010642849 0.74500006 9.209852e-40
0.0021285501 0.010642871 0.74500006 9.2026213e-40
0.003547583 0.010642864 0.74500006 7.3694426e-40
0.0049666739 0.010642856 0.74500006 5.5291874e-40
0.0063857087 0.010642864 0.74500006 7.3659254e-40
0.0078257164 0.010671452 0.74699998 8.2915951e-40
0.0092485687 0.010671437 0.74700004 1.3805452e-39
0.010671422 0.010671437 0.74700004 1.9315414e-39
0.012094305 0.010671437 0.74699998 1.3812291e-39
0.013517157 0.010671452 0.74699998 8.3092655e-40
0.014959988 0.010685712 0.74800003 5.5469419e-40
0.016384767 0.010685734 0.74799997 3.7067287e-40
0.017809544 0.010685727 0.74800003 9.2384665e-40
0.019234292 0.01068572 0.74800003 1.4788071e-39
0.020714266 0.010714285 0.75000006 2.0334088e-39
0.022142863 0.010714293 0.75000006 2.6802089e-39
0.023634274 0.010742866 0.75200003 3.2308674e-39
0.025100021 0.010757156 0.75300002 3.872997e-39
0.026534302 0.010757141 0.75300002 3.9648297e-39
0.028042853 0.010785714 0.75500005 4.056661e-39
0.029480955 0.010785721 0.75500005 3.136148e-39
0.030959995 0.010799997 0.75600004 2.308202e-39
0.03248572 0.01082857 0.75800002 6.1828777e-39
0.034019079 0.01085715 0.75999999 1.0141126e-38
0.035513338 0.010871433 0.76100004 9.7705493e-39
0.037060004 0.010899998 0.76300001 9.4925107e-39
0.038715269 0.010957152 0.76699996 9.3102522e-39
0.040228572 0.010971442 0.76800001 9.1287168e-39
0.041799985 0.011 0.77000004 8.9439514e-39
-0.035933331 0.012466669 0.77000004 5.2512413e-39
-0.034377117 0.012434289 0.76800001 3.7750462e-39
-0.032871421 0.012418106 0.76699996 2.3027832e-39
-0.031328566 0.012385711 0.76500005 1.1989384e-39
-0.029793335 0.012353331 0.76300001 9.8025031e-41
-0.028339986 0.012353353 0.76300001 9.2321747e-41
-0.026780942 0.012304761 0.76000005 1.1138921e-40
-0.025266651 0.012272388 0.75800002 6.7601917e-39
-0.02376 0.01224 0.75600004 1.3277285e-38
-0.022320004 0.012240008 0.75600004 7.8485886e-39
-0.020852366 0.012223817 0.75500005 2.4108752e-39
-0.019362858 0.012191422 0.75300002 1.2862028e-39
-0.017904783 0.012175232 0.75200003 9.8469243e-41
-0.016472397 0.012175225 0.75200009 6.4534433e-39
-0.015000006 0.012142852 0.75000006 1.2817004e-38
-0.013571438 0.012142859 0.75000006 1.0253511e-38
-0.012142842 0.012142859 0.75000006 7.6386377e-39
-0.010714298 0.012142859 0.75000006 3.9493607e-39
-0.0092857303 0.012142867 0.75000006 1.8664175e-40
-0.0078571634 0.012142867 0.75000006 5.5688021e-40
-0.0064114467 0.012110487 0.74800003 9.2349352e-40
-0.0049866433 0.012110487 0.74799997 1.2904656e-39
-0.0035618942 0.012110479 0.74799997 1.5652644e-39
-0.0021286008 0.012061909 0.74500006 1.1979322e-39
-0.00070953625 0.012061916 0.74500006 8.302287e-40
0.00070949853 0.012061909 0.74500006 9.209852e-40
0.0021285594 0.012061909 0.74500012 1.012099e-39
0.0035476221 0.012061916 0.74500006 9.2025933e-40
0.0049666581 0.012061901 0.74500006 8.2842103e-40
0.0063856929 0.012061894 0.74500006 7.3586526e-40
0.0078047258 0.012061901 0.74500012 6.4475424e-40
0.0092485705 0.012094289 0.74700004 1.1042989e-39
0.010671423 0.012094297 0.74700004 1.4730632e-39
0.012094305 0.012094304 0.74699998 1.1975455e-39
0.013517159 0.012094289 0.74700004 9.223907e-40
0.014960013 0.012110479 0.74800003 7.3799524e-40
0.016384764 0.012110487 0.74800003 4.6250276e-40
0.017809512 0.012110479 0.74800003 9.2313059e-40
0.01923429 0.012110487 0.74799997 1.3855367e-39
0.020714285 0.012142867 0.75000006 2.1241667e-39
0.022142852 0.012142859 0.75000006 2.7702494e-39
0.023634281 0.01217524 0.75200003 3.321984e-39
0.02506664 0.01217524 0.75200003 3.8726368e-39
0.026534306 0.012191437 0.75299996 3.9648297e-39
0.028042844 0.01222381 0.75500005 3.9648297e-39
0.029480945 0.012223803 0.75500005 3.1365179e-39
0.030960012 0.01224 0.75600004 2.2228223e-39
0.032485697 0.012272373 0.75800002 6.2786481e-39
0.034019075 0.012304768 0.76000005 1.0322273e-38
0.035466686 0.012304761 0.75999999 1.0046042e-38
0.037060011 0.012353338 0.76300001 9.7687291e-39
0.038715266 0.012418106 0.76699996 9.4013745e-39
0.040176224 0.012418121 0.76699996 9.0350975e-39
0.041800018 0.012466677 0.77000004 8.8517754e-39
0.043266665 0.012466677 0.77000004 8.6663261e-39
-0.035933349 0.013933331 0.77000004 6.4522844e-39
-0.034466673 0.013933346 0.77000004 3.8686894e-39
-0.032871407 0.013879061 0.76700002 1.2011034e-39
-0.031328592 0.013842858 0.76500005 6.4788614e-40
-0.029871421 0.013842866 0.76500005 9.9417922e-41
-0.028265731 0.013770476 0.76100004 3.0485907e-39
-0.026780944 0.013752393 0.75999999 6.0814013e-39
-0.025266672 0.013716191 0.75800002 8.1269804e-39
-0.023759985 0.013680004 0.75600004 1.0153764e-38
-0.022319987 0.013680011 0.75600004 5.7176242e-39
-0.020852372 0.013661914 0.75500005 1.3780355e-39
-0.019414298 0.013661906 0.75500005 7.3518423e-40
-0.017904777 0.013607621 0.75200009 9.2374996e-41
-0.016472416 0.013607614 0.75200009 6.1793857e-39
-0.015000017 0.013571419 0.75000012 1.2367161e-38
-0.013571421 0.013571434 0.75000006 1.0331712e-38
-0.012142853 0.013571441 0.75000006 8.2692878e-39
-0.010714285 0.013571434 0.75000006 4.2259434e-39
-0.0092857443 0.013571426 0.75000006 1.8520401e-40
-0.0078571746 0.013571441 0.75000006 5.5507955e-40
-0.0064114225 0.013535254 0.74800003 1.0145933e-39
-0.0049866731 0.013535246 0.74800003 1.1060477e-39
-0.003561924 0.013535231 0.74800003 1.1046352e-39
-0.0021342847 0.013517149 0.74700004 9.220614e-40
-0.00071143149 0.013517141 0.74700004 7.383904e-40
0.00071145059 0.013517149 0.74699998 9.209838e-40
0.0021342786 0.013517156 0.74699998 1.1035758e-39
0.00355713 0.013517156 0.74700004 9.2061946e-40
0.0049800142 0.013517156 0.74699998 7.3658133e-40
0.0063856761 0.013480946 0.74500012 8.2804968e-40
0.0078047388 0.013480961 0.74500006 9.1988658e-40
0.0092485705 0.013517149 0.74700004 1.4726932e-39
0.010671454 0.013517156 0.74699998 2.1173283e-39
0.012094307 0.013517149 0.74699998 1.5659496e-39
0.013517135 0.013517156 0.74699998 1.1064078e-39
0.014939987 0.013517141 0.74700004 7.3798263e-40
0.016384788 0.013535254 0.74799997 3.6922673e-40
0.017809538 0.013535254 0.74800003 8.3093636e-40
0.019234287 0.013535246 0.74800003 1.2919075e-39
0.020714274 0.013571441 0.75000006 2.1234478e-39
0.022142841 0.013571434 0.75000006 2.9539189e-39
0.023634261 0.013607614 0.75200003 3.3216239e-39
0.025100024 0.013625734 0.75300002 3.7793664e-39
0.026534306 0.013625719 0.75300002 3.8729942e-39
0.028042866 0.013661921 0.755 4.057747e-39
0.029480968 0.013661921 0.75500005 3.3205575e-39
0.030959997 0.013679996 0.75600004 2.4943827e-39
0.032485705 0.013716199 0.75800002 6.275767e-39
0.034019049 0.013752386 0.76000005 1.0048189e-38
0.035466682 0.013752401 0.76000005 9.677967e-39
0.037060026 0.013806663 0.76300001 9.4003053e-39
0.038765721 0.013897136 0.76800001 9.0333178e-39
0.040333323 0.013933331 0.77000004 8.6663318e-39
0.041799996 0.013933331 0.77000004 8.6659702e-39
-0.035933346 0.015399992 0.77000004 7.6483052e-39
-0.034466669 0.015400007 0.77000004 3.8625909e-39
-0.032871414 0.01534 0.76700002 1.0158853e-40
-0.031328589 0.015299998 0.7650001 9.2209643e-41
-0.029871447 0.015300006 0.76500005 1.1057366e-40
-0.028340019 0.015259996 0.76300001 6.1043448e-39
-0.026780944 0.015200019 0.75999999 1.198147e-38
-0.025266664 0.015160009 0.75800002 9.5116104e-39
-0.023760023 0.015120007 0.75600004 7.0058337e-39
-0.02232 0.015120007 0.75600004 3.6738963e-39
-0.020852381 0.015099995 0.75500005 2.7634166e-40
-0.019414308 0.015100017 0.75500005 1.8414743e-40
-0.017904796 0.015039995 0.75200009 9.7021702e-41
-0.016472379 0.015040003 0.75200003 5.9878128e-39
-0.015039994 0.01504001 0.75200003 1.180467e-38
-0.013607634 0.015040003 0.75200003 1.0436477e-38
-0.012142864 0.014999993 0.75000006 8.9290052e-39
-0.010714297 0.015000008 0.75000006 4.5003737e-39
-0.0092856996 0.015000008 0.75000006 9.3367115e-41
-0.0078571327 0.015000001 0.75000006 6.4655351e-40
-0.0064285905 0.015000015 0.75000006 1.1060785e-39
-0.0050000227 0.015000008 0.75000006 9.2275644e-40
-0.0035714542 0.015000001 0.75000006 6.4654089e-40
-0.0021342828 0.014940001 0.74700004 6.4690803e-40
-0.00071139983 0.014940016 0.74699998 6.4619197e-40
0.00071142637 0.014940016 0.74699998 9.2134253e-40
0.0021342805 0.014940009 0.74699998 1.1042947e-39
0.0035571319 0.014940001 0.74700004 9.2169986e-40
0.004980016 0.014940016 0.74699998 6.4511017e-40
0.0064028674 0.014940009 0.74699998 9.1989219e-40
0.0078257211 0.014940009 0.74700004 1.1961161e-39
0.0092485724 0.014940016 0.74700004 1.932235e-39
0.01067143 0.014940016 0.74699998 2.6687071e-39
0.012094283 0.014940009 0.74699998 1.934735e-39
0.013517137 0.014939994 0.74700004 1.1986161e-39
0.01496001 0.014959998 0.74800003 7.3836098e-40
0.016384758 0.014959998 0.74800003 2.7847864e-40
0.017809508 0.014960006 0.74800003 7.3910507e-40
0.019234313 0.014960006 0.74799997 1.1093141e-39
0.020714261 0.014999993 0.75000006 2.123808e-39
0.022142859 0.015000015 0.75 3.0450384e-39
0.023634266 0.015039995 0.75200003 3.3227015e-39
0.025099998 0.015060008 0.75300002 3.5974919e-39
0.026604759 0.015100017 0.75500005 3.8729984e-39
0.02804286 0.01510001 0.75500005 4.1474329e-39
0.029480962 0.015100017 0.75500005 3.5017187e-39
0.031041896 0.015159994 0.75800002 2.7738255e-39
0.032485683 0.015159994 0.75800002 6.2811284e-39
0.034019042 0.015200004 0.76000005 9.6790474e-39
0.035513319 0.015220016 0.76100004 9.3088411e-39
0.037060007 0.015259996 0.76300001 8.9414977e-39
0.03876574 0.015360013 0.76800001 8.5734369e-39
0.040228594 0.015360005 0.76799995 8.2060907e-39
0.041800003 0.015400007 0.77000004 8.4815944e-39
-0.035933338 0.016866677 0.77000004 7.7516272e-39
-0.034466691 0.016866669 0.77000004 6.7331677e-39
-0.032871418 0.016800962 0.76700002 5.8111735e-39
-0.031328559 0.016757146 0.76500005 5.9033145e-39
-0.029793331 0.016713329 0.76300001 6.0849382e-39
-0.028265713 0.016669542 0.76099998 8.0311666e-39
-0.02678095 0.016647622 0.76000005 9.9732822e-39
-0.025266686 0.016603805 0.75800002 6.7317145e-39
-0.023822872 0.016603813 0.75800002 3.5820384e-39
-0.02232001 0.016560011 0.75600004 2.1130222e-39
-0.020880012 0.016560003 0.75600004 7.3585125e-40
-0.019414283 0.016538106 0.755 3.6815334e-40
-0.01790476 0.016472377 0.75200003 9.2341365e-41
-0.016472373 0.016472392 0.75200003 5.8977598e-39
-0.015040015 0.016472384 0.75200003 1.1631405e-38
-0.013607628 0.016472384 0.75200003 1.04286e-38
-0.012142878 0.016428575 0.75000006 9.2038012e-39
-0.01071428 0.016428575 0.75000006 4.5972315e-39
-0.0092857108 0.016428582 0.75000006 9.2289517e-41
-0.0078571439 0.016428575 0.75000006 4.6252098e-40
-0.0064285756 0.016428567 0.75000006 8.2986436e-40
-0.0050000087 0.016428575 0.75000006 6.4619337e-40
-0.0035714374 0.016428575 0.75 5.5435367e-40
-0.0021371234 0.016384773 0.74799997 4.6215384e-40
-0.00071142404 0.016362868 0.74699998 4.6180071e-40
0.00071142823 0.016362876 0.74699998 7.3695267e-40
0.0021342824 0.016362876 0.74700004 1.0113844e-39
0.0035571337 0.016362861 0.74700004 7.3659674e-40
0.0049800179 0.016362868 0.74699998 3.6889042e-40
0.0064028692 0.016362876 0.74700004 6.443913e-40
0.0078257229 0.016362861 0.74700004 8.280623e-40
0.009248578 0.016362868 0.74699998 1.381585e-39
0.010671432 0.016362876 0.74699998 1.8429121e-39
0.012094284 0.016362868 0.74699998 1.4748484e-39
0.013535229 0.016384773 0.74800003 1.0146003e-39
0.014960005 0.016384766 0.74800003 8.3021609e-40
0.016384784 0.01638478 0.74799997 5.5292155e-40
0.017809533 0.016384773 0.74800003 9.2277886e-40
0.019234283 0.016384766 0.74800003 1.2011524e-39
0.020714279 0.016428582 0.75 2.1230919e-39
0.022201886 0.016472377 0.75200003 2.9532043e-39
0.023665747 0.016494296 0.75300002 3.3219854e-39
0.025100002 0.016494296 0.75299996 3.7822419e-39
0.026604751 0.016538106 0.75500005 3.9651968e-39
0.028042851 0.016538106 0.75500005 4.1474357e-39
0.029520007 0.016560003 0.75600004 3.3187652e-39
0.031041903 0.01660382 0.75800002 2.3989403e-39
0.032571461 0.016647629 0.75999999 5.3541428e-39
0.034063812 0.016669534 0.76100004 8.3940623e-39
0.035513345 0.016669542 0.76100004 7.9309583e-39
0.037254285 0.016800962 0.76700002 7.5643352e-39
0.038765725 0.016822852 0.76800001 7.5621828e-39
0.040333338 0.016866669 0.77000004 7.6540155e-39
0.041799985 0.016866669 0.77000004 7.9302353e-39
0.043266688 0.016866669 0.77000004 8.2082389e-39
-0.035933331 0.018333338 0.77000004 7.8395096e-39
-0.034466654 0.018333338 0.77000004 9.6902269e-39
-0.032871425 0.018261909 0.76700002 1.1431494e-38
-0.031328581 0.018214278 0.76500005 1.1808504e-38
-0.029793316 0.018166676 0.76300001 1.2073288e-38
-0.028265724 0.018119052 0.76100004 9.9614692e-39
-0.026780952 0.01809524 0.76000005 7.8312546e-39
-0.025333343 0.01809524 0.76000005 3.9511432e-39
-0.023822891 0.018047608 0.75800002 9.3351701e-41
-0.022379074 0.018047616 0.75800002 6.433053e-40
-0.020879997 0.018000014 0.75600004 1.1031974e-39
-0.019414291 0.017976195 0.75500005 6.4365702e-40
-0.017904753 0.017904766 0.75200003 9.2698696e-41
-0.016472394 0.017904766 0.75200003 5.7876317e-39
-0.015040007 0.017904751 0.75200003 1.1433389e-38
-0.013607622 0.017904766 0.75200003 1.0442598e-38
-0.012175261 0.017904758 0.75200003 9.3932203e-39
-0.010742875 0.017904758 0.75200003 4.77589e-39
-0.0092857247 0.017857142 0.75000006 9.3730052e-41
-0.0078571569 0.017857149 0.75000006 2.8064505e-40
-0.0064285598 0.017857149 0.75000006 4.6251818e-40
-0.0049999901 0.017857149 0.75000006 4.6179791e-40
-0.0035714225 0.017857157 0.75000006 3.6958406e-40
-0.0021371532 0.017809525 0.74800003 2.7701288e-40
-0.00071237958 0.017809525 0.74800003 1.8555854e-40
0.00071240147 0.017809533 0.74799997 5.5292155e-40
0.0021371499 0.01780954 0.74799997 9.199118e-40
0.0035571654 0.017785735 0.74699998 5.5221809e-40
0.004980017 0.017785728 0.74699998 9.3751071e-41
0.0064028711 0.017785721 0.74700004 2.7634026e-40
0.0078256987 0.017785713 0.74700004 4.6144618e-40
0.0092485799 0.017785735 0.74699998 7.3874773e-40
0.010671434 0.017785721 0.74699998 1.0153248e-39
0.012094286 0.017785713 0.74700004 9.2384385e-40
0.01351714 0.017785728 0.74700004 8.3129649e-40
0.014960003 0.017809525 0.74799997 8.3094336e-40
0.016428558 0.017857142 0.75000006 8.2986717e-40
0.017809529 0.017809525 0.74800003 1.1053751e-39
0.019285724 0.017857142 0.75000006 1.2926292e-39
0.020714292 0.017857149 0.75000006 2.121657e-39
0.022201892 0.017904751 0.75200003 2.8599353e-39
0.023665721 0.017928585 0.75300002 3.413109e-39
0.025100002 0.017928578 0.75300002 3.8733627e-39
0.026604772 0.017976195 0.755 4.05847e-39
0.028042873 0.017976195 0.755 4.1477846e-39
0.029520025 0.018000014 0.75600004 3.1347145e-39
0.031123826 0.01809524 0.76000005 2.033008e-39
0.032571431 0.018095247 0.75999999 4.526159e-39
0.034063831 0.018119052 0.76100004 7.0096733e-39
0.035606656 0.018166669 0.76300001 6.6401887e-39
0.037302863 0.018285722 0.76800001 6.1835223e-39
0.038765747 0.018285729 0.76800001 6.6405488e-39
0.040333342 0.018333346 0.77000004 7.0093229e-39
0.041800018 0.018333338 0.77000004 7.284828e-39
-0.035933353 0.0198 0.77000004 4.4340559e-39
-0.034466676 0.0198 0.77000004 7.477592e-39
-0.032914259 0.019748591 0.76799995 1.06097e-38
-0.031328581 0.01967144 0.76500005 9.5076882e-39
-0.029793333 0.019620001 0.76300001 8.4077894e-39
-0.028265702 0.019568577 0.76100004 6.2693589e-39
-0.026780928 0.019542873 0.75999999 4.2248812e-39
-0.025266672 0.019491434 0.75800002 2.3899033e-39
-0.023822855 0.019491427 0.75800002 5.5431023e-40
-0.022320008 0.019440003 0.75600004 6.4475004e-40
-0.02088001 0.019439995 0.75600004 6.4474023e-40
-0.0194143 0.019414283 0.75500005 3.6814773e-40
-0.017904775 0.019337133 0.75200003 9.2339964e-41
-0.016472386 0.019337147 0.75200003 5.9863709e-39
-0.015040029 0.01933714 0.75200003 1.1994452e-38
-0.013607641 0.01933714 0.75200003 1.0521526e-38
-0.012175255 0.019337133 0.75200003 9.1094714e-39
-0.010742896 0.019337147 0.75200003 4.5965336e-39
-0.0093105091 0.01933714 0.75200009 9.265946e-41
-0.0078571383 0.019285709 0.75000006 3.6996942e-40
-0.006428571 0.019285724 0.75000006 7.373044e-40
-0.0050000031 0.019285716 0.75000006 6.4546049e-40
-0.0035714365 0.019285709 0.75000006 6.447108e-40
-0.002137129 0.019234307 0.74799997 5.5284307e-40
-0.00071237958 0.019234292 0.74799997 5.5288231e-40
0.00071237166 0.019234285 0.74800003 6.4439691e-40
0.0021342833 0.01920858 0.74700004 8.2772178e-40
0.0035571672 0.01920858 0.74699998 5.5294537e-40
0.0049799937 0.019208588 0.74699998 2.788668e-40
0.0064028469 0.01920858 0.74700004 3.6925896e-40
0.0078257285 0.019208588 0.74699998 4.6109726e-40
0.0092485817 0.019208573 0.74699998 6.4656332e-40
0.010671436 0.019208588 0.74700004 9.2349913e-40
0.012094287 0.01920858 0.74700004 8.3165803e-40
0.013535225 0.0192343 0.74800003 8.3094617e-40
0.014959999 0.019234292 0.74800003 7.3947501e-40
0.01638478 0.019234285 0.74799997 6.4656051e-40
0.017809529 0.0192343 0.74800003 9.2278026e-40
0.019285712 0.019285716 0.75000006 1.2929879e-39
0.020714279 0.019285709 0.75000006 2.1220143e-39
0.022201871 0.01933714 0.75200003 2.9514148e-39
0.023665722 0.019362874 0.75299996 3.5035138e-39
0.025100006 0.019362867 0.75299996 3.9641262e-39
0.026604764 0.019414306 0.75500005 4.148872e-39
0.028042866 0.019414298 0.75500005 4.3314458e-39
0.029519984 0.01944001 0.75600004 2.672286e-39
0.031123823 0.019542858 0.76000005 1.1024295e-39
0.032614321 0.01956857 0.76099998 6.0826681e-39
0.034063797 0.019568577 0.76100004 1.1049318e-38
0.035793368 0.019722879 0.76699996 1.1884447e-38
0.037302848 0.019748583 0.76800001 1.2705586e-38
0.038765732 0.019748569 0.76800001 1.2893562e-38
0.040333327 0.019800007 0.77000004 1.3070417e-38
0.041800003 0.019800007 0.77000004 1.3170862e-38
-0.035933346 0.021266662 0.77000004 9.3675261e-40
-0.034377154 0.021211438 0.76800001 5.359989e-39
-0.03291427 0.02121143 0.76800001 9.6859459e-39
-0.031328578 0.021128565 0.7650001 7.2045981e-39
-0.029871436 0.021128573 0.76500005 4.7077813e-39
-0.028340001 0.021073334 0.76300001 2.6672735e-39
-0.026886677 0.021073334 0.76300001 5.5394449e-40
-0.025333319 0.020990483 0.75999999 8.2941595e-40
-0.023822876 0.020935237 0.75800002 1.0123989e-39
-0.022379061 0.02093523 0.75800002 6.4436888e-40
-0.020879993 0.020880006 0.75600004 1.8481165e-40
-0.019439997 0.020880006 0.75600004 1.8407457e-40
-0.017904768 0.020769529 0.75200003 9.4842683e-41
-0.016472382 0.020769522 0.75200003 6.2543706e-39
-0.015040021 0.020769514 0.75200003 1.2450778e-38
-0.013607636 0.020769529 0.75200003 1.0723502e-38
-0.012175277 0.020769522 0.75200003 8.8432905e-39
-0.010742889 0.020769522 0.75200009 4.5003807e-39
-0.0093104737 0.020769536 0.75200003 9.2646848e-41
-0.0078571504 0.02071429 0.75000006 5.52553e-40
-0.0064285821 0.02071429 0.75000006 9.2096838e-40
-0.0050000153 0.020714298 0.75000006 9.2096558e-40
-0.0035714477 0.02071429 0.75000006 8.294706e-40
-0.0021371327 0.020659052 0.74800003 8.2909505e-40
-0.00071141939 0.02063144 0.74700004 8.2840281e-40
0.00071143382 0.020631433 0.74700004 7.3587507e-40
0.0021342889 0.020631433 0.74699998 6.4440391e-40
0.003557143 0.02063144 0.74699998 5.5293416e-40
0.0049799946 0.020631433 0.74699998 3.6961769e-40
0.0064028488 0.020631433 0.74700004 4.6073152e-40
0.0078257294 0.02063144 0.74699998 4.6180351e-40
0.0092485836 0.02063144 0.74699998 6.4582763e-40
0.010671436 0.020631433 0.74700004 7.3945679e-40
0.012094289 0.020631447 0.74700004 8.3164962e-40
0.013535251 0.020659059 0.74799997 8.3236428e-40
0.014959999 0.020659059 0.74800003 6.4904922e-40
0.016384775 0.020659052 0.74800003 3.7139734e-40
0.017809523 0.020659037 0.74800003 8.302245e-40
0.019234303 0.020659059 0.74799997 1.2922704e-39
0.020714298 0.020714298 0.75000006 2.2131351e-39
0.022201877 0.020769514 0.75200009 3.0418126e-39
0.023665724 0.020797156 0.75300002 3.5939074e-39
0.025100006 0.020797148 0.75300002 4.0563148e-39
0.026604759 0.020852387 0.75500005 4.3332577e-39
0.028042858 0.020852394 0.75500005 4.513686e-39
0.029520001 0.020880006 0.75600004 2.3045979e-39
0.031164756 0.021018095 0.76100004 1.0157592e-40
0.032614287 0.021018095 0.76100004 7.652128e-39
0.034242861 0.021128573 0.76500005 1.5110221e-38
0.03579336 0.021183826 0.76699996 1.7233962e-38
0.037302867 0.02121143 0.76800001 1.9253984e-38
0.038765751 0.02121143 0.76799995 1.9158201e-38
0.040333327 0.021266669 0.77000004 1.9070309e-38
0.041800003 0.021266669 0.77000004 1.9073892e-38
-0.034377135 0.022674292 0.76799995 6.556356e-39
-0.032871418 0.022644758 0.76700002 1.0518188e-38
-0.031328574 0.022585712 0.76500005 6.6388477e-39
-0.02987146 0.022585712 0.7650001 2.6636834e-39
-0.028339986 0.022526667 0.76300001 2.0232942e-39
-0.026816186 0.022467613 0.76100004 1.2896766e-39
-0.025333323 0.022438094 0.76000005 1.1045609e-39
-0.023885714 0.022438109 0.76000005 8.276391e-40
-0.022379054 0.022379056 0.75800002 2.948842e-39
-0.020880004 0.022320017 0.75600004 5.1431787e-39
-0.019440006 0.02232001 0.75600004 2.5721128e-39
-0.017928556 0.02223143 0.75299996 9.3040613e-41
-0.016494274 0.022231445 0.75300002 6.8326739e-39
-0.015040017 0.022201911 0.75200003 1.3575422e-38
-0.013607657 0.022201903 0.75200003 1.20006e-38
-0.012175269 0.022201911 0.75200009 1.0305124e-38
-0.010742854 0.022201918 0.75200003 5.2397156e-39
-0.0093104923 0.022201918 0.75200003 9.2276905e-41
-0.0078571634 0.022142865 0.75000006 4.6214123e-40
-0.0064285952 0.022142857 0.75000006 8.3056081e-40
-0.0049999985 0.022142857 0.75000006 6.4689122e-40
-0.0035714291 0.022142872 0.75000006 5.5612912e-40
-0.0021371327 0.022083834 0.74799997 6.4616815e-40
-0.00071238331 0.022083819 0.74799997 7.3622259e-40
0.00071239308 0.022083811 0.74800003 8.2842803e-40
0.0021371415 0.022083804 0.74800003 1.0121004e-39
0.0035619217 0.022083826 0.74799997 7.3659394e-40
0.0049866694 0.022083819 0.74799997 5.5256421e-40
0.0064028506 0.022054285 0.74700004 6.4511577e-40
0.0078361938 0.022083826 0.74800003 7.3837499e-40
0.0092609422 0.022083819 0.74800003 8.3055661e-40
0.010685722 0.022083819 0.74799997 1.0160255e-39
0.012110471 0.022083811 0.74799997 1.0163884e-39
0.013535246 0.022083819 0.74800003 1.0174534e-39
0.014959995 0.022083819 0.74800003 8.3197612e-40
0.016428553 0.022142865 0.75000006 6.4545489e-40
0.017809523 0.022083819 0.74800003 1.0146088e-39
0.019285718 0.02214288 0.75000006 1.4752226e-39
0.020714287 0.022142865 0.75000006 2.3046133e-39
0.022231447 0.022231445 0.75299996 3.225122e-39
0.023728574 0.022290483 0.75500005 3.6875295e-39
0.025166674 0.022290476 0.75500005 4.1495811e-39
0.026604749 0.022290491 0.75500005 3.7818832e-39
0.028042851 0.022290476 0.75500005 3.5042187e-39
0.029520018 0.02232001 0.75600004 3.5877963e-39
0.031164778 0.022467636 0.76100004 3.5820061e-39
0.032614309 0.022467628 0.76100004 1.087929e-38
0.034153339 0.022526674 0.76300001 1.8168106e-38
0.035700005 0.02258572 0.76500005 1.9732988e-38
0.037254285 0.022644766 0.76700002 2.1397147e-38
0.038765736 0.022674292 0.76800001 2.12967e-38
0.040228594 0.022674285 0.76800001 2.1305303e-38
0.041800011 0.022733323 0.77000004 2.129848e-38
0.043266688 0.022733346 0.77000004 2.1305289e-38
-0.034377147 0.024137154 0.76800001 7.7696198e-39
-0.032871425 0.024105713 0.76700002 1.1337179e-38
-0.031410463 0.024105728 0.76700002 5.9852162e-39
-0.029871428 0.02404286 0.76500005 6.4796461e-40
-0.028340004 0.023979999 0.76300001 1.3804668e-39
-0.026816191 0.023917146 0.76100004 2.0233054e-39
-0.025333326 0.023885719 0.76000005 1.3790136e-39
-0.023885718 0.023885712 0.76000005 6.5333859e-40
-0.022379076 0.023822851 0.75800002 5.3642546e-39
-0.020880016 0.023760006 0.75600004 1.00335e-38
-0.019440018 0.023759998 0.75600004 5.0514091e-39
-0.017928584 0.023665719 0.75300002 1.1065774e-40
-0.016494302 0.023665726 0.75300002 7.407345e-39
-0.015040037 0.023634285 0.75200003 1.4675638e-38
-0.01360765 0.023634292 0.75200009 1.3306373e-38
-0.012175234 0.023634292 0.75200003 1.1786683e-38
-0.010742873 0.023634285 0.75200003 5.9697389e-39
-0.0093104877 0.023634285 0.75200003 9.3716039e-41
-0.0078571448 0.023571447 0.75000006 3.731826e-40
-0.0064285775 0.023571447 0.75000006 6.4761429e-40
-0.0050000097 0.023571432 0.75000006 4.6322863e-40
-0.003571443 0.023571424 0.75000006 2.7991637e-40
-0.0021371373 0.023508571 0.74800003 4.6358877e-40
-0.00071238796 0.023508586 0.74800003 6.4583184e-40
0.00071239308 0.023508586 0.74799997 1.0128221e-39
0.0021371406 0.023508571 0.74799997 1.2879685e-39
0.0035619151 0.023508579 0.74800003 1.0128193e-39
0.0049866657 0.023508571 0.74800003 6.4511718e-40
0.0064114439 0.023508579 0.74799997 8.2842803e-40
0.0078361938 0.023508571 0.74799997 9.2098099e-40
0.0092609674 0.023508579 0.74800003 1.1057282e-39
0.010685718 0.023508571 0.74800003 1.2908313e-39
0.012110466 0.023508571 0.74800003 1.1997119e-39
0.013535246 0.023508593 0.74799997 1.1078694e-39
0.014999973 0.023571424 0.75000006 1.0153108e-39
0.016428571 0.023571447 0.75000006 8.3093356e-40
0.017857138 0.023571439 0.75000006 1.1990056e-39
0.019285705 0.023571432 0.75000006 1.5674266e-39
0.020714274 0.023571439 0.75000006 2.4879368e-39
0.022231447 0.023665726 0.75300002 3.318045e-39
0.023728594 0.023728587 0.755 3.78153e-39
0.02516667 0.023728579 0.755 4.1495769e-39
0.026604772 0.023728579 0.755 3.3234035e-39
0.028042873 0.023728587 0.75500005 2.489729e-39
0.029598093 0.023822859 0.75800002 4.7759503e-39
0.031123819 0.023885727 0.76000005 7.0969433e-39
0.032699998 0.023979992 0.76300001 1.4206657e-38
0.034153324 0.023980014 0.76300001 2.1201279e-38
0.035793349 0.024105728 0.76699996 2.2315558e-38
0.037254278 0.024105713 0.76700002 2.3416504e-38
0.038765725 0.024137139 0.76800001 2.3417579e-38
0.040333346 0.0242 0.77000004 2.3416502e-38
0.041800022 0.0242 0.77000004 2.3417578e-38
-0.034377132 0.025600009 0.76799995 7.7567349e-39
-0.032914277 0.025599994 0.76800001 1.1065622e-38
-0.031410467 0.025566675 0.76700002 5.710046e-39
-0.029871427 0.025499992 0.76500005 4.596301e-40
-0.028414285 0.0255 0.76500005 8.2839721e-40
-0.026886642 0.025433332 0.76300001 1.1964482e-39
-0.02536664 0.025366664 0.76099998 8.2802166e-40
-0.02388569 0.025333352 0.75999999 3.6819117e-40
-0.022379039 0.02526667 0.75800002 4.8068503e-39
-0.020880001 0.025200009 0.75600004 9.146795e-39
-0.019440001 0.025200009 0.75600004 7.1884747e-39
-0.017928554 0.025100008 0.75299996 5.1551921e-39
-0.016494269 0.0251 0.75299996 8.8655726e-39
-0.01504003 0.025066666 0.75200003 1.2658111e-38
-0.013607644 0.025066659 0.75200009 1.1632513e-38
-0.012175254 0.025066666 0.75200003 1.0585284e-38
-0.010742868 0.025066674 0.75200003 5.3329916e-39
-0.0092857257 0.025000006 0.75000006 9.3004179e-41
-0.0078571588 0.025000006 0.75000006 4.6323144e-40
-0.0064285886 0.025000013 0.75000006 7.3981693e-40
-0.0050000208 0.025000006 0.75000006 6.4726537e-40
-0.0035714542 0.024999999 0.75000006 5.5543547e-40
-0.0021371373 0.024933346 0.74799997 6.4691644e-40
-0.00071238796 0.024933353 0.74799997 7.3803588e-40
0.00071238657 0.024933338 0.74800003 9.2063207e-40
0.0021342945 0.024900012 0.74699998 1.1032241e-39
0.0035619151 0.024933353 0.74799997 9.209838e-40
0.0049866657 0.024933346 0.74799997 8.2950563e-40
0.0064114393 0.024933338 0.74800003 9.2026353e-40
0.0078361891 0.024933346 0.74800003 1.103587e-39
0.0092609376 0.024933338 0.74800003 1.5649281e-39
0.010685718 0.024933346 0.74799997 2.0258922e-39
0.012110491 0.024933338 0.74800003 1.5659889e-39
0.013571422 0.025000021 0.75 1.10681e-39
0.014999988 0.025000013 0.75000006 9.2313759e-40
0.016428558 0.025000006 0.75000006 7.3911347e-40
0.017857127 0.025000006 0.75000006 1.1986539e-39
0.019337123 0.025066659 0.75200009 1.5663588e-39
0.020797167 0.025100008 0.75299996 2.3046343e-39
0.022231448 0.025100023 0.75299996 3.135104e-39
0.023728589 0.025166668 0.75500005 3.5971542e-39
0.025166662 0.025166668 0.75500005 4.1495741e-39
0.026639998 0.025200009 0.75600004 3.2290373e-39
0.028079996 0.025200009 0.75600004 2.30427e-39
0.0295981 0.025266677 0.75800002 4.701006e-39
0.031164763 0.025366664 0.76100004 7.10886e-39
0.032700013 0.025433347 0.76300001 1.4112792e-38
0.034242839 0.0255 0.7650001 2.1114554e-38
0.035793368 0.025566675 0.76699996 2.2219831e-38
0.0372543 0.02556666 0.76700002 2.3413689e-38
0.03876574 0.025600009 0.76800001 2.3138896e-38
0.040228602 0.025600009 0.76799995 2.286232e-38
0.041800003 0.025666676 0.77000004 2.2863402e-38
-0.035840001 0.027062856 0.76800001 4.8035909e-39
-0.034332369 0.027027629 0.76699996 7.7678738e-39
-0.032871436 0.027027614 0.76700002 1.0690395e-38
-0.031410474 0.027027629 0.76700002 5.4219797e-39
-0.029871427 0.026957139 0.76500005 1.8517599e-40
-0.028414285 0.026957147 0.76500005 2.7662613e-40
-0.026886657 0.026886672 0.76300001 3.6883297e-40
-0.025366673 0.026816189 0.76100004 2.7593388e-40
-0.023885692 0.026780955 0.75999999 1.0633473e-40
-0.022379059 0.02671048 0.75800002 4.1636809e-39
-0.02088001 0.026639998 0.75600004 8.2151809e-39
-0.019439986 0.026640005 0.75600004 9.2163792e-39
-0.01792858 0.026534297 0.75300002 1.0230908e-38
-0.016494295 0.026534289 0.75300002 1.0424657e-38
-0.015040025 0.02649904 0.75200009 1.0527981e-38
-0.013607636 0.026499063 0.75200003 9.9802032e-39
-0.012175248 0.026499055 0.75200003 9.3960944e-39
-0.010742863 0.026499048 0.75200003 4.7758872e-39
-0.0092857117 0.026428588 0.75000006 9.3355905e-41
-0.00785717 0.02642858 0.75000006 4.6357055e-40
-0.0064286017 0.026428565 0.75000006 8.3020628e-40
-0.005000005 0.026428588 0.75 8.3021749e-40
-0.0035714356 0.02642858 0.75000006 7.383876e-40
-0.0021371411 0.026358098 0.74800003 8.3094617e-40
-0.00071239169 0.026358105 0.74800003 8.2951684e-40
0.00071238657 0.026358105 0.74799997 9.2028315e-40
0.0021371369 0.026358105 0.74799997 9.2063347e-40
0.0035619105 0.026358105 0.74800003 9.2205999e-40
0.004986661 0.026358098 0.74800003 9.2133973e-40
0.0064114393 0.026358098 0.74799997 1.103573e-39
0.0078361891 0.026358098 0.74799997 1.2883272e-39
0.0092609636 0.026358105 0.74800003 2.0237356e-39
0.010685714 0.026358098 0.74800003 2.7591329e-39
0.012110461 0.02635809 0.74800003 1.9318931e-39
0.01353524 0.026358113 0.74799997 1.1071673e-39
0.014999977 0.02642858 0.75000006 9.2313759e-40
0.016428547 0.026428573 0.75000006 6.4763391e-40
0.017857114 0.026428565 0.75000006 1.1064555e-39
0.019337133 0.026499055 0.75200003 1.5674308e-39
0.020797141 0.026534297 0.75300002 2.212796e-39
0.022231424 0.026534289 0.75300002 2.8599493e-39
0.023728581 0.026604772 0.75500005 3.5063865e-39
0.025166655 0.026604772 0.75500005 4.0577414e-39
0.026640015 0.026640013 0.75600004 3.1390109e-39
0.028080015 0.026640005 0.75600004 2.1270478e-39
0.029598081 0.02671048 0.75800002 4.6141606e-39
0.031164786 0.026816189 0.76100004 7.0213321e-39
0.032699995 0.026886664 0.76300001 1.402028e-38
0.034153346 0.026886672 0.76300001 2.1019509e-38
0.03579336 0.027027629 0.76699996 2.221947e-38
0.037254293 0.027027622 0.76700002 2.332185e-38
0.038765732 0.027062848 0.76800001 2.2861589e-38
0.040228587 0.027062863 0.76800001 2.2310575e-38
-0.035839982 0.028525732 0.76800001 8.3008997e-39
-0.034332376 0.028488576 0.76699996 8.9542201e-39
-0.032914273 0.028525718 0.76800001 9.6891801e-39
-0.031410482 0.028488584 0.76700002 4.9717663e-39
-0.029871451 0.028414287 0.7650001 2.7591287e-40
-0.028414309 0.028414287 0.76500005 2.0210998e-39
-0.026886676 0.028339997 0.76300001 3.766368e-39
-0.025366653 0.028265722 0.76100004 5.4345073e-39
-0.023885697 0.028228581 0.76000005 7.0973315e-39
-0.022379054 0.028154284 0.75800002 9.9644204e-39
-0.020879993 0.028080009 0.75599998 1.2812709e-38
-0.019439995 0.028080016 0.75599998 1.3089244e-38
-0.017976183 0.02804286 0.75500005 1.3372699e-38
-0.016538085 0.028042853 0.75500005 1.3831573e-38
-0.015059984 0.027968571 0.75300002 1.4191737e-38
-0.013625703 0.027968585 0.75300002 1.2360045e-38
-0.012175243 0.027931429 0.75200003 1.0589247e-38
-0.010742881 0.027931437 0.75200003 5.3337217e-39
-0.0092857247 0.02785714 0.75000006 9.2272701e-41
-0.0078571551 0.027857147 0.75000012 5.5323404e-40
-0.0064285579 0.027857155 0.75000006 1.0120724e-39
-0.0050000162 0.027857147 0.75000006 8.2949722e-40
-0.0035714495 0.027857155 0.75000006 7.3731e-40
-0.0021371411 0.027782865 0.74799997 8.291511e-40
-0.00071236747 0.027782872 0.74800003 1.0121172e-39
0.00071238284 0.027782872 0.74800003 9.2029296e-40
0.0021342982 0.027745716 0.74700004 8.2844485e-40
0.0035619105 0.027782865 0.74799997 8.2950703e-40
0.0049866871 0.027782865 0.74800003 9.2169706e-40
0.0064114355 0.027782857 0.74800003 9.2133412e-40
0.0078361854 0.027782857 0.74800003 9.2169566e-40
0.0092609636 0.027782872 0.74799997 1.4734289e-39
0.010685711 0.027782865 0.74799997 2.0237244e-39
0.012110488 0.027782857 0.74800003 1.5659819e-39
0.013571423 0.027857147 0.75000006 1.1093183e-39
0.014999991 0.027857155 0.75000006 8.3273703e-40
0.01642859 0.027857155 0.75000006 4.6503631e-40
0.017857159 0.027857147 0.75000006 8.3237829e-40
0.01933714 0.027931429 0.75200003 1.2004433e-39
0.020797173 0.027968585 0.75299996 1.846526e-39
0.022231454 0.027968578 0.75299996 2.4940366e-39
0.023728572 0.028042853 0.75500005 3.2305128e-39
0.025166648 0.02804286 0.75500005 3.9666275e-39
0.026640004 0.028080009 0.75600004 2.6787726e-39
0.02808 0.028080001 0.75600004 1.3894855e-39
0.029676203 0.028228581 0.76000005 6.0910296e-39
0.03116478 0.02826573 0.76099998 1.0791255e-38
0.03270001 0.028339997 0.76300001 1.6324816e-38
0.034153357 0.028340004 0.76300001 2.1856452e-38
0.035793353 0.028488584 0.76699996 2.2589322e-38
0.037254315 0.028488576 0.76699996 2.3415475e-38
0.038765747 0.028525725 0.76800001 2.3139241e-38
0.040228605 0.028525725 0.76799995 2.286229e-38
0.041800015 0.0286 0.77000004 2.286192e-38
-0.034332357 0.029949531 0.76699996 1.015017e-38
-0.032914277 0.029988587 0.76799995 8.5662917e-39
-0.031410467 0.029949531 0.76700002 4.4085102e-39
-0.029949501 0.029949524 0.76700002 2.8311134e-40
-0.028414309 0.029871434 0.7650001 3.7657094e-39
-0.026886662 0.029793344 0.76300001 7.1902011e-39
-0.025366658 0.029715255 0.76099998 1.0690744e-38
-0.023885725 0.029676199 0.76000005 1.4108458e-38
-0.022379074 0.029598095 0.75800002 1.5784167e-38
-0.020880006 0.02951999 0.75600004 1.7331355e-38
-0.019440008 0.029520005 0.75600004 1.6955377e-38
-0.017976193 0.029480956 0.75500005 1.6506989e-38
-0.016494293 0.029402867 0.75300002 1.7244928e-38
-0.015059981 0.029402867 0.75299996 1.7887417e-38
-0.013607623 0.029363811 0.75200003 1.4862582e-38
-0.012175262 0.029363818 0.75200003 1.170061e-38
-0.010742877 0.029363818 0.75200003 5.8779188e-39
-0.0092857061 0.029285714 0.75000006 9.2644045e-41
-0.0078571392 0.029285714 0.75000006 6.4437729e-40
-0.006428571 0.029285721 0.75000006 1.1053554e-39
-0.0050000031 0.029285714 0.75000006 9.2133412e-40
-0.0035714607 0.029285714 0.75000006 6.4511718e-40
-0.0021371467 0.029207617 0.74800003 9.1955587e-40
-0.00071239728 0.029207632 0.74800003 1.1035898e-39
0.00071141985 0.029168583 0.74699998 9.1992301e-40
0.002134274 0.029168576 0.74700004 7.3732121e-40
0.0035571551 0.029168583 0.74699998 8.2986717e-40
0.0049866573 0.029207632 0.74800003 8.3021749e-40
0.0064114355 0.029207632 0.74799997 7.3765612e-40
0.0078362087 0.029207617 0.74800003 5.5506553e-40
0.009260959 0.029207624 0.74800003 9.2420538e-40
0.010685707 0.029207617 0.74800003 1.1989902e-39
0.012142844 0.029285707 0.75000006 1.1982685e-39
0.013571412 0.029285714 0.75000006 1.1086036e-39
0.015000009 0.029285721 0.75000006 7.4163861e-40
0.016472371 0.029363826 0.75200003 2.8173246e-40
0.01790476 0.029363811 0.75200003 5.5758507e-40
0.019337146 0.029363804 0.75200003 8.3453349e-40
0.020797146 0.029402874 0.75300002 1.4791812e-39
0.022231428 0.029402867 0.75300002 2.0334228e-39
0.023728594 0.029480964 0.75500005 2.954649e-39
0.025199996 0.029520005 0.75600004 3.7822349e-39
0.026639994 0.029520012 0.75600004 2.219228e-39
0.028154278 0.029598087 0.75800002 6.6345597e-40
0.029676201 0.029676184 0.76000005 7.6609407e-39
0.031164771 0.02971524 0.76100004 1.4570187e-38
0.032699991 0.029793322 0.76300001 1.8630738e-38
0.034153339 0.02979333 0.76300001 2.2678309e-38
0.03569999 0.029871441 0.76500005 2.3049949e-38
0.037254307 0.029949546 0.76699996 2.3416206e-38
0.038765732 0.029988572 0.76800001 2.3417274e-38
0.04022859 0.029988572 0.76800001 2.3414756e-38
0.041799992 0.030066662 0.77000004 2.3416544e-38
-0.034466647 0.031533346 0.77000004 6.2700539e-39
-0.033 0.031533338 0.77000004 4.5990153e-39
-0.031451408 0.031451426 0.76800001 5.8957685e-39
-0.029949507 0.031410478 0.76700002 7.2837981e-39
-0.028488547 0.031410493 0.76699996 1.0054024e-38
-0.026886679 0.031246662 0.76300001 1.2741317e-38
-0.02543333 0.031246677 0.76300001 1.448658e-38
-0.023885699 0.031123817 0.75999999 1.6157598e-38
-0.022379037 0.031041905 0.75800002 1.661e-38
-0.020879989 0.030960001 0.75600004 1.7069532e-38
-0.019439992 0.030960016 0.75600004 1.6698597e-38
-0.017976169 0.03091906 0.755 1.6434211e-38
-0.016538093 0.03091906 0.755 1.495408e-38
-0.015060008 0.030837156 0.75299996 1.3586592e-38
-0.013625698 0.030837148 0.75300002 1.2742493e-38
-0.012191416 0.030837156 0.75300002 1.1891106e-38
-0.010742871 0.030796185 0.75200003 5.980875e-39
-0.00931051 0.030796193 0.75200003 9.2297925e-41
-0.0078781247 0.030796185 0.75200009 5.5435928e-40
-0.0064285821 0.030714281 0.75000006 1.0164038e-39
-0.0050000153 0.030714288 0.75000006 7.3874073e-40
-0.0035714179 0.030714296 0.75000006 4.6144899e-40
-0.0021371215 0.030632392 0.74800003 6.4476965e-40
-0.0007123712 0.030632399 0.74800003 9.2027334e-40
0.00071142172 0.030591436 0.74700004 8.291511e-40
0.0021342759 0.030591443 0.74700004 8.302273e-40
0.003557157 0.030591443 0.74699998 7.3910787e-40
0.0049866806 0.030632399 0.74800003 6.4833596e-40
0.0064114309 0.030632392 0.74800003 6.4652968e-40
0.0078361789 0.030632377 0.74800003 7.3801205e-40
0.009260959 0.030632399 0.74799997 9.2348231e-40
0.010685734 0.030632392 0.74800003 1.1092973e-39
0.012142861 0.030714296 0.75000006 1.0160185e-39
0.013571429 0.030714296 0.75000006 1.0171297e-39
0.014999998 0.030714288 0.75000006 7.4058203e-40
0.016472379 0.030796193 0.75200003 4.6505172e-40
0.017904764 0.0307962 0.75200003 8.3272862e-40
0.019337125 0.0307962 0.75200003 1.2025887e-39
0.020797174 0.030837163 0.75299996 1.7546849e-39
0.022231458 0.030837156 0.75299996 2.4000473e-39
0.023728587 0.030919045 0.75500005 3.1379613e-39
0.025200011 0.030960009 0.75600004 3.8755011e-39
0.026640009 0.030960016 0.75600004 2.5887125e-39
0.028154286 0.031041898 0.75800002 1.39388e-39
0.029676227 0.031123832 0.75999999 6.0101523e-39
0.031164765 0.031164765 0.76100004 1.0637088e-38
0.032614294 0.03116478 0.76100004 1.522564e-38
0.034153353 0.03124667 0.76300001 1.9737781e-38
0.03569999 0.031328566 0.76500005 2.0382068e-38
0.037254304 0.031410478 0.76699996 2.1027062e-38
0.038765755 0.031451434 0.76800001 2.0747601e-38
0.040333327 0.031533338 0.77000004 2.0381334e-38
0.041908566 0.031615235 0.77200007 2.0469938e-38
0.043379061 0.031615235 0.77200001 2.0472816e-38
-0.034466665 0.033000007 0.77000004 2.4800292e-39
-0.032999989 0.033000007 0.77000004 5.7194838e-40
-0.031451423 0.032914288 0.76800001 7.4757704e-39
-0.029949514 0.032871433 0.76700002 1.429067e-38
-0.028488552 0.03287144 0.76699996 1.633371e-38
-0.026886666 0.03270001 0.76300001 1.8257969e-38
-0.025433317 0.032700002 0.76300001 1.8264446e-38
-0.023885703 0.032571442 0.76000005 1.8166173e-38
-0.022379061 0.032485701 0.75800002 1.7428997e-38
-0.020879999 0.032400005 0.75599998 1.6697535e-38
-0.019440001 0.032400019 0.75600004 1.651816e-38
-0.017976176 0.032357156 0.75500005 1.6231522e-38
-0.0165381 0.032357149 0.75500005 1.273423e-38
-0.015059974 0.032271445 0.75299996 9.2383922e-39
-0.013625693 0.032271437 0.75299996 1.0629209e-38
-0.012191409 0.03227143 0.75299996 1.197685e-38
-0.010742889 0.032228574 0.75200003 6.0615968e-39
-0.0093105026 0.032228567 0.75200009 9.3378326e-41
-0.0078571634 0.032142855 0.75000006 4.6360278e-40
-0.0064457259 0.032228574 0.75200003 8.313007e-40
-0.0049999966 0.032142863 0.75000006 5.5507534e-40
-0.0035714291 0.03214287 0.75000006 2.7850387e-40
-0.0021371513 0.032057144 0.74800003 4.6111127e-40
-0.000712401 0.032057136 0.74800003 6.4549132e-40
0.00071142172 0.032014288 0.74700004 7.3803728e-40
0.0021343066 0.032014295 0.74699998 8.3095317e-40
0.0035571589 0.032014303 0.74699998 6.4836398e-40
0.0049866508 0.032057151 0.74800003 4.6396432e-40
0.0064114309 0.032057159 0.74799997 6.4619057e-40
0.007836205 0.032057144 0.74800003 8.2986296e-40
0.0092609553 0.032057136 0.74800003 9.2205719e-40
0.010685703 0.032057151 0.74800003 9.2312919e-40
0.012142849 0.032142863 0.75000006 9.2312498e-40
0.013571417 0.032142855 0.75000006 9.2350333e-40
0.014999986 0.032142863 0.75000006 7.3805689e-40
0.016472384 0.032228582 0.75200003 5.5509076e-40
0.017904745 0.032228567 0.75200003 1.0138969e-39
0.019337131 0.032228567 0.75200003 1.4755911e-39
0.02079715 0.032271445 0.75300002 2.1198815e-39
0.022231432 0.032271445 0.75300002 2.7666774e-39
0.023728581 0.032357141 0.75500005 3.3212791e-39
0.025199998 0.032399997 0.75600004 3.8744333e-39
0.026639996 0.032400012 0.75600004 3.0496963e-39
0.028154267 0.032485716 0.75800002 2.1335316e-39
0.029676197 0.032571442 0.75999999 4.4402202e-39
0.031123832 0.03257145 0.75999999 6.6518713e-39
0.032614317 0.032614298 0.76099998 1.1712575e-38
0.034153339 0.032700002 0.76300001 1.678829e-38
0.03569999 0.032785721 0.7650001 1.7713112e-38
0.037254322 0.03287144 0.76699996 1.8630023e-38
0.038765714 0.032914296 0.76800001 1.7980351e-38
0.040333334 0.032999992 0.77000004 1.7339287e-38
0.041908566 0.033085719 0.77200007 1.7425735e-38
0.043379065 0.033085719 0.77200001 1.7524033e-38
-0.034556195 0.03455618 0.77200001 5.8061779e-39
-0.033000011 0.034466669 0.77000004 6.1000778e-39
-0.031533338 0.034466669 0.7700001 1.0801364e-38
-0.02994952 0.03433238 0.76700002 1.541684e-38
-0.0284143 0.034242854 0.76500005 1.5593721e-38
-0.026886683 0.034153335 0.76300001 1.5866366e-38
-0.025433334 0.034153335 0.76300001 1.5679115e-38
-0.023885706 0.034019053 0.76000005 1.5486474e-38
-0.022438098 0.03401906 0.76000005 1.5953183e-38
-0.020880012 0.033840001 0.75600004 1.6507415e-38
-0.019440016 0.033840008 0.75600004 1.5856663e-38
-0.017976185 0.03379523 0.75500005 1.5198368e-38
-0.016494283 0.033705719 0.75299996 1.4278199e-38
-0.015060001 0.033705726 0.75299996 1.3318971e-38
-0.013607631 0.033660956 0.75200003 1.2995056e-38
-0.012175268 0.033660948 0.75200003 1.2621499e-38
-0.010742883 0.033660963 0.75200009 6.3471534e-39
-0.009310496 0.033660948 0.75200009 9.2306332e-41
-0.0078781061 0.033660963 0.75200003 5.5472221e-40
-0.0064457203 0.033660948 0.75200003 9.2278166e-40
-0.0050000097 0.03357143 0.75000006 7.3875194e-40
-0.0035714412 0.033571422 0.75000006 6.4621439e-40
-0.0021371252 0.033481911 0.74799997 6.4586967e-40
-0.00071237679 0.033481918 0.74800003 7.3805269e-40
0.00071142358 0.03343714 0.74700004 8.3059304e-40
0.0021343085 0.033437163 0.74699998 9.2351594e-40
0.0035571607 0.033437148 0.74699998 6.4801926e-40
0.004979989 0.03343714 0.74699998 3.717883e-40
0.0064114272 0.033481918 0.74800003 4.6218046e-40
0.0078361742 0.033481911 0.74800003 6.4512979e-40
0.0092609804 0.033481918 0.74799997 7.3767854e-40
0.010685729 0.033481911 0.74800003 9.2134954e-40
0.012142838 0.03357143 0.75000006 1.01462e-39
0.013571405 0.03357143 0.75000006 1.0149815e-39
0.015000002 0.033571437 0.75000006 9.2243134e-40
0.016472366 0.033660956 0.75200003 8.2987698e-40
0.017904751 0.033660956 0.75200003 1.0146228e-39
0.019362897 0.033705726 0.75299996 1.2908523e-39
0.02079718 0.033705726 0.75299996 1.9362161e-39
0.0222905 0.033795245 0.755 2.6741301e-39
0.023728602 0.03379526 0.75500005 3.0450608e-39
0.025200015 0.033840001 0.75600004 3.5067424e-39
0.026640013 0.033840008 0.75600004 2.9567972e-39
