# .PCD v0.7 - Point Cloud Data file format
VERSION 0.7
FIELDS x y z rgb
SIZE 4 4 4 4
TYPE F F F F
COUNT 1 1 1 1
WIDTH 988
HEIGHT 1
VIEWPOINT 0 0 0 1 0 0 0
POINTS 988
DATA ascii
-0.0021428571 0.034999982 0.75000006 5.536236e-40
-0.00071428565 0.034999989 0.75000006 6.4583324e-40
0.00071238092 0.034906656 0.74800003 6.4620879e-40
0.0021371425 0.034906663 0.74799997 6.4619197e-40
0.0035619044 0.03490667 0.74799997 6.4689402e-40
0.0049866666 0.034906663 0.74800003 6.4583744e-40
0.0064114286 0.03490667 0.74800003 4.6039241e-40
0.0078361891 0.03490667 0.74799997 2.77785e-40
0.0092609515 0.034906663 0.74800003 3.7068548e-40
0.010714284 0.034999996 0.75 4.6288111e-40
0.012142856 0.034999974 0.75000006 7.3874773e-40
0.013571428 0.034999982 0.75000006 1.0149633e-39
0.015 0.034999989 0.75 1.291539e-39
0.016472381 0.035093307 0.75200003 1.5659749e-39
0.01790476 0.035093315 0.75200003 8.269917e-40
0.019337142 0.035093322 0.75200003 1.0853477e-40
0.020797141 0.035139978 0.75300002 8.9675156e-39
0.022231426 0.035139985 0.75300002 1.7792699e-38
0.023665711 0.035139993 0.75300002 1.5787034e-38
0.025166666 0.035233326 0.75500005 1.3648625e-38
0.026604762 0.035233334 0.755 1.1076148e-38
0.02808 0.035279989 0.75600004 8.4064792e-39
0.029598095 0.035373323 0.75800002 1.0036219e-38
0.031041907 0.035373315 0.75800002 1.1632215e-38
0.032485709 0.035373323 0.75800002 1.5133798e-38
0.034019042 0.035466671 0.75999999 1.8529563e-38
0.03551333 0.035513334 0.76099998 1.8264465e-38
0.037059996 0.03560666 0.76299995 1.7980715e-38
0.038614284 0.035699971 0.76500005 1.742648e-38
0.040228572 0.035839982 0.76800001 1.6875451e-38
0.04190857 0.036026672 0.77199996 1.6321191e-38
0.043379046 0.036026649 0.77200001 1.5677984e-38
0.044849522 0.036026657 0.77200001 1.5308847e-38
-0.036353331 0.037837133 0.77899998 8.2165934e-39
-0.034869522 0.03783714 0.77899998 9.6914222e-39
-0.033299997 0.037739992 0.77700001 1.1257289e-38
-0.031819999 0.037739981 0.77700001 1.1164017e-38
-0.030261906 0.037642851 0.77499998 1.1077533e-38
-0.028785717 0.037642859 0.77499998 1.0148387e-38
-0.027203809 0.03749714 0.77199996 9.3081433e-39
-0.025666665 0.037399992 0.76999998 4.7855113e-39
-0.024105716 0.037254274 0.76700002 2.7699046e-40
-0.022585716 0.037157111 0.7650001 8.3089992e-40
-0.021128573 0.037157118 0.76500005 1.3826402e-39
-0.019619998 0.03706 0.76300001 9.2167744e-40
-0.018095238 0.036914289 0.75999999 5.5361799e-40
-0.016647618 0.036914289 0.75999999 5.5397672e-40
-0.015160001 0.036817126 0.75800002 5.5433125e-40
-0.01371619 0.036817133 0.75800002 8.2911467e-40
-0.01224 0.03672 0.75599998 1.1957532e-39
-0.010799999 0.036719978 0.75600004 1.0142472e-39
-0.0093476195 0.036671422 0.75500005 9.2313899e-40
-0.0079095233 0.036671415 0.75500005 8.3131331e-40
-0.0064542857 0.036574267 0.75300002 7.4018687e-40
-0.0050133327 0.036525697 0.75200003 5.557886e-40
-0.0035809525 0.036525689 0.75200003 3.710302e-40
-0.0021428571 0.036428556 0.75 5.5432985e-40
-0.00071428565 0.036428548 0.75000006 7.383904e-40
0.00071238092 0.036331415 0.74800003 1.0139277e-39
0.0021371427 0.03633143 0.74799997 1.379462e-39
0.0035619049 0.036331438 0.74799997 1.0131822e-39
0.0049866671 0.03633143 0.74800003 7.3839881e-40
0.006411429 0.036331438 0.74799997 5.5329849e-40
0.0078361882 0.03633143 0.74799997 4.6109726e-40
0.0092609506 0.036331423 0.74800003 4.6216645e-40
0.010714284 0.036428563 0.75000006 5.5543547e-40
0.012142856 0.036428556 0.75 7.3910366e-40
0.013571427 0.036428556 0.75000006 1.0156892e-39
0.015 0.036428563 0.75000006 1.1997217e-39
0.016472381 0.036525697 0.75200003 1.3837514e-39
0.017857142 0.036428563 0.75 1.0138969e-39
0.019337142 0.036525697 0.75200003 6.4910947e-40
0.020769523 0.036525697 0.75200003 4.8018393e-39
0.022231426 0.036574267 0.75300002 8.9477349e-39
0.023665711 0.036574259 0.75300002 1.1143919e-38
0.025166666 0.03667143 0.755 1.3411451e-38
0.026604762 0.036671415 0.75500005 1.3545958e-38
0.02808 0.036719985 0.75600004 1.3722155e-38
0.029519999 0.03672 0.75600004 1.4384793e-38
0.031041907 0.036817126 0.75800002 1.5049173e-38
0.032571428 0.036914289 0.75999999 1.4397722e-38
0.034063809 0.036962852 0.76100004 1.3769929e-38
0.03560666 0.03706 0.76300001 1.5039471e-38
0.037059996 0.037060007 0.76300001 1.632086e-38
0.038614284 0.037157133 0.76500005 1.6783621e-38
0.040228572 0.037302844 0.76800001 1.7152017e-38
0.041691426 0.037302852 0.76800001 1.6874334e-38
0.043379046 0.037497133 0.77199996 1.650269e-38
0.044907622 0.037545718 0.77300006 1.5859844e-38
0.046380002 0.037545726 0.773 1.5121953e-38
-0.036353327 0.039320949 0.77899998 7.0155307e-39
-0.034869518 0.039320942 0.77899998 8.2177046e-39
-0.033299997 0.039219998 0.77700001 9.4119122e-39
-0.031819999 0.03921999 0.77700001 9.2253588e-39
-0.030340003 0.039219998 0.77700001 9.0427668e-39
-0.028785717 0.03911905 0.77500004 9.3218634e-39
-0.027203811 0.038967624 0.77199996 9.4900164e-39
-0.025666667 0.038866665 0.77000004 4.8676568e-39
-0.024105715 0.038715221 0.76700002 2.7770232e-40
-0.022644762 0.038715225 0.76700002 8.3197052e-40
-0.021128571 0.038614277 0.76500005 1.290076e-39
-0.019619999 0.038513325 0.76300001 1.1049757e-39
-0.018119048 0.038412385 0.76099998 9.213145e-40
-0.01664762 0.038361888 0.76000005 7.3801345e-40
-0.015160001 0.038260937 0.75800002 5.547026e-40
-0.013716191 0.038260944 0.75800002 7.3801626e-40
-0.012272382 0.038260948 0.75800002 9.2312498e-40
-0.010799998 0.03816 0.75600004 9.2420398e-40
-0.0093476186 0.038109522 0.755 8.3200555e-40
-0.0078885714 0.038008541 0.75300002 6.4833035e-40
-0.0064542857 0.038008548 0.75300002 4.650237e-40
-0.0050199996 0.038008556 0.75300002 3.7355254e-40
-0.0035857144 0.038008548 0.75300002 2.7992058e-40
-0.0021428571 0.037857126 0.75000006 5.5399074e-40
-0.00071428565 0.037857134 0.75 8.3059024e-40
0.00071428576 0.03785713 0.75000006 1.4745317e-39
0.0021371427 0.037756201 0.74799997 2.0241e-39
0.0035619047 0.037756182 0.74800003 1.4720024e-39
0.0050000004 0.03785713 0.75000006 8.2951264e-40
0.006411429 0.037756193 0.74799997 7.3696108e-40
0.0078361891 0.037756182 0.74800003 5.5364321e-40
0.0092857126 0.037857138 0.75 5.5363761e-40
0.010714284 0.037857115 0.75000006 5.5507114e-40
0.012142856 0.037857123 0.75000006 7.38382e-40
0.013571427 0.037857138 0.75 9.2313199e-40
0.015039999 0.037958074 0.75200003 1.1078834e-39
0.016494283 0.038008552 0.75300002 1.1989986e-39
0.017928569 0.038008559 0.75300002 1.1957686e-39
0.019362854 0.038008552 0.75300008 1.1053849e-39
0.020797141 0.038008552 0.75300002 6.4335434e-40
0.022290476 0.038109519 0.755 1.0210701e-40
0.023728572 0.038109511 0.75500005 6.6128199e-39
0.0252 0.038159989 0.75600004 1.3177947e-38
0.02664 0.038159996 0.75600004 1.6157183e-38
0.02808 0.038160004 0.75600004 1.9084472e-38
0.029598093 0.038260933 0.75800002 1.8731152e-38
0.031041907 0.038260933 0.75800002 1.8337617e-38
0.032571428 0.038361903 0.75999999 1.3637858e-38
0.034063809 0.038412381 0.76099998 8.8613322e-39
0.035606664 0.038513318 0.76300001 1.1801858e-38
0.037157141 0.038614258 0.76500005 1.4666007e-38
0.038614284 0.038614262 0.76500005 1.6051819e-38
0.040228575 0.038765702 0.76800001 1.7430415e-38
0.041962855 0.039018087 0.773 1.7429685e-38
0.043435238 0.039018087 0.773 1.7334621e-38
0.044907618 0.039018095 0.773 1.6321561e-38
0.04662 0.03921999 0.77700007 1.5309575e-38
-0.037885711 0.040857133 0.78000003 1.3078038e-38
-0.036399994 0.040857125 0.78000003 6.3712207e-39
-0.034869522 0.040804755 0.77899998 6.7436269e-39
-0.033385713 0.040804759 0.77899998 7.2017044e-39
-0.031819995 0.040699985 0.77700001 8.9436852e-39
-0.030340001 0.040699989 0.77700001 1.0587432e-38
-0.028711429 0.040490467 0.77300006 1.0789792e-38
-0.027203809 0.040438086 0.77199996 1.0972294e-38
-0.025666667 0.040333331 0.76999998 5.615967e-39
-0.024105715 0.040176176 0.76699996 2.7733799e-40
-0.022644762 0.040176183 0.76699996 8.3088871e-40
-0.021128571 0.040071409 0.76500005 1.3808255e-39
-0.019619999 0.039966665 0.76300001 1.1967958e-39
-0.018119048 0.039861903 0.76100004 1.0135059e-39
-0.016647618 0.039809521 0.75999999 8.3021469e-40
-0.0152 0.039809514 0.75999999 7.394638e-40
-0.013716191 0.039704751 0.75800002 7.4018827e-40
-0.012272382 0.039704762 0.75800002 7.4233366e-40
-0.010799999 0.039599985 0.75600004 7.4124905e-40
-0.0093476186 0.039547615 0.75500005 8.327076e-40
-0.0078885714 0.039442837 0.75300008 7.4121262e-40
-0.0064542857 0.03944283 0.75300002 7.4123364e-40
-0.0050199996 0.039442845 0.75300002 6.487003e-40
-0.0035809523 0.03939046 0.75200003 6.4798984e-40
-0.0021428568 0.039285697 0.75000006 7.3911488e-40
-0.00071428565 0.039285704 0.75000006 9.231488e-40
0.00071428576 0.039285697 0.75 1.2904936e-39
0.0021428571 0.03928569 0.75000006 1.6574726e-39
0.0035714288 0.039285704 0.75000006 1.290125e-39
0.0050000004 0.039285697 0.75 1.0128207e-39
0.0064285719 0.039285704 0.75 8.2950423e-40
0.0078571411 0.039285701 0.75000006 6.4618917e-40
0.0092857126 0.03928569 0.75000006 5.547082e-40
0.010714284 0.039285697 0.75 4.639489e-40
0.012142856 0.039285693 0.75000006 6.4725976e-40
0.013571427 0.039285686 0.75000006 9.2277045e-40
0.015039999 0.039390463 0.75200003 8.3201396e-40
0.016494283 0.039442841 0.75300002 8.3272862e-40
0.017928569 0.039442848 0.75300002 1.290467e-39
0.019362854 0.03944283 0.75300008 1.7492773e-39
0.020797141 0.039442837 0.75300002 1.4708911e-39
0.022290476 0.039547611 0.75500005 1.2862785e-39
0.023728574 0.039547618 0.755 7.8472686e-39
0.0252 0.039599992 0.75600004 1.4509592e-38
0.02664 0.039599996 0.75600004 1.3853773e-38
0.02808 0.039599989 0.75599998 1.3217746e-38
0.029598095 0.039704751 0.75800002 1.1256202e-38
0.03116476 0.039861903 0.76100004 9.2175073e-39
0.032614283 0.039861906 0.76100004 6.8161329e-39
0.034063809 0.039861906 0.76099998 4.5005194e-39
0.035606664 0.039966669 0.76300001 9.6809769e-39
0.03706 0.039966676 0.76300001 1.4856114e-38
0.038614281 0.040071405 0.76500005 1.6053984e-38
0.040228572 0.040228557 0.76800001 1.7250713e-38
0.041962855 0.040490471 0.773 1.7062375e-38
0.043435238 0.040490467 0.77300006 1.6971972e-38
0.04502381 0.040595237 0.77500004 1.641701e-38
0.04662 0.040699996 0.77700001 1.5958169e-38
-0.037885714 0.042342845 0.78000003 1.3257739e-38
-0.036399998 0.042342838 0.78000003 5.63079e-39
-0.034869522 0.042288568 0.77899998 5.3671805e-39
-0.033385713 0.042288557 0.77899998 4.9958981e-39
-0.031819999 0.042179987 0.77700001 8.5767706e-39
-0.030261904 0.042071417 0.77500004 1.2169846e-38
-0.028711429 0.041962843 0.77300006 1.2368595e-38
-0.027203811 0.041908573 0.77199996 1.2438091e-38
-0.025666665 0.0418 0.77000004 6.3459987e-39
-0.024105715 0.041637126 0.76699996 1.8909822e-40
-0.022644762 0.04163713 0.76699996 8.3340545e-40
-0.021128569 0.041528549 0.76500005 1.3815317e-39
-0.019619999 0.041419994 0.76299995 1.1956915e-39
-0.018166667 0.04141999 0.76300001 1.0134835e-39
-0.016669525 0.041311435 0.76100004 1.0138717e-39
-0.015200001 0.041257132 0.76000005 9.2274663e-40
-0.01371619 0.041148551 0.75800002 7.4050356e-40
-0.012272381 0.041148558 0.75800002 4.6536702e-40
-0.010799999 0.041040003 0.75599998 6.4976808e-40
-0.0093476186 0.040985707 0.755 7.4123644e-40
-0.0078885714 0.040877115 0.75300008 8.3377959e-40
-0.0064542857 0.040877119 0.75300002 9.2491164e-40
-0.0050199996 0.040877126 0.75300002 9.2384945e-40
-0.0035809523 0.040822849 0.75200003 9.2349633e-40
-0.0021428571 0.040714279 0.75 9.2278447e-40
-0.00071428565 0.040714275 0.75000006 9.2315161e-40
0.00071428576 0.040714268 0.75000006 1.1064737e-39
0.0021428568 0.040714271 0.75 1.2912111e-39
0.0035714286 0.040714268 0.75000006 1.2011594e-39
0.0049999999 0.040714275 0.75000006 1.1068086e-39
0.0064285714 0.040714275 0.75000006 9.2133973e-40
0.0078571411 0.040714283 0.75 6.4582483e-40
0.0092857126 0.040714279 0.75000006 4.6250556e-40
0.010714285 0.040714268 0.75000006 2.7990797e-40
0.012142857 0.040714275 0.75 5.5505432e-40
0.013571428 0.040714271 0.75000006 8.3128668e-40
0.01506 0.040877119 0.75300002 6.4798423e-40
0.016494283 0.040877122 0.75300002 3.7319661e-40
0.017928569 0.04087713 0.75300002 1.3833885e-39
0.019362854 0.040877137 0.75300002 2.2995826e-39
0.020797141 0.040877119 0.75300002 2.3881811e-39
0.022290478 0.040985718 0.755 2.4101717e-39
0.023728574 0.0409857 0.75500005 9.1630584e-39
0.0252 0.041039992 0.75600004 1.5759389e-38
0.02664 0.04104 0.75599998 1.153097e-38
0.02808 0.041039996 0.75600004 7.2896499e-39
0.029598095 0.041148566 0.75800002 3.6746782e-39
0.03116476 0.041311428 0.76100004 1.0348729e-40
0.032614283 0.041311435 0.76099998 9.235818e-41
0.034153327 0.041419994 0.76300001 1.0100699e-40
0.03560666 0.041419987 0.76300001 7.5651928e-39
0.037157137 0.04152856 0.76500005 1.5032621e-38
0.038715236 0.04163713 0.76700002 1.6056498e-38
0.040333331 0.041799981 0.77000004 1.7062367e-38
0.041962855 0.041962851 0.77300006 1.6781104e-38
0.043435238 0.041962847 0.77300006 1.6507754e-38
0.04502381 0.042071421 0.77500004 1.6507401e-38
0.04662 0.042179987 0.77700001 1.6508822e-38
-0.034914281 0.043828566 0.77999997 7.2835388e-39
-0.033385713 0.043772373 0.77899998 8.5728581e-39
-0.031901903 0.043772381 0.77899998 1.0977116e-38
-0.030144762 0.043379042 0.77199996 1.3472446e-38
-0.028674286 0.04337905 0.77199996 1.2733086e-38
-0.027133333 0.043266654 0.77000004 1.1983951e-38
-0.025666667 0.043266654 0.7700001 6.0769592e-39
-0.024137143 0.043154273 0.76800001 1.865941e-40
-0.022644764 0.043098077 0.76700002 8.3125726e-40
-0.021128573 0.042985704 0.76500005 1.4737134e-39
-0.019671429 0.042985685 0.7650001 1.197097e-39
-0.018166667 0.04287333 0.76300001 1.0138212e-39
-0.016669523 0.042760961 0.76100004 1.0138577e-39
-0.0152 0.042704765 0.75999999 1.0138352e-39
-0.013716191 0.042592358 0.75800002 9.2269478e-40
-0.012272382 0.042592362 0.75800002 9.2236828e-40
-0.010799999 0.042479992 0.75600004 8.3164121e-40
-0.0093476195 0.042423803 0.75500005 8.3235868e-40
-0.0078885704 0.042311396 0.75300008 1.0171059e-39
-0.0064542862 0.042311404 0.75300002 1.1089484e-39
-0.0050199996 0.042311408 0.75300002 1.1082379e-39
-0.0035857144 0.0423114 0.75300002 1.1075246e-39
-0.0021428571 0.042142849 0.75000006 1.0153346e-39
-0.00071428565 0.042142857 0.75 1.01535e-39
0.00071428576 0.042142838 0.75000006 1.2905132e-39
0.0021428571 0.042142846 0.75000006 1.4748877e-39
0.0035714286 0.042142849 0.75 1.29156e-39
0.0049999999 0.042142831 0.75000006 1.1075261e-39
0.0064285714 0.042142838 0.75000006 8.2950423e-40
0.007878094 0.042255215 0.75200003 6.4510316e-40
0.0092857135 0.042142846 0.75 4.6249576e-40
0.010714285 0.042142838 0.75000006 3.7209239e-40
0.012142858 0.042142846 0.75000006 5.5575917e-40
0.013625714 0.042311419 0.75300002 7.4016305e-40
0.015060001 0.0423114 0.75300002 6.487003e-40
0.016494283 0.042311408 0.75300002 6.4906603e-40
0.017976191 0.0424238 0.755 1.1997273e-39
0.019414287 0.042423807 0.755 1.7492983e-39
0.020852383 0.0424238 0.75500005 1.5674126e-39
0.022290478 0.042423792 0.755 1.3023906e-39
0.023728574 0.042423807 0.755 4.6160831e-39
0.025166668 0.042423815 0.755 7.9056341e-39
0.02664 0.042479992 0.75600004 6.260462e-39
0.02808 0.042479996 0.75600004 4.5004634e-39
0.029598096 0.042592373 0.75800002 3.4959552e-39
0.031164762 0.042760953 0.76099998 2.3985942e-39
0.032614283 0.042760961 0.76099998 1.2908299e-39
0.034153331 0.042873338 0.76300001 9.2380601e-41
0.035699997 0.042985696 0.76500005 7.3818988e-39
0.037254285 0.043098096 0.76699996 1.4672465e-38
0.038765714 0.043154273 0.76799995 1.5684854e-38
0.04043809 0.043379042 0.77199996 1.6691427e-38
0.041962855 0.043435242 0.773 1.6413735e-38
0.043435238 0.043435238 0.773 1.6138242e-38
0.04502381 0.043547608 0.77500004 1.6047495e-38
0.046739999 0.04377237 0.77899998 1.604821e-38
-0.034914285 0.045314278 0.78000003 9.2189338e-39
-0.033385709 0.045256171 0.77899998 1.2076606e-38
-0.0319019 0.045256179 0.77899998 1.3378098e-38
-0.030340001 0.04513998 0.77700001 1.4663076e-38
-0.028674286 0.04484953 0.77199996 1.3106537e-38
-0.027239049 0.044907611 0.77300006 1.142433e-38
-0.025733333 0.044849522 0.77200001 5.7906851e-39
-0.0242 0.044733308 0.77000004 1.8695704e-40
-0.022674287 0.04461712 0.76800001 8.305524e-40
-0.021128571 0.044442832 0.7650001 1.4733771e-39
-0.019671427 0.04444284 0.76500005 1.2889648e-39
-0.018166665 0.044326663 0.76300001 1.0138436e-39
-0.016669525 0.044210479 0.76100004 1.0138717e-39
-0.0152 0.044152379 0.75999999 1.013143e-39
-0.013716191 0.044036184 0.75800002 1.1971615e-39
-0.012272382 0.04403618 0.75800002 1.2897327e-39
-0.010799998 0.043919992 0.75600004 1.1057212e-39
-0.0093599986 0.043919988 0.75600004 9.2420118e-40
-0.0079095243 0.043861896 0.755 1.1093057e-39
-0.0064542857 0.043745693 0.75300002 1.2929809e-39
-0.0050199996 0.0437457 0.75300002 1.2929837e-39
-0.0035809523 0.043687608 0.75200003 1.2004335e-39
-0.0021485714 0.043687604 0.75200003 1.1997189e-39
-0.00071619044 0.043687604 0.75200003 1.1071771e-39
0.00071619055 0.043687608 0.75200003 1.38162e-39
0.0021428568 0.043571413 0.75000006 1.6578328e-39
0.0035809523 0.043687597 0.75200003 1.3826752e-39
0.0050133336 0.043687604 0.75200003 1.0135382e-39
0.0064457147 0.043687612 0.75200003 8.280707e-40
0.007878094 0.043687604 0.75200003 5.5327327e-40
0.0093228566 0.043745697 0.75300008 4.6214683e-40
0.010757143 0.043745689 0.75300002 3.7136511e-40
0.012191429 0.043745697 0.75300002 5.5608988e-40
0.013625715 0.043745704 0.75300002 6.4831073e-40
0.015060001 0.043745689 0.75300002 7.4053159e-40
0.016494283 0.043745697 0.75300002 8.3237409e-40
0.017976189 0.043861892 0.75500005 1.0164108e-39
0.019414285 0.0438619 0.75500005 1.1986413e-39
0.020852381 0.043861892 0.755 7.3766453e-40
0.022290476 0.0438619 0.755 1.8920192e-40
0.023728572 0.043861896 0.75500005 1.842203e-40
0.0252 0.043919984 0.75600004 9.5960919e-41
0.02664 0.043919992 0.75600004 9.2067551e-40
0.02808 0.043919995 0.75600004 1.7525535e-39
0.029676188 0.044152383 0.75999999 3.2269213e-39
0.03116476 0.044210479 0.76099998 4.6959249e-39
0.032614283 0.044210486 0.76099998 2.3960873e-39
0.034153331 0.04432667 0.76300001 1.0276562e-40
0.035699993 0.04444284 0.7650001 7.1974725e-39
0.037254281 0.044559043 0.76699996 1.4205735e-38
0.038765714 0.044617128 0.76800001 1.5227112e-38
0.040333331 0.044733323 0.77000004 1.6233325e-38
0.041962858 0.044907626 0.773 1.60446e-38
0.043435242 0.044907618 0.773 1.5770183e-38
0.04502381 0.045023795 0.77500004 1.5679797e-38
0.04662 0.045139983 0.77700001 1.5497199e-38
-0.034914281 0.046799988 0.78000003 8.5818587e-39
-0.033385713 0.046739988 0.77900004 9.7900554e-39
-0.031901903 0.046739992 0.77900004 1.0145186e-38
-0.030340001 0.046619982 0.77700001 1.0522227e-38
-0.028711429 0.046379995 0.77300006 1.0701246e-38
-0.027239047 0.046379987 0.77300006 1.0774668e-38
-0.025733335 0.046319999 0.77199996 5.5191191e-39
-0.024199998 0.046199985 0.77000004 1.8408998e-40
-0.022644762 0.046019979 0.76699996 8.2948882e-40
-0.021128571 0.045899983 0.76500005 1.381564e-39
-0.019619999 0.045780003 0.76300001 1.1056833e-39
-0.018119046 0.04566 0.76100004 9.2167324e-40
-0.016669523 0.045660008 0.76099998 9.2097399e-40
-0.015199999 0.045599997 0.76000005 1.0117333e-39
-0.01375238 0.045600004 0.76000005 1.0131682e-39
-0.012272382 0.045480002 0.75800002 1.1064428e-39
-0.010828572 0.045479983 0.75800002 9.2313339e-40
-0.0093599996 0.045359999 0.75599998 6.4941916e-40
-0.0079095233 0.045299992 0.75500005 8.3380482e-40
-0.0064714281 0.045299999 0.755 1.0181933e-39
-0.0050199996 0.045179982 0.75300002 1.0178345e-39
-0.0035857144 0.045179989 0.75300002 9.2528298e-40
-0.0021485714 0.045119978 0.75200003 1.1075204e-39
-0.00071619049 0.04511999 0.75200003 1.1990056e-39
0.00071619049 0.045119982 0.75200003 1.3812487e-39
0.0021485712 0.045119978 0.75200003 1.5649141e-39
0.0035809521 0.045119986 0.75200003 1.2890432e-39
0.0050133336 0.045119978 0.75200003 1.1032199e-39
0.0064457147 0.045119986 0.75200003 8.280721e-40
0.007878094 0.045119982 0.75200003 5.5327888e-40
0.0093228556 0.045179982 0.75300008 4.6215664e-40
0.010757142 0.045179974 0.75300002 4.6247474e-40
0.012191429 0.045179982 0.75300002 5.5498566e-40
0.013625714 0.045179993 0.75300002 6.4793519e-40
0.01506 0.045179971 0.75300008 8.3200275e-40
0.016494283 0.045179978 0.75300002 1.0156821e-39
0.017976189 0.045299996 0.755 1.1990014e-39
0.019414285 0.045300003 0.755 1.3823109e-39
0.020852381 0.045299988 0.75500005 1.1050065e-39
0.022290476 0.045299996 0.75500005 8.280637e-40
0.023728572 0.045299999 0.755 1.0128081e-39
0.025200002 0.045359988 0.75600004 1.2908299e-39
0.026640002 0.045359995 0.75600004 2.0294627e-39
0.028080001 0.045359999 0.75599998 2.862452e-39
0.029598095 0.045479987 0.75800002 3.6889827e-39
0.031164762 0.045660004 0.76099998 4.6087613e-39
0.032614283 0.045660015 0.76099998 2.3046119e-39
0.034153331 0.045779988 0.76300001 9.2344168e-41
0.035699997 0.045899976 0.76500005 9.1263374e-39
0.037254281 0.046019986 0.76700002 1.8256521e-38
0.038765714 0.046079997 0.76799995 1.8995954e-38
0.040333327 0.046199985 0.77000004 1.9817062e-38
0.041962855 0.046379991 0.77300006 1.8255109e-38
0.043547623 0.04649999 0.77500004 1.6687105e-38
0.045023814 0.046499997 0.77500004 1.6137184e-38
0.046739995 0.046739984 0.77899998 1.5679081e-38
-0.035093334 0.04853332 0.78399998 7.9411248e-39
-0.033428565 0.048285719 0.77999997 7.3768121e-39
-0.0319019 0.04822379 0.77900004 6.8903457e-39
-0.030340001 0.04809998 0.77700007 6.3630273e-39
-0.028785717 0.047976196 0.77499998 8.3098877e-39
-0.027239047 0.047852382 0.773 1.0131094e-38
-0.025733333 0.047790471 0.77200001 5.1431998e-39
-0.0242 0.047666647 0.77000004 1.8482286e-40
-0.022674285 0.047542833 0.76800001 7.3801065e-40
-0.021183811 0.047480948 0.76699996 1.2897187e-39
-0.019671425 0.047357127 0.76500005 1.0138324e-39
-0.018119048 0.047109522 0.76100004 7.3799243e-40
-0.016669525 0.047109518 0.76099998 8.2841822e-40
-0.0152 0.047047626 0.75999999 9.2025652e-40
-0.013752381 0.047047623 0.75999999 9.2061806e-40
-0.012272381 0.046923794 0.75800002 9.2241452e-40
-0.010828571 0.046923805 0.75800002 6.4727097e-40
-0.0093599986 0.046799991 0.75600004 3.7284348e-40
-0.0079095243 0.046738096 0.755 5.5759347e-40
-0.0064714281 0.046738092 0.75500005 7.4233506e-40
-0.0050199991 0.046614267 0.75300002 7.4268819e-40
-0.0035857144 0.046614259 0.75300002 6.4977369e-40
-0.0021485714 0.046552356 0.75200003 1.0146017e-39
-0.00071619044 0.046552364 0.75200003 1.2897607e-39
0.00071619055 0.046552356 0.75200003 1.3798152e-39
0.0021485712 0.046552353 0.75200003 1.4730814e-39
0.0035809523 0.04655236 0.75200003 1.2894062e-39
0.0050200005 0.046614256 0.75300002 1.1050149e-39
0.0064542857 0.046614263 0.75300002 8.2771057e-40
0.0078885704 0.046614271 0.75300002 4.6180492e-40
0.0093228556 0.046614267 0.75300008 5.5399914e-40
0.010785713 0.046738092 0.75500005 5.5397672e-40
0.012223808 0.046738084 0.75500005 6.447122e-40
0.013661904 0.046738096 0.75500005 6.4688421e-40
0.01506 0.046614259 0.75300008 9.2348652e-40
0.016538095 0.046738092 0.755 1.1071659e-39
0.017976189 0.046738088 0.75500005 1.2901293e-39
0.019414285 0.046738099 0.75500005 1.4734317e-39
0.020852381 0.046738092 0.755 1.4719884e-39
0.022290476 0.046738096 0.755 1.4723443e-39
0.023728572 0.046738092 0.75500005 1.9318777e-39
0.0252 0.046799988 0.75599998 2.3953656e-39
0.02664 0.046799995 0.75599998 3.1354375e-39
0.02808 0.046799988 0.75600004 3.8726396e-39
0.029598096 0.046923809 0.75800002 4.1499482e-39
0.03112381 0.047047615 0.75999999 4.4236442e-39
0.03261428 0.047109514 0.76100004 2.3045951e-39
0.034153335 0.047233332 0.76300001 1.0206077e-40
0.035699997 0.047357116 0.76500005 1.1142493e-38
0.037254281 0.047480945 0.76699996 2.2204052e-38
0.038765714 0.04754284 0.76800001 2.2866677e-38
0.04043809 0.04779046 0.77200001 2.3409424e-38
0.041962855 0.047852382 0.773 2.0471031e-38
0.043547619 0.047976188 0.77499998 1.7523323e-38
0.045139998 0.048099991 0.77700001 1.6686756e-38
-0.035093334 0.050026659 0.78399998 6.8290165e-39
-0.033428568 0.049771424 0.77999997 5.5285737e-39
-0.031901903 0.049707606 0.77900004 5.7922027e-39
-0.030340001 0.049579985 0.77700001 6.0663009e-39
-0.028711429 0.049324766 0.773 8.3945009e-39
-0.027239047 0.049324751 0.77300006 1.0786848e-38
-0.025733335 0.049260955 0.77199996 5.522052e-39
-0.0242 0.049133323 0.77000004 2.759549e-40
-0.022674287 0.049005702 0.76800001 8.2984335e-40
-0.021183809 0.048941895 0.76700002 1.4744575e-39
-0.019671429 0.048814267 0.76500005 1.1982055e-39
-0.018166665 0.048686661 0.76300001 9.2201235e-40
-0.016669525 0.04855904 0.76099998 1.0128025e-39
-0.01522 0.04855904 0.76100004 1.0117333e-39
-0.013752381 0.048495233 0.75999999 1.1046506e-39
-0.012272382 0.048367605 0.75800002 1.1982825e-39
-0.010828572 0.048367612 0.75800002 9.2277886e-40
-0.0093599996 0.048239991 0.75600004 6.4692205e-40
-0.0079200007 0.048239987 0.75600004 7.4019948e-40
-0.00648 0.048239995 0.75599998 8.3417616e-40
-0.0050333329 0.048176192 0.755 8.3416495e-40
-0.0035857144 0.048048563 0.75300002 9.2671231e-40
-0.0021485712 0.047984742 0.75200003 1.1997007e-39
-0.00071714289 0.048048552 0.75300002 1.4730702e-39
0.00071619049 0.047984749 0.75200003 1.841145e-39
0.0021485714 0.047984742 0.75200003 2.2095618e-39
0.0035809525 0.047984749 0.75200003 1.6578286e-39
0.0050200005 0.048048556 0.75300002 1.1990028e-39
0.0064542857 0.048048548 0.75300002 9.2169566e-40
0.0078885714 0.048048556 0.75300002 6.4619477e-40
0.0093476176 0.048176173 0.75500005 6.4655911e-40
0.010785713 0.048176184 0.755 6.4619618e-40
0.012223808 0.048176192 0.755 7.3766733e-40
0.013661904 0.048176184 0.755 9.2277466e-40
0.01506 0.048048541 0.75300008 1.1982825e-39
0.016538095 0.048176188 0.75500005 1.5659931e-39
0.017976189 0.048176181 0.755 1.8411506e-39
0.019414285 0.048176188 0.755 2.2077611e-39
0.020852381 0.048176184 0.75500005 1.8404037e-39
0.022290478 0.048176177 0.75500005 1.4734177e-39
0.023728574 0.048176184 0.755 2.0265789e-39
0.0252 0.048240002 0.75599998 2.5808302e-39
0.02664 0.048239987 0.75600004 3.2272744e-39
0.028154286 0.048367612 0.75800002 3.8737144e-39
0.02967619 0.048495244 0.75999999 4.1499412e-39
0.031164762 0.048559029 0.76100004 4.5186971e-39
0.032699995 0.048686657 0.76300001 2.3038608e-39
0.034153327 0.048686668 0.76300001 9.2407226e-41
0.035699997 0.048814267 0.76500005 1.023749e-38
0.037254285 0.048941892 0.76699996 2.0387113e-38
0.038866665 0.049133331 0.77000004 2.1854693e-38
0.040438093 0.049260959 0.77199996 2.3410874e-38
0.041962858 0.049324762 0.773 2.1483764e-38
0.043435242 0.04932477 0.773 1.9553762e-38
0.045139998 0.04958 0.77700001 1.7702322e-38
-0.033428568 0.051257137 0.78000003 3.5978632e-39
-0.031819995 0.051059999 0.77700001 4.6840811e-39
-0.030261904 0.050928559 0.77500004 5.7219557e-39
-0.028711431 0.050797135 0.77300006 8.597975e-39
-0.027203809 0.050731428 0.77200001 1.142578e-38
-0.025733333 0.050731424 0.77199996 5.8825655e-39
-0.024199998 0.050599985 0.77000004 2.7810029e-40
-0.022674287 0.050468549 0.76800001 9.2275504e-40
-0.021183809 0.050402842 0.76700002 1.5659454e-39
-0.019671427 0.050271422 0.76500005 1.3819003e-39
-0.018166667 0.050140008 0.76299995 1.1053358e-39
-0.016669523 0.050008584 0.76099998 1.1053554e-39
-0.015220001 0.050008565 0.76100004 1.1046436e-39
-0.01375238 0.049942851 0.76000005 1.2879614e-39
-0.012272381 0.049811415 0.75800002 1.3812319e-39
-0.010828571 0.049811423 0.75800002 1.1982797e-39
-0.0093599986 0.049679995 0.75600004 9.220628e-40
-0.0079199998 0.049679987 0.75599998 9.2207121e-40
-0.00648 0.049679987 0.75600004 8.323825e-40
-0.0050399997 0.049679991 0.75600004 1.0171241e-39
-0.0035952383 0.04961428 0.755 1.1082463e-39
-0.0021514285 0.049482841 0.75300002 1.383757e-39
-0.00071714283 0.049482837 0.75300008 1.6585488e-39
0.00071714283 0.04948283 0.75300002 2.3017602e-39
0.0021514285 0.049482837 0.75300002 2.8524131e-39
0.0035857144 0.049482845 0.75300002 2.117369e-39
0.0050200005 0.049482826 0.75300002 1.2901138e-39
0.0064542857 0.049482837 0.75300002 1.0131556e-39
0.0079095224 0.049614288 0.755 7.38389e-40
0.0093476176 0.04961428 0.755 7.3984635e-40
0.010785714 0.049614273 0.75500005 6.4655911e-40
0.012223809 0.04961428 0.75500005 9.2097399e-40
0.013661905 0.049614277 0.75500005 1.105724e-39
0.01506 0.049482837 0.75300002 1.5649029e-39
0.016538095 0.04961428 0.75500005 1.9329693e-39
0.017976191 0.049614277 0.75500005 2.3917951e-39
0.019414287 0.04961428 0.75500005 2.850597e-39
0.020852383 0.049614288 0.755 2.2077303e-39
0.022290478 0.04961428 0.755 1.4741338e-39
0.023728574 0.04961428 0.75500005 2.1195032e-39
0.0252 0.04967998 0.75600004 2.7655984e-39
0.02664 0.049679987 0.75600004 3.3191408e-39
0.028154284 0.049811408 0.75800002 3.8733739e-39
0.02967619 0.049942859 0.76000005 4.2410662e-39
0.031164763 0.050008573 0.76100004 4.5140322e-39
0.032699995 0.050140005 0.76300001 2.2991903e-39
0.034153327 0.050139986 0.76300001 1.0600963e-40
0.035699997 0.050271418 0.76500005 9.3273369e-39
0.037302852 0.05046856 0.76800001 1.8444193e-38
0.03876571 0.050468549 0.76800001 2.0938132e-38
0.040333331 0.050599989 0.77000004 2.3414817e-38
0.04190857 0.050731432 0.77199996 2.2499331e-38
0.043379046 0.050731424 0.77199996 2.1565175e-38
0.045139998 0.051059995 0.77700007 1.879718e-38
-0.031819999 0.052539997 0.77700001 7.3781643e-39
-0.030261906 0.052404746 0.77500004 9.0492366e-39
-0.028711429 0.052269526 0.773 1.0247139e-38
-0.027203809 0.052201897 0.77199996 1.1526973e-38
-0.025733333 0.052201908 0.77199996 5.7989682e-39
-0.0242 0.052066647 0.77000004 1.841068e-40
-0.022674285 0.051931415 0.76800001 7.3908265e-40
-0.021128571 0.05172855 0.7650001 1.382287e-39
-0.019671427 0.051728547 0.76500005 1.1975357e-39
-0.018119046 0.051458102 0.76099998 1.1039135e-39
-0.016669523 0.051458083 0.76100004 1.0135185e-39
-0.015220001 0.051458091 0.76100004 9.2168865e-40
-0.013752382 0.05139048 0.75999999 9.2133412e-40
-0.012272382 0.051255222 0.75800002 1.0131682e-39
-0.010828572 0.05125523 0.75800002 9.2169005e-40
-0.0093847625 0.051255237 0.75800002 8.2878677e-40
-0.0079200007 0.051119976 0.75600004 9.2242293e-40
-0.0064971428 0.051255222 0.75800002 1.0156948e-39
-0.0050399993 0.051119994 0.75600004 1.0146186e-39
-0.0036000002 0.051119987 0.75599998 1.1050331e-39
-0.0021571429 0.051052362 0.75500005 1.2908705e-39
-0.00071904762 0.051052373 0.755 1.4759695e-39
0.00071714283 0.050917115 0.75300002 1.8425856e-39
0.0021514283 0.050917126 0.75300002 2.2095674e-39
0.0035857144 0.05091713 0.75300002 1.658553e-39
0.0050200005 0.050917111 0.75300002 1.1057198e-39
0.0064542857 0.050917119 0.75300002 8.2982653e-40
0.0078885714 0.05091713 0.75300002 5.5435928e-40
0.0093476176 0.051052373 0.75500005 5.5475585e-40
0.010785713 0.051052365 0.755 6.4620598e-40
0.012223808 0.051052373 0.755 8.2949162e-40
0.013661904 0.051052369 0.75500005 1.0135241e-39
0.015099999 0.051052365 0.75500005 1.2901096e-39
0.016538095 0.051052373 0.755 1.6581733e-39
0.017976189 0.051052377 0.755 2.024802e-39
0.019414285 0.051052369 0.755 2.3914069e-39
0.020852381 0.051052369 0.75500005 1.7492549e-39
0.022290476 0.051052377 0.75500005 1.1982671e-39
0.023728572 0.051052369 0.755 1.8440093e-39
0.025200002 0.051119994 0.75600004 2.4911892e-39
0.026640002 0.051119987 0.75599998 3.1369341e-39
0.028154286 0.051255215 0.75800002 3.7833503e-39
0.029676192 0.051390473 0.75999999 4.1503139e-39
0.031164763 0.051458079 0.76100004 4.609455e-39
0.032614283 0.051458091 0.76100004 2.3949634e-39
0.034153331 0.051593333 0.76300001 2.763795e-40
0.035793331 0.051863801 0.76699996 8.3084864e-39
0.037254285 0.051863801 0.76700002 1.64202e-38
0.038765714 0.051931422 0.76799995 1.7988991e-38
0.040333331 0.05206665 0.77000004 1.955593e-38
0.04190857 0.052201901 0.77199996 1.899451e-38
0.043435238 0.052269515 0.773 1.8430931e-38
0.044907618 0.052269522 0.773 1.7423599e-38
-0.030261906 0.053880945 0.77500004 1.2271031e-38
-0.028711431 0.053741906 0.773 1.190517e-38
-0.027203809 0.053672381 0.77199996 1.1516201e-38
-0.025733333 0.053672373 0.77199996 5.7860665e-39
-0.0242 0.053533308 0.77000004 9.5150968e-41
-0.022674287 0.053394284 0.76799995 6.5084148e-40
-0.021183811 0.053324744 0.76699996 1.1074994e-39
-0.019671425 0.053185686 0.76500005 1.1049813e-39
-0.018166665 0.053046659 0.76300001 1.105347e-39
-0.016669523 0.052907608 0.76100004 9.2276064e-40
-0.01522 0.052907616 0.76100004 6.465423e-40
-0.013752382 0.052838095 0.75999999 6.4583044e-40
-0.012272382 0.052699044 0.75800002 6.4619337e-40
-0.010828571 0.052699026 0.75800002 6.4583884e-40
-0.0093847616 0.052699029 0.75800002 6.4619618e-40
-0.0079409517 0.052699037 0.75800002 9.2242013e-40
-0.0064971428 0.052699029 0.75800002 1.1064527e-39
-0.005053333 0.052699026 0.75800002 1.1043045e-39
-0.0036000002 0.05255999 0.75600004 1.1057464e-39
-0.0021571429 0.052490469 0.755 1.1983078e-39
-0.00071904756 0.052490465 0.75500005 1.2908579e-39
0.00071714283 0.0523514 0.75300002 1.4745261e-39
0.0021514285 0.052351408 0.75300002 1.5674448e-39
0.0035857144 0.052351419 0.75300002 1.2008287e-39
0.00502 0.052351397 0.75300008 8.3166924e-40
0.0064542857 0.052351404 0.75300002 6.454633e-40
0.0079095224 0.052490473 0.755 3.7069109e-40
0.0093476176 0.05249048 0.755 4.6218607e-40
0.010785713 0.052490458 0.75500005 5.5436488e-40
0.012223808 0.052490465 0.75500005 7.3658413e-40
0.013661905 0.052490477 0.75500005 9.2204878e-40
0.0151 0.052490469 0.755 1.1071533e-39
0.016538095 0.052490473 0.755 1.2915488e-39
0.017976189 0.052490469 0.75500005 1.6574628e-39
0.019414285 0.052490465 0.75500005 1.9340427e-39
0.020852381 0.052490473 0.755 1.383743e-39
0.022320002 0.052559994 0.75600004 8.323825e-40
0.023760002 0.05255999 0.75600004 1.567435e-39
0.025200002 0.052559998 0.75599998 2.2153183e-39
0.026710477 0.052699044 0.75800002 2.9543197e-39
0.028154286 0.052699037 0.75800002 3.5989506e-39
0.02967619 0.052838102 0.75999999 4.1506699e-39
0.031164763 0.052907605 0.76100004 4.698785e-39
0.032699998 0.053046659 0.76300001 2.5786484e-39
0.034153331 0.053046666 0.76300001 3.8113777e-40
0.035793331 0.053324748 0.76699996 7.3930069e-39
0.037302855 0.053394273 0.76800001 1.4392281e-38
0.038765714 0.05339428 0.76800001 1.5040916e-38
0.040333331 0.053533327 0.77000004 1.5592639e-38
0.04190857 0.053672384 0.77199996 1.5491112e-38
0.043547619 0.053880945 0.77500004 1.5311377e-38
0.045140002 0.054019991 0.77700001 1.61404e-38
0.046800002 0.054228563 0.77999997 1.6876523e-38
0.048285719 0.054228555 0.77999997 1.7061274e-38
-0.030261906 0.055357132 0.77500004 1.0620881e-38
-0.028674286 0.055142857 0.77199996 1.0889567e-38
-0.027203809 0.05514285 0.77199996 1.1152438e-38
-0.025733333 0.055142857 0.77199996 5.6153224e-39
-0.0242 0.054999985 0.77000004 9.551951e-41
-0.022674285 0.054857124 0.76800001 6.4977229e-40
-0.021183811 0.054785691 0.76700002 1.2004139e-39
-0.019671429 0.054642837 0.76500005 1.1071309e-39
-0.018166667 0.054500002 0.76300001 9.2275224e-40
-0.016669523 0.054357134 0.76100004 8.3092655e-40
-0.0152 0.054285701 0.76000005 6.465437e-40
-0.013752381 0.054285709 0.76000005 5.5471381e-40
-0.012304761 0.05428572 0.75999999 4.6324685e-40
-0.010828572 0.054142848 0.75800002 6.4692765e-40
-0.0093847625 0.05414284 0.75800002 8.3094897e-40
-0.0079409527 0.054142848 0.75800002 9.2313339e-40
-0.0064971428 0.054142836 0.75800002 1.1071701e-39
-0.005053333 0.054142848 0.75800002 1.1982952e-39
-0.0036000002 0.053999994 0.75600004 1.382685e-39
-0.0021571429 0.053928562 0.75500005 1.3830437e-39
-0.00071904762 0.053928569 0.755 1.3823291e-39
0.00071904762 0.053928562 0.755 1.4748834e-39
0.0021571429 0.053928558 0.75500005 1.5678134e-39
0.0035952381 0.053928565 0.75500005 1.2004882e-39
0.0050200005 0.0537857 0.75300008 9.2496068e-40
0.0064542857 0.053785689 0.75300002 7.3875754e-40
0.0078885714 0.053785697 0.75300002 5.5472502e-40
0.0093228566 0.053785704 0.75300002 6.4655771e-40
0.010785714 0.053928565 0.755 6.4726957e-40
0.012191429 0.053785697 0.75300002 9.2169426e-40
0.013661905 0.053928565 0.755 1.1057198e-39
0.0151 0.053928562 0.75500005 1.2000622e-39
0.016538093 0.053928569 0.75500005 1.2947774e-39
0.017976187 0.053928562 0.755 1.5677825e-39
0.019414283 0.053928569 0.755 1.7518263e-39
0.020880001 0.05399999 0.75600004 1.3837794e-39
0.022320002 0.053999998 0.75600004 1.1082701e-39
0.023760002 0.054000005 0.75599998 1.6603551e-39
0.025266666 0.054142844 0.75800002 2.214954e-39
0.026710477 0.054142851 0.75800002 2.7695515e-39
0.02822857 0.054285724 0.75999999 3.4149083e-39
0.029676188 0.054285705 0.76000005 4.0584714e-39
0.031164763 0.054357134 0.76100004 4.6098249e-39
0.032699998 0.054500002 0.76300001 2.5800974e-39
0.034153331 0.054499999 0.76299995 6.4338097e-40
0.035793327 0.054785691 0.76700002 7.7553308e-39
0.037302855 0.054857124 0.76800001 1.4857553e-38
0.038765714 0.054857131 0.76800001 1.5775228e-38
0.04043809 0.055142861 0.77199996 1.6690346e-38
0.041962855 0.055214282 0.77300006 1.6415906e-38
0.043547619 0.055357132 0.77500004 1.6142545e-38
0.045139994 0.055499986 0.77700001 1.6693192e-38
0.046799999 0.055714276 0.78000003 1.7244216e-38
-0.031819995 0.056980003 0.77700001 9.2146458e-39
-0.030261906 0.056833331 0.77499998 8.9585137e-39
-0.028711429 0.056686662 0.773 9.8797427e-39
-0.027203811 0.056613337 0.77199996 1.0692546e-38
-0.025733335 0.056613326 0.77199996 5.4266278e-39
-0.0242 0.056466646 0.77000004 9.76677e-41
-0.022674285 0.056319997 0.76799995 7.4375457e-40
-0.021183809 0.056246664 0.76699996 1.2925955e-39
-0.019671427 0.056099989 0.76500005 1.016352e-39
-0.018166665 0.055953324 0.76300001 7.3906863e-40
-0.016669523 0.055806659 0.76100004 7.3908545e-40
-0.0152 0.055733331 0.75999999 6.4688561e-40
-0.013752381 0.055733342 0.75999999 4.6285028e-40
-0.012304761 0.055733334 0.75999999 1.8772074e-40
-0.010828571 0.055586655 0.75800002 5.5508095e-40
-0.0093847616 0.055586662 0.75800002 9.2348932e-40
-0.0079409517 0.055586658 0.75800002 1.0160311e-39
-0.0064971424 0.055586647 0.75800002 1.1071603e-39
-0.0050533325 0.055586655 0.75800002 1.3823193e-39
-0.0036095241 0.055586666 0.75800002 1.5677853e-39
-0.0021571429 0.055366669 0.755 1.5688643e-39
-0.00071904762 0.055366646 0.75500005 1.475238e-39
0.00071904762 0.055366654 0.75500005 1.4745247e-39
0.0021571426 0.055366665 0.755 1.4748919e-39
0.0035952381 0.055366658 0.755 1.2912307e-39
0.0050333333 0.05536665 0.75500005 1.0149955e-39
0.0064714286 0.055366658 0.75500005 9.2207261e-40
0.0079095233 0.055366654 0.755 7.3804008e-40
0.0093476186 0.055366661 0.755 7.3839741e-40
0.010785714 0.055366658 0.75500005 7.3874773e-40
0.012223809 0.055366654 0.75500005 1.0138871e-39
0.013661905 0.055366658 0.755 1.2904698e-39
0.0151 0.055366665 0.755 1.2919047e-39
0.016538093 0.055366658 0.755 1.2926292e-39
0.017976187 0.055366658 0.75500005 1.4755897e-39
0.019439999 0.055440001 0.75600004 1.5667161e-39
0.020879999 0.05543999 0.75600004 1.474173e-39
0.02232 0.055439997 0.75599998 1.2908579e-39
0.02376 0.055439994 0.75600004 1.7500326e-39
0.025333334 0.055733338 0.75999999 2.1231143e-39
0.026780952 0.055733334 0.76000005 2.6777132e-39
0.028228572 0.055733327 0.76000005 3.2305255e-39
0.029715238 0.055806663 0.76100004 3.874097e-39
0.031164762 0.055806659 0.76100004 4.5154839e-39
0.032699995 0.055953339 0.76300001 2.6715727e-39
0.034242854 0.056099985 0.76500005 8.4032366e-40
0.035793327 0.056246653 0.76700002 8.1276936e-39
0.037302855 0.056319982 0.76800001 1.5311711e-38
0.038765714 0.056319993 0.76800001 1.651243e-38
0.040333331 0.056466665 0.77000004 1.7705203e-38
0.04190857 0.056613337 0.77199996 1.7339643e-38
0.043435242 0.056686666 0.77300006 1.6970871e-38
0.045023814 0.056833327 0.77500004 1.7337498e-38
-0.031819999 0.058460005 0.77700001 1.1337256e-38
-0.030261906 0.058309518 0.77499998 1.2179572e-38
-0.028711431 0.058159046 0.773 1.1627853e-38
-0.027239049 0.058159053 0.773 1.1076034e-38
-0.025733335 0.058083799 0.77200001 5.6199832e-39
-0.024262859 0.058083802 0.77200001 9.3358708e-41
-0.022733333 0.057933323 0.77000004 5.5684798e-40
-0.021183811 0.057707611 0.76699996 1.016359e-39
-0.019671427 0.057557132 0.76500005 8.3086769e-40
-0.018166667 0.057406656 0.76300001 7.3654489e-40
-0.016669525 0.057256185 0.76100004 8.3019647e-40
-0.015200001 0.057180963 0.75999999 1.0138521e-39
-0.013716191 0.057030462 0.75800002 7.3832875e-40
-0.012272381 0.057030473 0.75800002 5.5540184e-40
-0.010828571 0.057030465 0.75800002 8.3165242e-40
-0.0093847616 0.057030469 0.75800002 1.0160297e-39
-0.0079409517 0.057030465 0.75800008 1.0163758e-39
-0.0064971428 0.057030458 0.75800002 1.015315e-39
-0.005053333 0.057030465 0.75800002 1.2007951e-39
-0.0036095239 0.057030458 0.75800002 1.3855451e-39
-0.0021599997 0.056879994 0.75600004 1.5681427e-39
-0.00071904756 0.056804754 0.755 1.7511018e-39
0.00071904768 0.056804761 0.755 1.751106e-39
0.0021571426 0.056804758 0.75500005 1.7500312e-39
0.0035952379 0.05680475 0.75500005 1.5660029e-39
0.0050333338 0.056804758 0.755 1.2887013e-39
0.006471429 0.056804765 0.755 1.0128333e-39
0.0079095224 0.056804746 0.75500005 7.3660795e-40
0.0093476176 0.056804754 0.75500005 6.4584725e-40
0.010785713 0.056804765 0.755 6.4655491e-40
0.012223809 0.056804754 0.755 8.3093215e-40
0.013661905 0.05680475 0.75500005 1.0156835e-39
0.0151 0.056804758 0.75500005 1.1082393e-39
0.016538093 0.056804754 0.755 1.2919145e-39
0.017976187 0.056804761 0.755 1.6585432e-39
0.019439997 0.056880001 0.75600004 2.0240972e-39
0.020879997 0.056879994 0.75599998 1.748955e-39
0.022319999 0.05687999 0.75600004 1.4730884e-39
0.023822857 0.057030469 0.75800002 1.8436562e-39
0.025333332 0.057180956 0.76000005 2.2163805e-39
0.02678095 0.057180945 0.75999999 2.8620989e-39
0.02822857 0.057180952 0.75999999 3.506755e-39
0.029715236 0.057256192 0.76100004 3.966664e-39
0.031246668 0.057406656 0.76299995 4.4265253e-39
0.032699998 0.057406653 0.76300001 2.4886178e-39
0.034242857 0.057557121 0.76500005 6.4337816e-40
0.035840001 0.057782844 0.76800001 7.9389976e-39
0.037302859 0.057782851 0.76800001 1.5228845e-38
0.038866665 0.057933319 0.77000004 1.63302e-38
0.040438093 0.058083802 0.77200001 1.7431853e-38
0.04190857 0.058083806 0.77200001 1.7154898e-38
0.043435238 0.058159046 0.773 1.6879764e-38
0.04502381 0.058309525 0.77499998 1.6879419e-38
0.046800002 0.058685705 0.77999997 1.6882641e-38
-0.031819995 0.059939984 0.77700001 1.3562481e-38
-0.030261906 0.059785705 0.77500004 1.539526e-38
-0.028785715 0.059785713 0.77500004 1.3468165e-38
-0.027239047 0.059631418 0.77300006 1.143083e-38
-0.025766667 0.059631426 0.77300006 5.7918202e-39
-0.0242 0.059399989 0.77000004 9.5516707e-41
-0.022674285 0.059245706 0.76799995 3.7390286e-40
-0.021183809 0.059168559 0.76700002 6.4831634e-40
-0.019671427 0.059014257 0.7650001 6.4614713e-40
-0.018166667 0.05886 0.76300001 6.4616114e-40
-0.016669523 0.058705714 0.76099998 1.0145933e-39
-0.0152 0.058628563 0.76000005 1.2897341e-39
-0.013752381 0.05862857 0.76000005 1.1053386e-39
-0.012304761 0.058628581 0.75999999 9.2275924e-40
-0.010828572 0.058474276 0.75800002 1.0164038e-39
-0.0093847625 0.05847428 0.75800002 1.108591e-39
-0.0079409517 0.058474287 0.75800002 1.017466e-39
-0.0064971428 0.05847428 0.75800002 8.3452228e-40
-0.0050533325 0.058474276 0.75800002 1.019638e-39
-0.0036095241 0.058474269 0.75800002 1.1100428e-39
-0.0021599997 0.058319993 0.75600004 1.5674322e-39
-0.00071904762 0.058242846 0.75500005 1.9351357e-39
0.00071904762 0.058242839 0.75500005 2.0287691e-39
0.0021571426 0.05824285 0.755 2.0266153e-39
0.0035952381 0.058242857 0.755 1.841508e-39
0.0050333338 0.058242835 0.75500005 1.5642078e-39
0.006471429 0.058242843 0.75500005 1.1032367e-39
0.0079095233 0.058242854 0.755 6.4477246e-40
0.0093476186 0.058242846 0.755 6.4584585e-40
0.010785714 0.058242839 0.75500005 5.5508095e-40
0.012223809 0.058242846 0.75500005 6.4798703e-40
0.013661905 0.058242843 0.755 6.4906323e-40
0.0151 0.05824285 0.755 1.0171241e-39
0.016538095 0.058242857 0.755 1.2922746e-39
0.017976189 0.058242843 0.75500005 1.9336924e-39
0.019439997 0.058320001 0.75599998 2.4839865e-39
0.020879999 0.058319982 0.75600004 2.1166445e-39
0.022379046 0.058474269 0.75800002 1.6578286e-39
0.023822857 0.05847428 0.75800002 2.0269684e-39
0.025333334 0.058628567 0.75999999 2.3060636e-39
0.026780952 0.058628578 0.75999999 3.0479237e-39
0.028228572 0.058628585 0.75999999 3.6907763e-39
0.029715238 0.058705717 0.76100004 3.9670045e-39
0.031246668 0.058859989 0.76300001 4.2406795e-39
0.032699998 0.05886 0.76300001 2.3971144e-39
0.03433238 0.059168555 0.76700002 4.7260332e-40
0.035839997 0.059245698 0.76799995 7.756393e-39
0.037302855 0.059245706 0.76799995 1.5034764e-38
0.038866665 0.0594 0.77000004 1.6147602e-38
0.040438093 0.059554283 0.77199996 1.7153472e-38
0.04190857 0.05955429 0.77199996 1.6967635e-38
0.043435238 0.059631415 0.77300006 1.6784682e-38
0.045023814 0.059785709 0.77499998 1.6509174e-38
0.046799999 0.060171418 0.78000003 1.6139668e-38
-0.033385713 0.061578076 0.77899998 1.3108346e-38
-0.031819999 0.061419994 0.77700001 1.2917846e-38
-0.030340001 0.061419997 0.77700001 1.2728455e-38
-0.028785715 0.061261896 0.77500004 1.1992714e-38
-0.027309524 0.0612619 0.77500004 1.1255061e-38
-0.025766669 0.061103817 0.773 5.7093159e-39
-0.0242 0.060866654 0.77000004 9.2653854e-41
-0.022674285 0.060708568 0.76800001 5.557872e-40
-0.021183809 0.060629502 0.76700002 9.2348091e-40
-0.019671429 0.060471408 0.76500005 9.2203898e-40
-0.018166667 0.060313318 0.76300001 8.3020908e-40
-0.016713332 0.060313325 0.76300001 1.1060785e-39
-0.0152 0.060076192 0.75999999 1.3819465e-39
-0.013752381 0.060076199 0.75999999 1.1060827e-39
-0.012304761 0.060076192 0.75999999 7.3874493e-40
-0.010828572 0.059918083 0.75800002 9.2349633e-40
-0.0093847625 0.059918072 0.75800002 1.2004349e-39
-0.0079409527 0.059918083 0.75800002 8.3416635e-40
-0.0064971428 0.059918091 0.75800002 5.6045773e-40
-0.005053333 0.059918068 0.75800002 8.3560969e-40
-0.0036095239 0.059918076 0.75800002 1.1096883e-39
-0.0021571429 0.059680942 0.75500005 1.659632e-39
-0.00071904762 0.059680954 0.755 2.1180949e-39
0.00071904762 0.059680946 0.755 2.0276971e-39
0.0021571429 0.059680939 0.75500005 1.9351399e-39
0.0035952381 0.059680946 0.75500005 1.658553e-39
0.0050333338 0.059680942 0.755 1.4727311e-39
0.0064714295 0.05968095 0.755 1.0128375e-39
0.0079095224 0.059680946 0.75500005 6.4477386e-40
0.0093476176 0.059680939 0.75500005 5.5436769e-40
0.010785713 0.059680946 0.755 4.6360699e-40
0.012223808 0.059680954 0.755 6.4799404e-40
0.013661904 0.059680946 0.755 9.2565152e-40
0.015099999 0.059680946 0.75500005 1.1093197e-39
0.016538095 0.059680954 0.75500005 1.2929935e-39
0.017999999 0.059759997 0.75599998 1.4755911e-39
0.019439999 0.059759989 0.75600004 1.6574614e-39
0.020879999 0.059759986 0.75600004 1.6578132e-39
0.02232 0.059759993 0.75600004 1.6571055e-39
0.023822857 0.059918087 0.75800002 1.9333393e-39
0.025333334 0.060076199 0.75999999 2.3003239e-39
0.026780952 0.060076192 0.76000005 3.0429014e-39
0.028228572 0.060076185 0.76000005 3.781886e-39
0.029715238 0.060155239 0.76099998 4.0591805e-39
0.031246668 0.060313325 0.76300001 4.4268392e-39
0.032785714 0.060471404 0.76500005 2.4899995e-39
0.03433238 0.060629517 0.76700002 6.4441793e-40
0.035839994 0.060708556 0.76800001 7.3836602e-39
0.037302855 0.060708549 0.76800001 1.4118197e-38
0.038866661 0.060866661 0.77000004 1.5219916e-38
0.040438093 0.061024755 0.77200001 1.6230451e-38
0.04190857 0.061024755 0.77200001 1.613573e-38
0.043435238 0.061103806 0.77300006 1.6046749e-38
0.045023806 0.061261896 0.77500004 1.6042429e-38
0.046919998 0.061815213 0.78200006 1.6131379e-38
-0.033428565 0.063142851 0.77999997 1.4479405e-38
-0.031901903 0.063061893 0.77899998 1.2272458e-38
-0.030340001 0.062899999 0.77700001 1.0056945e-38
-0.028860001 0.062899984 0.77700007 1.0610489e-38
-0.027309526 0.062738091 0.77500004 1.1055946e-38
-0.025766667 0.06257619 0.77300006 5.6063541e-39
-0.024262857 0.062495232 0.77199996 9.5516707e-41
-0.022733333 0.062333323 0.77000004 6.4905062e-40
-0.021183809 0.06209046 0.76699996 1.1982643e-39
-0.019671427 0.061928548 0.76500005 1.1039135e-39
-0.018166667 0.061766654 0.76300001 1.0128039e-39
-0.016713332 0.061766662 0.76300001 1.2886775e-39
-0.01522 0.061604757 0.76100004 1.4730674e-39
-0.013752381 0.061523814 0.75999999 1.0146088e-39
-0.012304761 0.06152381 0.76000005 5.5507674e-40
-0.010857143 0.061523821 0.76000005 9.220642e-40
-0.0093847616 0.061361883 0.75800002 1.2000818e-39
