# .PCD v0.7 - Point Cloud Data file format
VERSION 0.7
FIELDS x y z rgb
SIZE 4 4 4 4
TYPE F F F F
COUNT 1 1 1 1
WIDTH 965
HEIGHT 1
VIEWPOINT 0 0 0 1 0 0 0
POINTS 965
DATA ascii
0.025 0.0050000027 0.75000006 3.7797083e-39
0.026499039 0.0050133467 0.75200003 2.7662809e-39
0.027968558 0.0050200075 0.75300002 1.8432414e-39
0.029480955 0.005033344 0.75500011 5.5356516e-39
0.031041922 0.0050533265 0.75800002 9.3102312e-39
0.032571401 0.005066663 0.76000005 9.2183915e-39
0.034019049 0.005066663 0.76000011 9.2180132e-39
0.035606641 0.0050866678 0.76300001 9.126158e-39
0.037059974 0.0050866753 0.76300001 9.0343352e-39
-0.064761922 0.0068571568 0.80000001 3.7962296e-40
-0.063079998 0.0068399906 0.79800004 4.7966979e-39
-0.06171431 0.0068571493 0.80000007 9.1180207e-39
-0.060190506 0.0068571493 0.80000001 1.0596391e-38
-0.058666676 0.0068571568 0.80000007 1.1973503e-38
-0.057000004 0.0068399981 0.79800004 9.2144314e-39
-0.055480018 0.0068399981 0.79800004 6.4500255e-39
-0.053892404 0.0068314448 0.79700005 5.2554326e-39
-0.052374288 0.0068314299 0.79700005 4.0551307e-39
-0.050600983 0.0067971498 0.79300004 4.0576587e-39
-0.049090479 0.0067971647 0.79300004 4.0555161e-39
-0.047460012 0.006780006 0.79100007 4.7920049e-39
-0.045953356 0.0067800134 0.79100001 5.4373701e-39
-0.044446696 0.0067800134 0.79100007 4.9781997e-39
-0.042940006 0.006780006 0.79100007 4.512565e-39
-0.036962859 0.0065228567 0.76100004 2.2141188e-39
-0.035513375 0.0065228641 0.76100004 1.2954234e-39
-0.03401906 0.0065142959 0.76000011 1.47983e-39
-0.032485694 0.0064971372 0.75800002 1.5648356e-39
-0.030960022 0.0064800084 0.75600004 8.2690903e-40
-0.029480955 0.0064714402 0.75500005 9.6591503e-41
-0.027968606 0.0064542964 0.75300002 5.5149488e-39
-0.026534311 0.0064542964 0.75300008 1.0874817e-38
-0.025066705 0.0064457208 0.75200003 1.4218611e-38
-0.023634307 0.0064457208 0.75200003 1.7506758e-38
-0.022142867 0.0064285919 0.75000006 1.3463133e-38
-0.020659063 0.0064114332 0.74800003 9.308977e-39
-0.019234331 0.0064114407 0.74800003 4.6992306e-39
-0.017785737 0.0064028725 0.74700004 1.0888369e-40
-0.016319046 0.0063857213 0.74500006 9.2374996e-41
-0.014900029 0.0063857213 0.74500006 1.0746838e-40
-0.013444798 0.0063685775 0.74300003 1.0606008e-40
-0.012029545 0.0063685775 0.74300003 1.1394238e-40
-0.010614293 0.0063685775 0.74300003 9.2410029e-41
-0.009199095 0.0063685924 0.74300003 9.9929396e-41
-0.0077838409 0.0063685849 0.74300003 9.2382003e-41
-0.0063685873 0.0063685849 0.74300003 1.0609231e-40
-0.0049533597 0.00636857 0.74300003 6.5447014e-39
-0.0035333368 0.006359987 0.7420001 1.2913987e-38
-0.0021142927 0.0063428432 0.74000001 1.1361026e-38
-0.00070667866 0.0063599944 0.74200004 9.6835413e-39
0.00070667971 0.0063600019 0.74200004 1.197292e-38
0.002120012 0.0063599944 0.7420001 1.4287831e-38
0.0035333107 0.0063600019 0.74200004 9.6024384e-39
0.00494667 0.0063599944 0.74200004 4.8839469e-39
0.0063599995 0.0063600019 0.74200004 2.847339e-39
0.0077733318 0.0063599944 0.7420001 8.2948321e-40
0.009186659 0.0063600019 0.74200004 1.0146045e-39
0.010614261 0.0063685775 0.74300003 1.1071547e-39
0.012029514 0.0063685849 0.74300003 6.4797442e-40
0.013444738 0.0063685849 0.74300003 1.8808789e-40
0.014859966 0.00636857 0.74300003 1.0160521e-39
0.016319042 0.0063857213 0.74500006 1.8440079e-39
0.017738082 0.0063857287 0.745 2.6737573e-39
0.019208556 0.0064028576 0.74700004 3.4109608e-39
0.020659044 0.0064114481 0.74800003 3.5946388e-39
0.022083776 0.0064114407 0.74800003 3.779735e-39
0.023508539 0.0064114407 0.74800003 3.780444e-39
0.024999974 0.0064285845 0.75000006 3.6878672e-39
0.02649902 0.0064457282 0.75199997 2.491831e-39
0.027931418 0.0064457133 0.75200003 1.2090011e-39
0.029402843 0.0064543039 0.75300008 5.0804384e-39
0.030959982 0.0064800009 0.75600004 8.9421872e-39
0.03239996 0.0064800158 0.75600004 9.1272889e-39
0.034063779 0.0065228716 0.76100004 9.2183971e-39
0.035513319 0.0065228716 0.76100004 9.2183873e-39
0.037059978 0.0065400079 0.76299995 9.1269063e-39
0.038513336 0.0065400153 0.76300001 9.4038449e-39
-0.064761944 0.0083809718 0.80000001 4.7027254e-39
-0.063238107 0.0083809644 0.80000001 6.7364285e-39
-0.062022883 0.0084228739 0.80400002 8.6800393e-39
-0.060190499 0.0083809495 0.80000007 8.3952043e-39
-0.058666699 0.0083809569 0.80000001 8.2164841e-39
-0.057142861 0.0083809644 0.80000007 6.6379887e-39
-0.055619061 0.0083809718 0.80000001 5.1614461e-39
-0.053960007 0.0083600059 0.79800004 3.9657896e-39
-0.052439995 0.0083599985 0.7980001 2.6826093e-39
-0.050600953 0.0083076283 0.7930001 3.4144291e-39
-0.049090497 0.0083076358 0.79300004 4.2380941e-39
-0.04746002 0.0082866848 0.79100007 4.6990806e-39
-0.045953363 0.0082866848 0.79100001 5.1597085e-39
-0.044446699 0.0082866699 0.79100001 4.7934581e-39
-0.036962867 0.007972382 0.76100004 2.398845e-39
-0.035513353 0.0079723969 0.76100004 1.6645478e-39
-0.034019038 0.0079618916 0.76000011 1.2918529e-39
-0.032485716 0.0079409555 0.75800002 8.2690763e-40
-0.030960018 0.0079200119 0.75600004 3.8649844e-39
-0.029480955 0.0079095215 0.75500011 6.9003356e-39
-0.027968587 0.0078885853 0.75300008 1.0325988e-38
-0.026534323 0.0078885853 0.75300002 1.3754797e-38
-0.025066694 0.0078781024 0.75200003 1.3565788e-38
-0.023634324 0.0078781098 0.75200003 1.3372375e-38
-0.022142861 0.0078571439 0.75000006 9.0309384e-39
-0.020714311 0.0078571588 0.75000006 4.6841092e-39
-0.019234309 0.0078361928 0.74800009 2.3920978e-39
-0.017785745 0.0078257173 0.74700004 1.841124e-40
-0.016319066 0.0078047737 0.74500006 2.2963414e-39
-0.014900019 0.0078047737 0.74500006 4.5004354e-39
-0.013480977 0.0078047737 0.745 4.9862011e-39
-0.012029547 0.0077838153 0.74300003 5.4611446e-39
-0.01061432 0.0077838227 0.74300003 4.7917303e-39
-0.009199067 0.0077838078 0.74300003 4.2259827e-39
-0.0077838437 0.0077838227 0.74300003 5.7082383e-39
-0.0063685901 0.0077838227 0.74300003 7.256299e-39
-0.0049533616 0.0077838227 0.74300003 1.0878909e-38
-0.003538108 0.0077838153 0.74300003 1.4589627e-38
-0.0021200138 0.0077733323 0.74200004 9.8823309e-39
-0.00070665631 0.0077733397 0.74200004 5.1692569e-39
0.00070667599 0.0077733248 0.7420001 9.6802679e-39
0.0021199766 0.0077733248 0.74200004 1.4206402e-38
0.0035333349 0.0077733323 0.74200004 1.0149861e-38
0.0049466644 0.0077733174 0.7420001 6.1671328e-39
0.0063599958 0.0077733323 0.7420001 3.4023008e-39
0.0077733225 0.0077733323 0.74200004 6.4474023e-40
0.0091990065 0.0077838153 0.74300003 8.3021889e-40
0.010614261 0.0077838227 0.74300003 1.1064372e-39
0.012029513 0.0077838078 0.74300003 8.3056501e-40
0.013444741 0.0077838153 0.74300003 4.6180071e-40
0.014859966 0.0077838227 0.74300003 1.105738e-39
0.016319046 0.0078047812 0.74500006 1.7478704e-39
0.017785683 0.0078257248 0.74700004 2.6741175e-39
0.019208519 0.0078257248 0.74699998 3.687189e-39
0.020659013 0.0078361928 0.74800003 3.779393e-39
0.022083798 0.0078362003 0.74800003 3.963057e-39
0.023571426 0.0078571588 0.75000006 4.148872e-39
0.025000006 0.0078571513 0.75000006 4.3325052e-39
0.026499031 0.0078781098 0.75200003 3.4112411e-39
0.027968537 0.0078885928 0.75300002 2.5833035e-39
0.029480951 0.0079095289 0.75500011 5.537123e-39
0.030959982 0.0079200119 0.75600004 8.4858964e-39
0.032614261 0.0079723895 0.76100004 8.7599609e-39
0.034063805 0.0079723895 0.76100004 9.1265854e-39
0.035606652 0.0079933405 0.76299995 9.1273029e-39
0.037059989 0.0079933405 0.76300001 9.2187614e-39
-0.068318099 0.0099790618 0.80600005 1.2936507e-39
-0.066285737 0.0099047646 0.80000007 5.1636685e-39
-0.064761937 0.0099047795 0.80000007 9.0286739e-39
-0.063238136 0.0099047795 0.80000001 8.6742701e-39
-0.061714299 0.009904772 0.80000007 8.2075382e-39
-0.060190495 0.009904772 0.80000001 6.2707223e-39
-0.058666661 0.0099047646 0.80000007 4.3371168e-39
-0.057285707 0.0099295378 0.80200011 4.1437208e-39
-0.055479996 0.0098799914 0.79800004 3.8689318e-39
-0.054365732 0.0099542886 0.80400002 2.580365e-39
-0.052834313 0.0099542886 0.80400002 1.3000561e-39
-0.051302873 0.0099542812 0.80400008 2.8627028e-39
-0.036962867 0.0094219148 0.76100004 2.583623e-39
-0.035513356 0.0094219148 0.76100004 2.0272277e-39
-0.034019049 0.009409532 0.76000005 1.1034903e-39
-0.032485731 0.0093847662 0.75800002 1.0233262e-40
-0.030960042 0.0093600079 0.75600004 6.9061159e-39
-0.029480958 0.0093476325 0.75500005 1.3636349e-38
-0.027968599 0.0093228668 0.75300008 1.5134112e-38
-0.02649908 0.0093104765 0.75200003 1.6504465e-38
-0.025066681 0.0093104839 0.75200003 1.2917497e-38
-0.023571435 0.0092857182 0.75000006 9.2160443e-39
-0.022142887 0.0092857331 0.75000006 4.6956068e-39
-0.020659076 0.0092609674 0.74800003 9.5178994e-41
-0.019234313 0.0092609674 0.74800003 1.8410259e-40
-0.017785756 0.0092485771 0.74699998 1.8413762e-40
-0.016319057 0.0092238188 0.74500006 4.5922779e-39
-0.014900015 0.0092238262 0.745 8.9326261e-39
-0.013480968 0.0092238262 0.74500006 9.8772148e-39
-0.012029575 0.009199053 0.74300003 1.0693683e-38
-0.010614322 0.009199068 0.74300003 9.4797253e-39
-0.0091990698 0.0091990605 0.74300003 8.2966258e-39
-0.0077838167 0.0091990456 0.74300003 1.1350516e-38
-0.006368618 0.0091990605 0.74300003 1.4375749e-38
-0.0049533644 0.009199053 0.74300003 1.5308855e-38
-0.0035381108 0.009199053 0.74300003 1.623402e-38
-0.0021199924 0.0091866553 0.7420001 8.5004615e-39
-0.00070668984 0.0091866702 0.74200004 6.6894345e-40
0.00070666667 0.0091866627 0.74200004 7.3725437e-39
0.0021199989 0.0091866627 0.74200004 1.4106317e-38
0.0035333293 0.0091866627 0.7420001 1.0807062e-38
0.0049532992 0.0091990605 0.74300003 7.3681731e-39
0.0063685519 0.0091990605 0.74300003 3.8575393e-39
0.0077837803 0.0091990605 0.74300003 3.6959667e-40
0.0091990344 0.009199053 0.74300003 7.3910366e-40
0.010614257 0.0091990605 0.74300003 1.1064471e-39
0.012029486 0.0091990605 0.74300003 9.2205999e-40
0.013444739 0.0091990456 0.74300003 7.383904e-40
0.014859992 0.0091990605 0.74300003 1.1964945e-39
0.016319055 0.0092238188 0.74500006 1.5681413e-39
0.01778567 0.0092485845 0.74699998 2.7713312e-39
0.019234275 0.0092609525 0.74800003 3.8726495e-39
0.020659005 0.0092609599 0.74800003 4.0559729e-39
0.022142852 0.0092857257 0.75000006 4.1485287e-39
0.02357143 0.0092857257 0.75000006 4.5191021e-39
0.02499998 0.0092857331 0.75000006 4.8831818e-39
0.02649902 0.0093104839 0.75200003 4.4207435e-39
0.028042862 0.0093476325 0.75500011 3.8726004e-39
0.029480947 0.0093476251 0.75500005 5.9069719e-39
0.031041929 0.0093847588 0.75800002 7.9312961e-39
0.032614261 0.0094219223 0.76100004 8.4833824e-39
0.034153298 0.0094466805 0.76300001 9.0351199e-39
0.035699949 0.0094714463 0.76500005 9.1291162e-39
0.037254293 0.0094961971 0.76700002 9.2187628e-39
-0.068318091 0.011514306 0.80600005 3.1260446e-39
-0.06645143 0.01145716 0.80200005 5.7161361e-39
-0.064761899 0.01142858 0.80000007 8.3904833e-39
-0.063238122 0.011428572 0.80000007 6.3647186e-39
-0.061868589 0.011457153 0.80200005 4.337484e-39
-0.060190488 0.01142858 0.80000007 3.780692e-39
-0.058813345 0.011457153 0.80200005 3.2167605e-39
-0.05714288 0.011428565 0.80000007 3.2199835e-39
-0.055619072 0.01142858 0.80000001 3.3143301e-39
-0.054500964 0.011514299 0.80600005 2.582516e-39
-0.052834317 0.011485733 0.80400002 1.9414724e-39
-0.051302906 0.011485726 0.80400002 3.322602e-39
-0.038412411 0.010871433 0.7610001 3.0399741e-39
-0.036962871 0.01087144 0.76100004 2.0279774e-39
-0.035513356 0.01087144 0.76100004 1.1034931e-39
-0.03401906 0.010857135 0.76000005 3.4093942e-39
-0.03248569 0.01082857 0.75800002 5.7151243e-39
-0.03096004 0.010800004 0.75600004 1.0054148e-38
-0.029480958 0.010785729 0.75500011 1.4308708e-38
-0.027968612 0.010757141 0.75300002 1.2093887e-38
-0.026499067 0.010742873 0.75200003 9.8844034e-39
-0.025066698 0.010742873 0.75200003 7.2849766e-39
-0.0236343 0.010742866 0.75200003 4.6841218e-39
-0.022142855 0.010714293 0.75000006 2.6665659e-39
-0.020659082 0.010685734 0.74800003 6.4329829e-40
-0.01923432 0.01068572 0.74800003 3.6813372e-40
-0.017785739 0.010671437 0.74700004 1.8416285e-40
-0.016319076 0.010642871 0.74500006 2.8589305e-39
-0.014900005 0.010642856 0.74500006 5.5566473e-39
-0.013480988 0.010642871 0.745 7.4866767e-39
-0.012029549 0.010614298 0.74300003 9.4155864e-39
-0.010614324 0.010614291 0.74299997 7.2850789e-39
-0.0091990707 0.010614306 0.74300003 5.2837388e-39
-0.0077838446 0.010614291 0.74300003 1.0347992e-38
-0.006368591 0.010614298 0.74300003 1.532249e-38
-0.0049533672 0.010614306 0.74300003 1.4400144e-38
-0.0035381387 0.010614306 0.74300003 1.3587615e-38
-0.002120025 0.010600001 0.74200004 6.9227241e-39
-0.00070666749 0.010600001 0.74200004 3.6795155e-40
0.00070666481 0.010600008 0.74200004 7.1924614e-39
0.0021199952 0.010599993 0.7420001 1.4121385e-38
0.0035333238 0.010600008 0.74200004 1.098069e-38
0.0049533271 0.010614291 0.74300003 7.9062759e-39
0.0063685249 0.010614306 0.74300003 4.1355625e-39
0.0077837794 0.010614291 0.74300003 2.7740665e-40
0.0091990326 0.010614298 0.74300003 6.4691224e-40
0.01061426 0.010614283 0.74300003 1.0153388e-39
0.012029485 0.010614298 0.74300003 8.3095878e-40
0.013444737 0.010614291 0.74300003 6.4799824e-40
0.014859991 0.010614306 0.74300003 9.2313759e-40
0.016319035 0.010642864 0.74500006 1.2919145e-39
0.017785689 0.010671437 0.74699998 2.4003976e-39
0.019234268 0.010685727 0.74800003 3.5060221e-39
0.020659028 0.01068572 0.74800003 3.6889855e-39
0.022142855 0.010714293 0.75000006 3.8723117e-39
0.023571406 0.0107143 0.75000006 4.148907e-39
0.025066631 0.010742866 0.75200003 4.4233107e-39
0.02653428 0.010757148 0.75300008 3.593536e-39
0.028042858 0.010785729 0.75500005 2.8545305e-39
0.02948097 0.010785721 0.75500011 5.6267977e-39
0.031041915 0.01082857 0.75800002 8.4815916e-39
0.032614257 0.01087144 0.76100004 8.7581743e-39
0.034153331 0.010900021 0.76300001 9.1262505e-39
0.035699967 0.010928571 0.76500005 9.1266247e-39
0.037254293 0.010957137 0.76700008 9.1254938e-39
-0.068318114 0.013049543 0.80600005 4.8816965e-39
-0.066617161 0.013017148 0.80400002 6.3679781e-39
-0.064923823 0.012984782 0.80200005 7.7426336e-39
-0.063396193 0.012984768 0.80200011 4.0566526e-39
-0.061868574 0.012984768 0.80200005 3.8283054e-40
-0.060340978 0.012984768 0.80200005 1.2057206e-39
-0.058813326 0.01298476 0.80200005 2.0300779e-39
-0.05728573 0.012984782 0.80200005 2.3888005e-39
-0.055619039 0.012952387 0.80000007 2.7679807e-39
-0.054095265 0.01295238 0.80000007 2.6772214e-39
-0.052834321 0.013017155 0.80400002 2.4960671e-39
-0.051302884 0.013017163 0.80400002 3.8768337e-39
-0.03861434 0.012385726 0.76499999 2.9474127e-39
-0.037060022 0.012353346 0.76299995 1.5677111e-39
-0.03551336 0.012320966 0.76100004 1.0196268e-40
-0.03401906 0.012304753 0.76000011 5.7150823e-39
-0.032485709 0.01227238 0.75800002 1.1338302e-38
-0.030960036 0.012240008 0.75600004 1.3194832e-38
-0.029480962 0.012223825 0.75500005 1.4936793e-38
-0.027968599 0.012191445 0.75300002 9.0477988e-39
-0.026534302 0.01219143 0.75300002 3.1491226e-39
-0.025066685 0.012175255 0.75200003 1.653528e-39
-0.023634316 0.012175247 0.75199997 9.2674874e-41
-0.02214288 0.012142867 0.75000006 6.4332071e-40
-0.020659059 0.012110479 0.74800003 1.1032058e-39
-0.019234328 0.012110494 0.74800003 6.4437729e-40
-0.017785722 0.012094289 0.74700004 1.8523064e-40
-0.01631904 0.012061909 0.74500006 1.1029004e-39
-0.014900024 0.012061924 0.74500006 2.0464016e-39
-0.013444804 0.012029529 0.74300003 5.0967369e-39
-0.012029549 0.012029529 0.74300003 8.013925e-39
-0.010614295 0.012029536 0.74300003 5.1447608e-39
-0.0091990968 0.012029536 0.74300003 2.2344391e-39
-0.0077838437 0.012029536 0.74300003 9.2506017e-39
-0.0063685919 0.012029529 0.74300003 1.6233656e-38
-0.0049533634 0.012029529 0.74300003 1.3565734e-38
-0.0035381396 0.012029529 0.74300003 1.0783366e-38
-0.0021200017 0.012013331 0.74200004 5.4188436e-39
-0.00070667121 0.012013324 0.7420001 9.7066543e-41
0.0007066853 0.012013331 0.7420001 7.0909332e-39
0.002122819 0.012029536 0.74300003 1.401484e-38
0.0035380716 0.012029544 0.74300003 1.127091e-38
0.0049532992 0.012029529 0.74300003 8.4712766e-39
0.0063685537 0.012029521 0.74300003 4.3167125e-39
0.0077837757 0.012029536 0.74300003 1.862746e-40
0.0091990307 0.012029536 0.74300003 5.5577599e-40
0.010614258 0.012029536 0.74300003 8.3093496e-40
0.012029511 0.012029529 0.74300003 6.4655911e-40
0.013444736 0.012029544 0.74300003 4.6395311e-40
0.014899998 0.012061909 0.74500006 7.4016585e-40
0.016362814 0.012094289 0.74700004 9.2635778e-40
0.017785678 0.012094282 0.74700004 2.0319823e-39
0.019234261 0.012110494 0.74800003 3.0454097e-39
0.020659022 0.012110487 0.74800003 3.3216421e-39
0.022142857 0.012142882 0.75000006 3.5971556e-39
0.023571437 0.012142867 0.75000006 3.7804734e-39
0.025066646 0.012175232 0.75200003 3.8715634e-39
0.026534269 0.012191437 0.75300008 2.8588338e-39
0.028042858 0.012223817 0.75500011 1.8511503e-39
0.029519983 0.012240008 0.75600004 5.4481545e-39
0.031041896 0.01227238 0.75800002 8.9407719e-39
0.032614253 0.012320958 0.76100004 9.0326045e-39
0.034153312 0.012353353 0.76300001 9.1255232e-39
0.035699952 0.012385719 0.76500005 9.1251715e-39
0.037254315 0.012418099 0.76700008 9.0333038e-39
-0.067979075 0.014512397 0.80200005 6.3561035e-39
-0.066617168 0.01454857 0.80400002 7.3771161e-39
-0.064923801 0.01451239 0.80200005 8.3901681e-39
-0.063554309 0.014548585 0.80400008 6.4526445e-39
-0.061868586 0.01451239 0.80200011 4.6040488e-39
-0.06034096 0.01451239 0.80200005 4.7040875e-39
-0.058960009 0.014548577 0.80400008 4.7987788e-39
-0.057571445 0.014584772 0.80600005 4.612224e-39
-0.056036212 0.01458478 0.80600005 4.5286393e-39
-0.054500952 0.014584772 0.80600005 4.2466756e-39
-0.038614325 0.013842866 0.76500005 2.1198086e-39
-0.037060011 0.013806671 0.76300001 2.853394e-39
-0.035606682 0.013806671 0.76300001 3.6846737e-39
-0.03406382 0.013770491 0.76100004 8.3045263e-39
-0.032485723 0.013716191 0.75800002 1.301363e-38
-0.030960036 0.013680018 0.75600004 1.1813693e-38
-0.029480936 0.013661914 0.75500011 1.0614731e-38
-0.027968576 0.013625726 0.75300008 6.5459079e-39
-0.026499072 0.013607636 0.75200003 2.4800082e-39
-0.025066674 0.013607629 0.75200003 3.1325144e-39
-0.02357143 0.013571434 0.75000006 3.7664226e-39
-0.02214285 0.013571441 0.75000006 2.2052458e-39
-0.020659067 0.013535254 0.74800003 6.4475704e-40
-0.019234305 0.013535246 0.74800003 7.3658974e-40
-0.017785762 0.013517164 0.74699998 9.209838e-40
-0.016319061 0.013480961 0.74500006 1.3826766e-39
-0.014900016 0.013480954 0.74500006 1.8479722e-39
-0.013444776 0.013444774 0.74300003 2.9532463e-39
-0.012029552 0.013444774 0.74300003 4.0412299e-39
-0.010614323 0.013444774 0.74300003 5.7013916e-39
-0.0091990698 0.013444766 0.74300003 7.3498875e-39
-0.0078047919 0.013480969 0.74500006 1.0705591e-38
-0.0063857217 0.013480961 0.74500006 1.4030309e-38
-0.0049666748 0.013480946 0.74500006 9.7717811e-39
-0.0035476317 0.013480969 0.745 5.418845e-39
-0.0021228888 0.013444774 0.74299997 2.7555385e-39
-0.00070766028 0.013444774 0.74300003 9.2362384e-41
0.00070759427 0.013444766 0.74300003 6.6371297e-39
0.002122845 0.013444766 0.74300003 1.3198365e-38
0.0035380437 0.013444774 0.74300003 1.1257641e-38
0.0049532983 0.013444781 0.74300003 9.2888264e-39
0.0063685509 0.013444766 0.74300003 4.7798263e-39
0.0077838046 0.013444774 0.74300003 2.7809609e-40
0.0091990037 0.013444774 0.74300003 5.5468158e-40
0.010614256 0.013444774 0.74300003 9.2203898e-40
0.01202951 0.013444774 0.74300003 7.3874073e-40
0.013444738 0.013444759 0.74300003 6.4724995e-40
0.014899979 0.013480969 0.745 8.3198173e-40
0.016362833 0.013517149 0.74700004 1.0181863e-39
0.017785696 0.013517156 0.74700004 1.9397908e-39
0.019234283 0.013535246 0.74800003 2.9539344e-39
0.020659015 0.013535239 0.74800003 3.3223581e-39
0.022142861 0.013571441 0.75000012 3.7818944e-39
0.023571411 0.013571441 0.75000006 4.056682e-39
0.025099991 0.013625711 0.75300008 4.2403235e-39
0.026534257 0.013625734 0.75300002 3.0421279e-39
0.028042855 0.013661914 0.75500005 1.9365216e-39
0.029519986 0.013680004 0.75600004 5.4449316e-39
0.031041937 0.013716191 0.75800008 9.03548e-39
0.032614283 0.013770491 0.76100004 9.0340395e-39
0.034153316 0.013806678 0.76300001 9.0343954e-39
0.035606645 0.013806678 0.76299995 9.0329577e-39
0.037157122 0.013842858 0.76500005 9.0322318e-39
-0.06797906 0.016040012 0.80200005 7.8315446e-39
-0.066617168 0.016080007 0.80400002 8.485902e-39
-0.065085754 0.016080014 0.80400002 9.0333164e-39
-0.063554287 0.016080007 0.80400002 8.9425459e-39
-0.062022869 0.016080007 0.80400002 8.7502415e-39
-0.060641903 0.016120017 0.80600005 8.1159788e-39
-0.059106674 0.016120017 0.80600005 7.4670249e-39
-0.057571441 0.016120017 0.80600005 6.9160063e-39
-0.056036178 0.016120002 0.80600005 6.2720984e-39
-0.054500945 0.016120009 0.80600005 5.9040572e-39
-0.037157156 0.015300006 0.76500005 4.2252624e-39
-0.035513364 0.015220024 0.76100004 7.1942033e-39
-0.034063824 0.015220009 0.76100004 1.0896753e-38
-0.032485709 0.015160002 0.75800008 1.4568007e-38
-0.031041881 0.015159994 0.75800002 1.0431091e-38
-0.029520025 0.015120015 0.75600004 6.1800345e-39
-0.028042885 0.01510001 0.75500005 4.0411948e-39
-0.026499059 0.015040018 0.75200003 1.8511727e-39
-0.025066692 0.015040018 0.75200003 4.6295945e-39
-0.023634318 0.015039995 0.75200003 7.3681114e-39
-0.022142874 0.015000008 0.75000006 3.7663918e-39
-0.020714294 0.015000001 0.75000012 9.3347497e-41
-0.019234311 0.014960006 0.74800003 8.2840842e-40
-0.017785745 0.014940009 0.74700004 1.5641616e-39
-0.016362879 0.014940001 0.74700004 1.5666671e-39
-0.01490001 0.014900014 0.74500006 1.5656133e-39
-0.013480963 0.014900006 0.74500006 8.2700712e-40
-0.012029525 0.014860004 0.74300003 9.8798548e-41
-0.010614326 0.014860012 0.74300003 6.2704491e-39
-0.0091990726 0.014860012 0.74300003 1.2439993e-38
-0.0077838195 0.014860004 0.74300003 1.2191098e-38
-0.0063857422 0.014900006 0.745 1.1792842e-38
-0.0049666693 0.014900014 0.74500006 5.9802388e-39
-0.0035476233 0.014899999 0.74500006 9.4846887e-41
-0.0021228869 0.014860004 0.74300003 9.2307734e-41
-0.00070766214 0.014860019 0.74300003 9.5945505e-41
0.00070759055 0.014860019 0.74300003 6.2590187e-39
0.002122845 0.014860004 0.74300003 1.2358937e-38
0.0035380716 0.014860004 0.74300003 1.1272369e-38
0.0049666478 0.014900006 0.74500006 1.0036788e-38
0.0063685491 0.014860012 0.74300003 5.1432138e-39
0.0077837775 0.014859997 0.74300003 2.7774016e-40
0.0091990298 0.014860012 0.74300003 6.4653109e-40
0.010642854 0.014900014 0.74500006 9.2276205e-40
0.012061872 0.014900006 0.745 9.2277045e-40
0.013444735 0.014860012 0.74300003 8.3093075e-40
0.014899989 0.014900006 0.74500006 9.2204318e-40
0.016362851 0.014940001 0.74700004 1.0174814e-39
0.01780949 0.014960006 0.74800003 1.9390804e-39
0.019234275 0.014960013 0.74800003 2.7699032e-39
0.020714259 0.015000015 0.75000006 3.4156202e-39
0.022142863 0.015000008 0.75000006 3.9662716e-39
0.023634242 0.015040018 0.75200003 4.3321759e-39
0.02509998 0.015060008 0.75300008 4.6069453e-39
0.026534272 0.015060015 0.75300002 3.3169239e-39
0.028042881 0.015100002 0.75500011 1.9440634e-39
0.029519986 0.015120015 0.75600004 5.5428767e-39
0.031041918 0.015159994 0.75800002 9.0333304e-39
0.03261428 0.015220009 0.76100004 8.9414823e-39
0.034153298 0.015260011 0.76299995 8.8499873e-39
0.035699956 0.015300006 0.76500005 8.9403697e-39
0.037157107 0.015300006 0.76499999 9.0325737e-39
-0.069680028 0.017611437 0.80400002 3.3208209e-39
-0.068148583 0.017611437 0.80400008 5.9998317e-39
-0.066782862 0.017655246 0.80600005 5.9962416e-39
-0.065085731 0.017611437 0.80400002 5.9069046e-39
-0.063554287 0.017611429 0.80400008 7.0013832e-39
-0.062022872 0.017611422 0.80400002 8.1959635e-39
-0.060491458 0.017611444 0.80400002 1.0035543e-38
-0.059106667 0.017655261 0.80600005 1.1874048e-38
-0.037157197 0.01675716 0.76500005 5.5347099e-39
-0.035606697 0.016713351 0.76299995 9.4183946e-39
-0.034063827 0.016669534 0.76100004 1.0799203e-38
-0.032485701 0.016603805 0.75800002 1.2174892e-38
-0.0310419 0.016603798 0.75800002 7.6494319e-39
-0.029520022 0.016560011 0.75600004 3.1228707e-39
-0.028042857 0.016538113 0.75500005 2.3927746e-39
-0.026499076 0.016472399 0.75199997 1.5796347e-39
-0.025066705 0.016472392 0.75200003 6.0997681e-39
-0.023634335 0.016472392 0.75200003 1.0605328e-38
-0.022201937 0.016472392 0.75200003 6.2670565e-39
-0.020714294 0.016428597 0.75000006 1.9300196e-39
-0.019285714 0.016428575 0.75000006 1.5627154e-39
-0.017785726 0.016362868 0.74700004 1.2871921e-39
-0.016362892 0.016362861 0.74699998 1.1038617e-39
-0.014899999 0.016319051 0.74500006 9.1878236e-40
-0.013480982 0.016319066 0.74500006 3.2161313e-39
-0.012029551 0.016275249 0.74300003 5.5106735e-39
-0.010642865 0.016319066 0.74500006 9.501301e-39
-0.0092238476 0.016319059 0.74500006 1.3571129e-38
-0.0078047761 0.016319051 0.74500006 9.775388e-39
-0.0063857292 0.016319051 0.74500006 5.9698453e-39
-0.0049666888 0.016319059 0.745 3.03387e-39
-0.0035476419 0.016319066 0.74500006 1.8412081e-40
-0.0021228897 0.016275257 0.74300003 1.8485789e-40
-0.00070763606 0.016275242 0.74300003 9.2352575e-41
0.00070758868 0.016275249 0.74300003 5.9888848e-39
0.0021228171 0.016275249 0.74300003 1.1909451e-38
0.0035476112 0.016319051 0.74500006 1.1169432e-38
0.0049666525 0.016319066 0.745 1.030943e-38
0.0063856984 0.016319059 0.74500006 5.2411379e-39
0.0077837738 0.016275249 0.74300003 1.851886e-40
0.009223788 0.016319074 0.745 6.465437e-40
0.010642835 0.016319059 0.74500006 1.015322e-39
0.012061905 0.016319066 0.74500006 9.2312919e-40
0.013480952 0.016319051 0.74500006 8.3129929e-40
0.014939977 0.016362861 0.74700004 6.4834997e-40
0.016384752 0.016384766 0.74800003 5.5795781e-40
0.017809484 0.01638478 0.74800003 1.664297e-39
0.019234272 0.016384773 0.74800003 2.770978e-39
0.020714289 0.016428582 0.75000006 3.324135e-39
0.022201886 0.016472392 0.75200009 3.87622e-39
0.023634255 0.016472384 0.75200003 4.0588092e-39
0.025099969 0.016494289 0.75300002 4.3339471e-39
0.026604768 0.016538098 0.75500011 2.8602632e-39
0.028042851 0.016538106 0.75500005 1.3883953e-39
0.029519964 0.016560003 0.75600004 5.1690874e-39
0.031041903 0.016603805 0.75800002 9.032257e-39
0.032614276 0.016669519 0.76100004 8.6659702e-39
0.034153331 0.016713344 0.76300001 8.3915063e-39
0.035699975 0.01675716 0.76500005 8.2052905e-39
0.037157122 0.016757153 0.76500005 8.0230839e-39
0.038715247 0.016800962 0.76700008 7.469948e-39
-0.069853351 0.01919049 0.80600005 2.3070263e-39
-0.068318091 0.01919049 0.80600011 4.154885e-39
-0.066782854 0.019190483 0.80600005 3.5002278e-39
-0.065085731 0.019142866 0.80400002 2.7795288e-39
-0.063554317 0.019142881 0.80400002 5.143211e-39
-0.062022876 0.019142866 0.80400008 7.5606876e-39
-0.060491458 0.019142874 0.80400002 1.1864739e-38
-0.03560669 0.018166676 0.76300001 1.1621349e-38
-0.034063831 0.018119052 0.76100004 1.0706244e-38
-0.032485716 0.018047616 0.75800002 9.6780692e-39
-0.030960025 0.018000007 0.75600004 4.8684976e-39
-0.02952002 0.018000014 0.75600004 9.2634236e-41
-0.028042886 0.01797621 0.75500005 7.3506372e-40
-0.026534317 0.017928593 0.75300002 1.3048289e-39
-0.025066691 0.017904758 0.75200003 7.583463e-39
-0.023634324 0.017904766 0.75200003 1.3731378e-38
-0.022201926 0.017904773 0.75200003 8.7661224e-39
-0.020714289 0.017857149 0.75000006 3.6954202e-39
-0.019285738 0.017857157 0.75000006 2.2963456e-39
-0.017785763 0.017785728 0.74700004 9.2669409e-40
-0.0163629 0.017785728 0.74700004 6.4328568e-40
-0.014900019 0.017738111 0.74500006 2.8747077e-40
-0.013480946 0.017738104 0.74500006 5.6085962e-39
-0.01206193 0.017738119 0.745 1.0964879e-38
-0.010671445 0.017785713 0.74700004 1.2836076e-38
-0.0092238132 0.017738104 0.74500006 1.4559366e-38
-0.0078047668 0.017738104 0.74500006 7.3688737e-39
-0.0063857236 0.017738104 0.745 9.7698529e-41
-0.0049666776 0.017738111 0.74500006 1.8448234e-40
-0.0035476326 0.017738096 0.74500006 2.7774857e-40
-0.0021228925 0.01769048 0.74300003 1.862662e-40
-0.00070763793 0.017690495 0.74300003 9.3053225e-41
0.00070759055 0.017690495 0.74300003 5.7865541e-39
0.0021228134 0.017690495 0.74300003 1.1436632e-38
0.0035380679 0.017690487 0.74300003 1.1093727e-38
0.0049666618 0.017738104 0.74500006 1.0590675e-38
0.0063685472 0.017690472 0.74300003 5.3268848e-39
0.0077837729 0.017690495 0.74300003 9.371744e-41
0.009199026 0.01769048 0.74300003 6.476227e-40
0.010642844 0.017738104 0.74500006 1.1071491e-39
0.012061886 0.017738111 0.745 9.2310817e-40
0.013480932 0.017738111 0.74500006 7.3980992e-40
0.014939965 0.017785721 0.74699998 4.6503631e-40
0.016384745 0.01780954 0.74800003 9.9493592e-41
0.017809508 0.017809533 0.74800003 1.3887849e-39
0.019285714 0.017857157 0.75000006 2.6791411e-39
0.020769501 0.017904766 0.75200003 3.2337372e-39
0.022201868 0.017904781 0.75200003 3.7840285e-39
0.023665693 0.017928578 0.75300008 3.8758598e-39
0.025166679 0.01797621 0.75500011 3.9658961e-39
0.026604764 0.017976202 0.75500005 2.4018172e-39
0.028042877 0.017976195 0.75500011 7.498306e-40
0.029519964 0.018000007 0.75600004 4.8960373e-39
0.031041913 0.018047623 0.75800002 8.938583e-39
0.032614268 0.01811906 0.76100004 8.4826229e-39
0.034153309 0.018166676 0.76300001 7.9294407e-39
0.035699956 0.018214308 0.76500005 7.4666591e-39
0.0372543 0.018261909 0.76700002 7.0082145e-39
0.038715243 0.018261902 0.76700002 5.9955269e-39
-0.07156577 0.020777158 0.80800003 2.7589044e-40
-0.069853343 0.020725727 0.80600005 5.9815056e-39
-0.068318076 0.020725727 0.80600005 1.1791955e-38
-0.066782854 0.020725735 0.80600005 1.2447059e-38
-0.06524764 0.020725727 0.80600005 1.3098161e-38
-0.063712411 0.020725727 0.80600005 1.4291666e-38
-0.062177148 0.020725727 0.80600005 1.5507369e-38
-0.060641915 0.020725735 0.80600005 1.770241e-38
-0.035700046 0.01967144 0.76499999 1.2821646e-38
-0.03415335 0.019620016 0.76299995 9.873577e-39
-0.032485731 0.019491442 0.75800002 7.014079e-39
-0.030960025 0.019440003 0.75600004 3.5910109e-39
-0.029480975 0.019414298 0.75500005 1.8408578e-40
-0.02804286 0.019414298 0.75500005 5.5317798e-40
-0.026534302 0.019362874 0.75300002 9.2312218e-40
-0.025100008 0.019362859 0.75300002 4.3451617e-39
-0.023634309 0.019337147 0.75200003 7.6745964e-39
-0.022201942 0.019337162 0.75200003 8.1280734e-39
-0.020714289 0.019285731 0.75000006 8.5850228e-39
-0.019285709 0.019285738 0.75000006 7.7476643e-39
-0.017809568 0.019234307 0.74800003 7.0101077e-39
-0.016362881 0.01920858 0.74700004 7.1037326e-39
-0.014940048 0.01920858 0.74700004 7.1109759e-39
-0.013480968 0.019157164 0.745 9.0431773e-39
-0.012061921 0.019157149 0.74500006 1.090465e-38
-0.010671456 0.019208595 0.74699998 9.139696e-39
-0.0092485929 0.019208588 0.74700004 7.3792685e-39
-0.0078257276 0.01920858 0.74700004 3.9625722e-39
-0.0063857152 0.019157164 0.74500006 6.4327307e-40
-0.0049666981 0.019157156 0.745 7.3695407e-40
-0.003547627 0.019157164 0.74500006 8.3163e-40
-0.0021228609 0.019105718 0.74300003 4.6174606e-40
-0.000707664 0.019105732 0.74300003 9.2320345e-41
0.00070758868 0.019105725 0.74300003 5.5253899e-39
0.0021228432 0.019105725 0.74300003 1.1078966e-38
0.0035380679 0.019105725 0.74299997 1.0894258e-38
0.0049532945 0.019105718 0.74300003 1.0765733e-38
0.0063685491 0.019105725 0.74300003 5.4241097e-39
0.0077838018 0.019105718 0.74300003 9.3006982e-41
0.0091989981 0.019105725 0.74300003 5.5543127e-40
0.010614253 0.019105725 0.74300003 1.1071393e-39
0.012029507 0.019105725 0.74300003 9.2344588e-40
0.013480938 0.019157156 0.745 8.316342e-40
0.014959982 0.019234292 0.74800003 6.4798703e-40
0.016384739 0.0192343 0.74800003 4.6539784e-40
0.017809501 0.0192343 0.74800003 1.5724503e-39
0.019285688 0.019285724 0.75000006 2.771334e-39
0.020769482 0.019337155 0.75200003 3.3234217e-39
0.022201883 0.019337155 0.75200003 3.8740732e-39
0.023665681 0.019362867 0.75300002 3.9659045e-39
0.025166649 0.019414298 0.75500005 4.1492167e-39
0.026604764 0.019414291 0.75500011 2.3089181e-39
0.028042847 0.019414306 0.75500005 4.6569492e-40
0.029519968 0.019440003 0.75600004 4.9756213e-39
0.031123823 0.019542858 0.76000005 9.4856051e-39
0.032699984 0.019620016 0.76300001 1.0962864e-38
0.034242824 0.01967144 0.76499999 1.2519045e-38
0.035793357 0.019722849 0.76700008 1.2984321e-38
0.037254296 0.019722864 0.76700008 1.3343412e-38
0.038765706 0.019748576 0.76800001 1.2801367e-38
0.040333305 0.019800007 0.77000004 1.2151344e-38
-0.071565725 0.022316203 0.80800003 9.228251e-41
-0.070026696 0.022316203 0.80800003 9.7350587e-39
-0.068487644 0.02231621 0.80800003 1.9340528e-38
-0.066948615 0.022316203 0.80800003 2.1397191e-38
-0.065409541 0.022316195 0.80800003 2.3409323e-38
-0.063870512 0.022316195 0.80800003 2.3417575e-38
-0.06233146 0.022316188 0.80800003 2.3414683e-38
-0.060792409 0.02231621 0.80800003 2.3417529e-38
-0.035793327 0.021183819 0.76700002 1.4012266e-38
-0.034153342 0.021073341 0.76300001 9.1363567e-39
-0.032571435 0.020990483 0.76000005 4.2446466e-39
-0.031041892 0.020935237 0.75800002 2.2966946e-39
-0.029520042 0.020880014 0.75600004 2.7772615e-40
-0.028080007 0.020880006 0.75600004 4.6245091e-40
-0.026640028 0.020880006 0.75600004 5.5539344e-40
-0.025100021 0.020797156 0.75300002 1.1075134e-39
-0.023634298 0.020769522 0.75200003 1.5900842e-39
-0.022201929 0.020769536 0.75200003 7.4866444e-39
-0.020769531 0.020769529 0.75200003 1.3362295e-38
-0.019285733 0.020714298 0.75000006 1.3282628e-38
-0.017809546 0.020659052 0.74800009 1.309214e-38
-0.016362894 0.02063144 0.74699998 1.3559208e-38
-0.014940029 0.020631425 0.74700004 1.3924423e-38
-0.013517166 0.02063144 0.74700004 1.2365039e-38
-0.012061941 0.020576201 0.745 1.0781924e-38
-0.010642869 0.020576201 0.74500006 5.4385767e-39
-0.0092238225 0.020576194 0.74500006 1.0522911e-40
-0.0078257406 0.020631447 0.74699998 6.4325485e-40
-0.0064028758 0.02063144 0.74700004 1.1042554e-39
-0.0049666888 0.020576201 0.74500006 1.1968378e-39
-0.0035476168 0.020576194 0.74500006 1.2890208e-39
-0.0021228888 0.020520955 0.74300003 7.3620298e-40
-0.00070763606 0.020520955 0.74300003 9.2698696e-41
0.00070758682 0.02052097 0.74300003 5.3270263e-39
0.0021228413 0.020520963 0.74300003 1.0610831e-38
0.0035380679 0.02052097 0.74300003 1.0821802e-38
0.0049533225 0.020520955 0.74300003 1.0870854e-38
0.0063685472 0.02052097 0.74300003 5.510581e-39
0.0077837729 0.020520963 0.74300003 9.4092988e-41
0.0091990279 0.020520963 0.74300003 5.5758927e-40
0.010614252 0.02052097 0.74299997 1.016394e-39
0.012061875 0.020576201 0.74500006 1.0153052e-39
0.013480948 0.020576201 0.74500006 9.2276485e-40
0.014939972 0.02063144 0.74700004 9.2170266e-40
0.016384762 0.020659059 0.74800003 8.3274263e-40
0.017809493 0.020659052 0.74800003 1.8472435e-39
0.01928572 0.020714283 0.75000006 2.7695417e-39
0.02071427 0.020714305 0.75000006 3.3223469e-39
0.022201894 0.020769529 0.75200003 3.8737116e-39
0.023665695 0.020797156 0.75300002 4.0566596e-39
0.025099987 0.020797141 0.75300002 4.2403292e-39
0.02660476 0.020852387 0.75500005 2.2181532e-39
0.028042844 0.020852402 0.75500005 1.9020525e-40
0.029519968 0.020880006 0.75600004 5.0553019e-39
0.031123789 0.020990476 0.76000005 9.9537929e-39
0.032699961 0.021073341 0.76300001 1.3547215e-38
0.034242839 0.021128587 0.76500005 1.7137076e-38
0.035793323 0.021183819 0.76700002 1.842495e-38
0.037254322 0.021183804 0.76700008 1.9712435e-38
0.038765706 0.021211438 0.76800001 1.9530911e-38
0.040228549 0.02121143 0.76800001 1.9347242e-38
-0.073104791 0.023855247 0.80800003 1.8477662e-40
-0.07156574 0.023855254 0.80800003 9.2345569e-41
-0.070026711 0.023855247 0.80800003 1.0502523e-38
-0.068487629 0.023855239 0.80800003 2.0938091e-38
-0.0669486 0.023855247 0.80800003 2.2131993e-38
-0.065409549 0.023855247 0.80800003 2.341769e-38
-0.063870504 0.023855254 0.80800003 2.341769e-38
-0.062331475 0.023855247 0.80800003 2.3417686e-38
-0.060792394 0.023855247 0.80800003 2.3417682e-38
-0.035793331 0.022644758 0.76700002 1.3745715e-38
-0.034063838 0.022467636 0.76100004 8.1146602e-39
-0.032571439 0.022438094 0.76000011 2.5718591e-39
-0.031123819 0.022438094 0.76000011 1.7474654e-39
-0.02952004 0.02232001 0.75600004 9.2202076e-40
-0.028080033 0.02232001 0.75600004 8.3126006e-40
-0.026604783 0.022290505 0.75500005 8.308719e-40
-0.025166668 0.022290491 0.75500005 9.2482896e-40
-0.023665737 0.022231437 0.75300002 1.0203639e-39
-0.022231473 0.022231445 0.75300002 3.8802907e-39
-0.020769548 0.022201918 0.75200003 6.7379741e-39
-0.019285703 0.022142865 0.75000006 1.0059498e-38
-0.017857153 0.022142857 0.75000006 1.328235e-38
-0.016384766 0.022083811 0.74800003 1.2644165e-38
-0.014940012 0.0220543 0.74700004 1.2101029e-38
-0.013517179 0.0220543 0.74699998 8.7579851e-39
-0.012061907 0.021995254 0.74500006 5.4188366e-39
-0.01064286 0.021995239 0.74500006 3.1279028e-39
-0.009223843 0.021995254 0.74500006 9.1881178e-40
-0.0078257499 0.022054292 0.74700004 1.0131416e-39
-0.0063857264 0.021995246 0.74500006 1.1071365e-39
-0.0049666832 0.021995254 0.745 1.1064246e-39
-0.0035476373 0.021995261 0.74500006 1.1971923e-39
-0.0021228925 0.021936208 0.74300003 6.443927e-40
-0.00070763793 0.021936201 0.74300003 9.2360983e-41
0.00070761662 0.021936193 0.74300003 6.9140739e-39
0.0021228115 0.021936201 0.74300003 1.3745806e-38
0.0035380661 0.021936186 0.74300003 1.3747631e-38
0.0049533206 0.021936208 0.74300003 1.3721712e-38
0.006385704 0.021995254 0.74500006 6.8978146e-39
0.0078047509 0.021995246 0.74500006 9.2310536e-41
0.0092237918 0.021995261 0.745 6.4763531e-40
0.010671395 0.022054292 0.74699998 1.2015139e-39
0.01209426 0.0220543 0.74700004 1.0156864e-39
0.013517125 0.022054277 0.74700004 8.2986717e-40
0.014959968 0.022083826 0.74800003 8.2986997e-40
0.016384754 0.022083811 0.74800003 8.3059444e-40
0.017809516 0.022083826 0.74800003 1.845454e-39
0.019285694 0.02214288 0.75000006 2.7695445e-39
0.020714274 0.022142865 0.75000006 3.3219882e-39
0.022201877 0.022201918 0.75200003 3.9655457e-39
0.023665713 0.02223143 0.75300008 4.0570141e-39
0.025166672 0.022290491 0.75500005 4.241041e-39
0.026604757 0.022290491 0.75500005 2.2138414e-39
0.028042844 0.022290491 0.75500005 1.8412501e-40
0.029519971 0.02232001 0.75600004 7.0968887e-39
0.03116475 0.022467621 0.76100004 1.4115131e-38
0.032699995 0.022526667 0.76300001 1.7153237e-38
0.034242824 0.022585735 0.76499999 2.0291837e-38
0.035699978 0.02258572 0.76500005 2.0928995e-38
0.037254289 0.022644773 0.76700002 2.1580802e-38
0.038715236 0.022644773 0.76700002 2.1481781e-38
0.040228549 0.0226743 0.76800001 2.1397121e-38
-0.073285751 0.025457151 0.81000006 1.8406896e-40
-0.071742877 0.025457166 0.81000006 1.0202854e-40
-0.070026688 0.025394291 0.80800009 1.1243649e-38
-0.068487644 0.025394291 0.80800003 2.2393814e-38
-0.067114294 0.025457151 0.81000006 2.2958505e-38
-0.06557145 0.025457151 0.81000006 2.3417683e-38
-0.064028606 0.025457151 0.81000006 2.3417682e-38
-0.062485732 0.025457151 0.81 2.3417683e-38
-0.03593336 0.024200015 0.77000004 1.3364748e-38
-0.034242898 0.024042867 0.76500005 7.1883893e-39
-0.032614298 0.023917146 0.76100004 9.2706403e-40
-0.03112383 0.023885719 0.76000005 1.2908075e-39
-0.029598096 0.023822859 0.75800002 1.5666671e-39
-0.028080028 0.023760006 0.75600004 1.2925885e-39
-0.026640024 0.023760006 0.75600004 1.0159806e-39
-0.025166672 0.023728587 0.75500005 7.4080624e-40
-0.023728561 0.023728579 0.75500005 4.6429222e-40
-0.02223143 0.023665726 0.75300008 2.7602777e-40
-0.020769536 0.023634292 0.75200003 1.1248223e-40
-0.019285725 0.023571432 0.75000006 6.8426973e-39
-0.017857147 0.023571439 0.75000006 1.3466347e-38
-0.016384771 0.023508586 0.74800003 1.1817985e-38
-0.014960041 0.023508579 0.74800003 1.0136563e-38
-0.01351716 0.023477152 0.74700004 5.1472691e-39
-0.012094297 0.023477152 0.74700004 9.3776295e-41
-0.010642881 0.023414299 0.74500006 9.188314e-40
-0.0092238085 0.023414291 0.74500006 1.656374e-39
-0.0078047919 0.023414306 0.745 1.3830087e-39
-0.0063857208 0.023414299 0.745 1.1074896e-39
-0.0049666748 0.023414306 0.74500006 1.1081945e-39
-0.0035476279 0.023414299 0.74500006 1.0242721e-39
-0.0021228944 0.023351438 0.74300003 5.5148241e-40
-0.00070763979 0.023351446 0.74300003 1.0421877e-40
0.00070758682 0.023351431 0.74300003 8.491098e-39
0.0021228394 0.023351446 0.74300003 1.6872535e-38
0.0035380642 0.023351438 0.74300003 1.6793269e-38
0.0049533169 0.023351453 0.74300003 1.6576868e-38
0.0063685453 0.023351438 0.74300003 8.3578653e-39
0.0078256875 0.023477152 0.74700004 9.3395141e-41
0.0092485221 0.023477145 0.74700004 7.3840302e-40
0.010671414 0.023477152 0.74700004 1.2915586e-39
0.012094278 0.023477145 0.74700004 1.0156849e-39
0.013517113 0.023477167 0.74699998 6.465423e-40
0.014959993 0.023508571 0.74800003 7.3729319e-40
0.016384725 0.023508586 0.74800003 8.3021749e-40
0.017809512 0.023508571 0.74800003 1.8429317e-39
0.019285725 0.023571447 0.75000006 2.7684725e-39
0.020714274 0.023571439 0.75000006 3.4145608e-39
0.02220189 0.023634292 0.75200003 3.9648437e-39
0.023665702 0.023665734 0.75300002 4.1477846e-39
0.025166644 0.023728587 0.75500005 4.2381796e-39
0.026604757 0.023728594 0.75500005 2.2120533e-39
0.02804284 0.023728587 0.75500005 1.0236906e-40
0.029519971 0.023760013 0.75599998 9.1245115e-39
0.03116475 0.023917153 0.76100004 1.8155963e-38
0.032785691 0.02404286 0.76500005 2.0842874e-38
0.034332402 0.024105698 0.76700008 2.34161e-38
0.035839979 0.024137154 0.76800001 2.3417574e-38
0.037302841 0.024137162 0.76800001 2.3416139e-38
0.038765714 0.024137154 0.76800001 2.3417574e-38
0.040228579 0.024137147 0.76800001 2.3416848e-38
-0.074828595 0.027000017 0.81000006 5.5609409e-40
-0.073285721 0.027000017 0.81000006 2.7698906e-40
-0.071742877 0.02700001 0.81000006 9.2338562e-41
-0.070026681 0.026933342 0.80800003 1.1155025e-38
-0.068657167 0.02700001 0.81000006 2.2221253e-38
-0.067114323 0.02700001 0.81000006 2.277411e-38
-0.06557142 0.02700001 0.81000006 2.3417675e-38
-0.064186692 0.02706667 0.81200004 2.3417673e-38
-0.062640026 0.02706667 0.81200004 2.341732e-38
-0.035933353 0.025666684 0.77000004 1.2897327e-38
-0.034242883 0.025500007 0.76500005 6.8185123e-39
-0.032700021 0.025433339 0.76300001 6.4724435e-40
-0.031123808 0.02533333 0.76000005 8.3199714e-40
-0.029598089 0.02526667 0.75800002 1.1082099e-39
-0.028154261 0.02526667 0.75800002 1.1078399e-39
-0.026640048 0.025200017 0.75600004 1.1071015e-39
-0.025200013 0.025200002 0.75600004 7.3937832e-40
-0.023728589 0.02516669 0.75500005 3.7062803e-40
-0.022231439 0.025100015 0.75300002 1.2868558e-39
-0.020769548 0.025066659 0.75200003 2.2963807e-39
-0.019337181 0.025066681 0.75200003 8.7737048e-39
-0.017857146 0.025000013 0.75000006 1.5217644e-38
-0.016428567 0.025000013 0.75000006 1.0139815e-38
-0.014960017 0.024933338 0.74800003 5.1433189e-39
-0.013535261 0.024933353 0.74800003 2.9406304e-39
-0.012094334 0.024900012 0.74700004 8.2842383e-40
-0.01067147 0.024900004 0.74700004 9.2277886e-40
-0.009223829 0.024833351 0.74500006 1.0171199e-39
-0.0078047826 0.024833344 0.74500006 8.3129089e-40
-0.0063857106 0.024833351 0.74500006 6.4758907e-40
-0.0049666953 0.024833344 0.74500006 3.7896954e-39
-0.0035476224 0.024833336 0.74500006 6.9333011e-39
-0.0021228646 0.024766669 0.74300003 5.6261124e-39
-0.00070766773 0.024766676 0.74300003 4.3229301e-39
0.00070758682 0.024766676 0.74300003 9.1336242e-39
0.0021228413 0.024766669 0.74300003 1.394996e-38
0.0035380921 0.024766676 0.74300003 1.4402675e-38
0.0049532908 0.024766684 0.74300003 1.4944641e-38
0.0064028413 0.024899997 0.74700004 7.4560219e-39
0.0078256764 0.024900012 0.74699998 9.2327352e-41
0.0092485398 0.024900004 0.74700004 6.4657453e-40
0.010671404 0.024900004 0.74700004 1.2915628e-39
0.01209424 0.024900012 0.74699998 9.2313059e-40
0.013517104 0.024900012 0.74700004 5.5433546e-40
0.014959986 0.024933338 0.74800003 7.3691063e-40
0.016384717 0.024933338 0.74800003 1.0120766e-39
0.017809505 0.024933346 0.74800003 1.9372657e-39
0.019285699 0.025000006 0.75000006 2.9550162e-39
0.020714277 0.025000021 0.75000006 3.4138615e-39
0.022201901 0.025066681 0.75200003 3.9634228e-39
0.023665689 0.025100015 0.75300002 4.1474357e-39
0.02516667 0.025166675 0.75500005 4.4229338e-39
0.026604753 0.025166683 0.75500005 2.303893e-39
0.02807997 0.025200009 0.75600004 9.2360983e-41
0.029519949 0.025200009 0.75600004 8.9437776e-39
0.031164747 0.025366679 0.76100004 1.7705108e-38
0.03278568 0.025500007 0.76500005 2.0564929e-38
0.034332369 0.025566667 0.76700002 2.3417597e-38
0.035839979 0.025600016 0.76800001 2.3323636e-38
0.037302848 0.025600016 0.76800001 2.3227866e-38
0.038866661 0.025666676 0.77000004 2.3229311e-38
0.040333316 0.025666676 0.77000004 2.323073e-38
-0.076842852 0.028719068 0.81500006 2.7555091e-39
-0.074828602 0.028542861 0.81000006 7.3726516e-40
-0.073285729 0.028542876 0.81000006 4.5958946e-40
-0.071742885 0.028542876 0.81000006 1.027348e-40
-0.070200011 0.028542869 0.81000006 1.1062453e-38
-0.068487667 0.028472401 0.80800003 2.1935333e-38
-0.067114301 0.028542876 0.81000006 2.2682993e-38
-0.06557145 0.028542861 0.81000006 2.3417676e-38
-0.064186715 0.028613344 0.81200004 2.3417675e-38
-0.062640019 0.028613329 0.81200004 2.3417682e-38
-0.039018117 0.027239047 0.77300006 5.0787218e-39
-0.037497137 0.027203821 0.77200001 8.7856117e-39
-0.035933368 0.027133338 0.77000004 1.2438851e-38
-0.034242898 0.026957139 0.76500005 6.4493641e-39
-0.032700013 0.026886672 0.76300001 3.756727e-40
-0.031123817 0.026780955 0.76000005 4.6572295e-40
-0.029598074 0.02671048 0.75800008 5.5719551e-40
-0.028154274 0.02671048 0.75800002 8.3126146e-40
-0.026640045 0.026640005 0.75600004 1.1056805e-39
-0.025200037 0.026640005 0.75600004 6.4649325e-40
-0.023728563 0.026604779 0.75500005 1.8552631e-40
-0.02223145 0.026534297 0.75300002 2.296312e-39
-0.020769566 0.026499063 0.75200003 4.4369594e-39
-0.01933717 0.026499063 0.75200003 1.0738185e-38
-0.01785714 0.026428573 0.75000006 1.686493e-38
-0.016428592 0.026428588 0.75000006 8.471264e-39
-0.015000012 0.026428573 0.75000006 9.7712542e-41
-0.013535237 0.026358105 0.74800003 8.2699731e-40
-0.012094317 0.026322871 0.74700004 1.4730786e-39
-0.010671454 0.026322864 0.74700004 9.2601586e-40
-0.009248618 0.026322871 0.74700004 2.7993039e-40
-0.0078047751 0.026252411 0.745 1.8557676e-40
-0.0063857292 0.026252396 0.74500006 1.0451304e-40
-0.0049666842 0.026252382 0.74500006 6.4698721e-39
-0.0035476419 0.026252396 0.745 1.271866e-38
-0.0021228944 0.026181899 0.74300003 1.0696873e-38
-0.00070763979 0.026181914 0.74300003 8.5753791e-39
0.00070758496 0.026181929 0.74300003 9.7696497e-39
0.0021285391 0.026252404 0.74500006 1.0899291e-38
0.0035476121 0.026252396 0.74500006 1.210642e-38
0.004966659 0.026252396 0.74500006 1.3181825e-38
0.0063856984 0.026252396 0.745 6.6126434e-39
0.007825694 0.026322871 0.74700004 9.3403549e-41
0.0092485584 0.026322857 0.74700004 6.4728919e-40
0.010671394 0.026322871 0.74699998 1.1982938e-39
0.012094258 0.026322864 0.74700004 8.3058323e-40
0.013517121 0.026322864 0.74700004 3.7067427e-40
0.014959979 0.026358113 0.74800003 8.2804268e-40
0.016384739 0.026358098 0.74800003 1.1982657e-39
0.017809497 0.02635812 0.74800003 2.1230891e-39
0.019285705 0.026428573 0.75000006 3.0454069e-39
0.020714281 0.026428588 0.75000006 3.5063949e-39
0.022201886 0.026499063 0.75200003 3.872997e-39
0.023665709 0.026534297 0.75300008 4.2396005e-39
0.02516664 0.026604772 0.75500005 4.6051502e-39
0.026604753 0.026604779 0.75500005 2.3960774e-39
0.028079974 0.026640013 0.75600004 1.0347328e-40
0.029598104 0.026710488 0.75800008 8.6689802e-39
0.031164743 0.026816204 0.76100004 1.7242001e-38
0.032785691 0.026957154 0.76500005 2.0385607e-38
0.034332395 0.027027622 0.76700002 2.3416185e-38
0.035839979 0.027062871 0.76800001 2.3230727e-38
0.037302848 0.027062878 0.76800001 2.2952714e-38
0.038866643 0.027133338 0.77000004 2.3040968e-38
0.040333297 0.027133331 0.77000004 2.304562e-38
-0.076748624 0.030234277 0.81400001 3.307255e-39
-0.074828602 0.030085735 0.81000006 5.5468018e-40
-0.073285729 0.030085728 0.81000006 2.7700027e-40
-0.071742862 0.030085728 0.81000006 9.2324549e-41
-0.070200019 0.030085728 0.81000006 1.0878043e-38
-0.068487652 0.030011445 0.80800003 2.1764567e-38
-0.067114323 0.03008572 0.81000006 2.2591158e-38
-0.065571427 0.030085728 0.81000006 2.3417677e-38
-0.064186707 0.030160002 0.81200004 2.3417676e-38
-0.06279432 0.0302343 0.81400001 2.3417683e-38
-0.061243836 0.0302343 0.81400001 2.341769e-38
