# .PCD v0.7 - Point Cloud Data file format
VERSION 0.7
FIELDS x y z rgb
SIZE 4 4 4 4
TYPE F F F F
COUNT 1 1 1 1
WIDTH 937
HEIGHT 1
VIEWPOINT 0 0 0 1 0 0 0
POINTS 937
DATA ascii
-0.014584766 -0.016120024 0.80600011 4.6219027e-40
-0.013049526 -0.016120024 0.80600005 4.6432305e-40
-0.01151429 -0.016120017 0.80600011 5.5434526e-40
-0.0099790422 -0.016120002 0.80600011 5.5542006e-40
-0.0084438203 -0.016120024 0.80600011 3.7031274e-40
-0.0069085732 -0.016120009 0.80600011 2.8027651e-40
-0.0053866613 -0.016160011 0.80800003 2.7812972e-40
-0.0038476281 -0.016160034 0.80800009 2.7739544e-40
-0.0023085689 -0.016160019 0.80800009 2.7666116e-40
-0.00076572358 -0.016080007 0.80400008 2.7594369e-40
0.00076570112 -0.016080022 0.80400008 1.3808395e-39
0.0022971362 -0.016080014 0.80400008 2.4821424e-39
0.0038285612 -0.016080022 0.80400008 1.8403631e-39
0.0053466791 -0.016039997 0.80200005 1.2861173e-39
0.0068742922 -0.016040005 0.80200005 1.2882655e-39
0.0083809486 -0.016000018 0.80000001 1.2861005e-39
0.0099047497 -0.016000018 0.80000007 1.290034e-39
0.01139999 -0.015960015 0.7980001 1.2882711e-39
0.012919992 -0.015960015 0.7980001 1.8421848e-39
0.014421903 -0.015940011 0.79700005 2.392144e-39
0.015940007 -0.015940003 0.79700005 2.1223982e-39
0.0174581 -0.015940011 0.79700005 1.943402e-39
0.018928567 -0.015900008 0.79500002 2.6784545e-39
0.02039142 -0.015860021 0.7930001 3.4163544e-39
0.021846669 -0.015820011 0.79100001 3.2315932e-39
0.023294274 -0.015780009 0.78900003 3.0482768e-39
0.024797134 -0.015780017 0.78900003 3.4138195e-39
0.026299994 -0.015780017 0.78900003 3.872599e-39
0.027802855 -0.015780017 0.78900009 6.8267211e-39
0.029268565 -0.015759997 0.78800011 9.864484e-39
0.02940286 -0.015060008 0.75300002 9.6793949e-39
0.030837145 -0.015060008 0.75300002 9.5875776e-39
-0.03842001 -0.014313348 0.79100007 1.5713671e-39
-0.036913346 -0.014313348 0.79100007 1.6617704e-39
-0.035406671 -0.014313333 0.79100001 1.3819633e-39
-0.033985719 -0.014349543 0.79300004 1.1086008e-39
-0.032557145 -0.014385715 0.79500002 8.3129369e-40
-0.031120945 -0.01442191 0.79700005 4.6214403e-40
-0.02964 -0.014440008 0.79800004 5.5324945e-40
-0.028119996 -0.014440008 0.79800004 5.5326486e-40
-0.026600001 -0.014440015 0.79800004 7.3659394e-40
-0.025142854 -0.01447621 0.80000001 9.2134954e-40
-0.023619052 -0.01447621 0.80000001 9.2243414e-40
-0.022095244 -0.01447621 0.80000001 8.2916372e-40
-0.020571435 -0.014476217 0.80000007 7.3625202e-40
-0.019095238 -0.01451239 0.80200005 6.4404798e-40
-0.017611429 -0.014548585 0.80400008 3.6817295e-40
-0.016080011 -0.0145486 0.80400008 9.3023797e-41
-0.014584758 -0.014584772 0.80600005 9.2304931e-41
-0.013049529 -0.01458478 0.80600011 9.3731453e-41
-0.011514282 -0.01458478 0.80600005 9.2288116e-41
-0.009979045 -0.014584787 0.80600011 9.3369918e-41
-0.0084438128 -0.014584765 0.80600011 9.2297925e-41
-0.0069085751 -0.01458478 0.80600011 9.3731453e-41
-0.005386672 -0.014620975 0.80800009 9.2295122e-41
-0.0038476128 -0.014620975 0.80800009 9.7698529e-41
-0.0023085685 -0.014620967 0.80800003 2.7601096e-40
-0.00076571893 -0.014548592 0.80400008 3.7860002e-40
0.00076570577 -0.014548592 0.80400008 2.1198801e-39
0.0022971409 -0.014548592 0.80400008 3.8701355e-39
0.0038285658 -0.0145486 0.80400008 3.0407476e-39
0.0053466763 -0.014512382 0.80200005 2.1205934e-39
0.0068742894 -0.01451239 0.80200005 2.1205878e-39
0.0083809532 -0.014476217 0.80000001 2.0291012e-39
0.0099047543 -0.014476217 0.80000001 2.2167098e-39
0.011400002 -0.014440008 0.79800004 2.3986096e-39
0.012903808 -0.01442191 0.79700005 3.0429168e-39
0.013318104 -0.013318114 0.73600006 3.5950032e-39
0.015940005 -0.01442191 0.79700005 3.6007415e-39
0.017458094 -0.01442191 0.79700005 3.506762e-39
0.018928573 -0.014385715 0.79500002 3.6000409e-39
0.020391418 -0.014349535 0.79300004 3.5993066e-39
0.021846667 -0.014313348 0.79100001 2.9564413e-39
0.023353323 -0.014313348 0.79100007 2.2203042e-39
0.024797138 -0.014277153 0.78900003 2.8617009e-39
0.026299998 -0.014277153 0.78900009 3.5099051e-39
0.027802844 -0.014277153 0.78900009 6.6469948e-39
0.029268563 -0.014259048 0.78800005 9.7708436e-39
0.029285707 -0.013571441 0.75000006 9.7708506e-39
0.030837156 -0.013625726 0.75300002 9.6793753e-39
0.032400001 -0.013680004 0.75600004 9.5871824e-39
-0.039926682 -0.012806684 0.79100007 9.2348652e-40
-0.038419995 -0.012806676 0.79100001 1.0160297e-39
-0.036913339 -0.012806676 0.79100001 1.1972021e-39
-0.035406668 -0.012806676 0.79100001 1.1064541e-39
-0.033985715 -0.012839057 0.79300004 1.1064471e-39
-0.032557141 -0.012871437 0.79500002 7.3873793e-40
-0.031120945 -0.012903817 0.79700005 4.6141255e-40
-0.029602859 -0.012903817 0.79700005 4.6210339e-40
-0.028120002 -0.012920007 0.79800004 5.5361519e-40
-0.026600007 -0.012920015 0.7980001 8.2951404e-40
-0.02514286 -0.012952395 0.80000007 1.0128305e-39
-0.023619046 -0.012952387 0.80000001 1.0131934e-39
-0.022095239 -0.012952387 0.80000001 1.0117599e-39
-0.020571429 -0.012952387 0.80000001 1.1035954e-39
-0.01909524 -0.012984768 0.80200005 1.1943379e-39
-0.01756762 -0.012984775 0.80200005 1.1964735e-39
-0.016080003 -0.013017155 0.80400002 1.2861454e-39
-0.01458476 -0.013049543 0.80600011 3.2243653e-39
-0.013049521 -0.013049535 0.80600005 5.1439453e-39
-0.011514285 -0.013049543 0.80600011 5.4298578e-39
-0.0099790515 -0.013049535 0.80600005 5.6942548e-39
-0.0084438147 -0.01304955 0.80600011 5.6135512e-39
-0.0069085676 -0.013049543 0.80600011 5.603857e-39
-0.0053866715 -0.013081931 0.80800009 5.8033024e-39
-0.0038476125 -0.013081931 0.80800003 6.0813817e-39
-0.0023085785 -0.013081931 0.80800009 5.9056645e-39
-0.00076572894 -0.013017163 0.80400008 5.8213483e-39
0.00076570624 -0.013017155 0.80400002 5.9999817e-39
0.0022971311 -0.013017163 0.80400008 6.1847359e-39
0.0038285556 -0.01301717 0.80400008 3.9667004e-39
0.0053466633 -0.01298476 0.80200011 1.7590542e-39
0.006874287 -0.012984753 0.80200005 1.7561773e-39
0.007710489 -0.011916198 0.73600006 1.6657725e-39
0.0091123851 -0.011916205 0.73600006 1.8490792e-39
0.010514292 -0.011916198 0.73600006 2.0367116e-39
0.011916188 -0.011916213 0.73600012 2.4941095e-39
0.013318094 -0.011916213 0.73600006 3.0486846e-39
0.014720001 -0.011916198 0.73600006 3.138341e-39
0.01607809 -0.011883825 0.73400003 3.3213016e-39
0.01747619 -0.011883825 0.73400009 3.4142189e-39
0.020391433 -0.012839049 0.79300004 3.5060347e-39
0.021846661 -0.012806676 0.79100007 3.2305072e-39
0.023353329 -0.012806684 0.79100001 2.9538951e-39
0.02486 -0.012806684 0.79100001 2.9527881e-39
0.024833344 -0.012061901 0.74500006 2.9534944e-39
0.026322862 -0.012094297 0.74700004 6.3657458e-39
0.027782869 -0.012110479 0.74800003 9.7697562e-39
0.029285699 -0.012142882 0.75000012 9.8626651e-39
0.030837141 -0.012191445 0.75300008 9.9548439e-39
0.032357141 -0.012223825 0.75500011 9.6786031e-39
-0.044036202 -0.010828577 0.75800002 3.4080391e-39
-0.042592384 -0.010828577 0.75800002 2.8566506e-39
-0.041148581 -0.01082857 0.75800002 2.2127652e-39
-0.039600011 -0.010800011 0.7560001 1.2948082e-39
-0.038160004 -0.010800019 0.7560001 2.8281286e-40
-0.038420003 -0.011300012 0.79100001 4.6360278e-40
-0.036913346 -0.01130002 0.79100001 6.4836539e-40
-0.035406675 -0.01130002 0.79100007 9.2424742e-40
-0.033900008 -0.011300005 0.79100001 1.1082659e-39
-0.032475241 -0.011328585 0.79300004 7.3947781e-40
-0.031042861 -0.011357151 0.79500002 3.7249036e-40
-0.029602852 -0.011385716 0.79700005 4.6360418e-40
-0.028120007 -0.011400007 0.7980001 5.5545089e-40
-0.026600005 -0.011400014 0.7980001 8.3132732e-40
-0.025142863 -0.011428587 0.80000001 1.1064765e-39
-0.023619054 -0.011428587 0.80000001 1.1057604e-39
-0.022095233 -0.011428587 0.80000001 1.1061234e-39
-0.020571426 -0.011428587 0.80000001 1.4723919e-39
-0.019095235 -0.01145713 0.80200005 1.7507683e-39
-0.017567614 -0.011457145 0.80200005 2.1209815e-39
-0.016080007 -0.011485733 0.80400008 2.4047417e-39
-0.014548582 -0.011485733 0.80400008 6.3755535e-39
-0.013049523 -0.011514306 0.80600011 1.0225854e-38
-0.01148573 -0.011485741 0.80400008 1.0789087e-38
-0.0099790543 -0.011514299 0.80600011 1.1239652e-38
-0.0084438073 -0.011514291 0.80600011 1.1247543e-38
-0.00690857 -0.011514306 0.80600011 1.1148519e-38
-0.0053866711 -0.011542886 0.80800003 1.1619879e-38
-0.0038476121 -0.011542864 0.80800003 1.1981861e-38
-0.0023085785 -0.011542879 0.80800009 1.1627455e-38
-0.00076572405 -0.011485733 0.80400008 1.1151773e-38
0.00076571089 -0.011485726 0.80400008 9.7821311e-39
0.0022914351 -0.011457138 0.80200005 8.3809013e-39
0.0038190482 -0.011457138 0.80200005 4.8821631e-39
0.0053466619 -0.011457145 0.80200005 1.3898947e-39
0.0063171405 -0.010528594 0.73700011 1.3873766e-39
0.0077104806 -0.010514297 0.73600006 1.2944579e-39
0.009112387 -0.010514297 0.73600006 1.4770471e-39
0.010514284 -0.010514289 0.73600012 1.5714049e-39
0.011916189 -0.010514304 0.73600006 2.0309523e-39
0.013318087 -0.010514311 0.73600012 2.4000725e-39
0.014720008 -0.010514297 0.73600006 2.7656055e-39
0.016121916 -0.010514297 0.73600006 3.0447049e-39
0.017523812 -0.010514304 0.73600012 3.2290989e-39
0.018951429 -0.010528579 0.73700011 3.3219994e-39
0.020493323 -0.010600016 0.7420001 3.5060179e-39
0.021906665 -0.010600038 0.7420001 3.596759e-39
0.023414293 -0.010642856 0.74500006 3.0417818e-39
0.024833344 -0.010642856 0.74500006 2.4042905e-39
0.026252383 -0.010642864 0.74500012 6.0931134e-39
0.027782865 -0.010685727 0.74800003 9.7693961e-39
0.029207628 -0.010685734 0.74800003 9.954495e-39
0.030796196 -0.010742858 0.75200003 1.0138167e-38
0.032271422 -0.010757163 0.75300008 9.8619462e-39
-0.044036195 -0.0093847513 0.75800002 3.3212679e-39
-0.042592391 -0.0093847737 0.75800008 2.6751895e-39
-0.041040007 -0.0093600154 0.75600004 2.031646e-39
-0.039600007 -0.0093600154 0.75600004 1.3881024e-39
-0.037958089 -0.0093104839 0.75200003 7.4560008e-40
-0.036525704 -0.0093104765 0.75200003 8.3419438e-40
-0.036820002 -0.009768568 0.78900003 9.2712569e-40
-0.035317149 -0.0097685829 0.78900003 9.2642784e-40
-0.033900011 -0.0097933412 0.79100001 1.0193255e-39
-0.03239334 -0.0097933486 0.79100007 6.5017586e-40
-0.028856196 -0.0091495365 0.73900008 3.7612252e-40
-0.027448576 -0.0091495439 0.73900008 5.5801667e-40
-0.026040955 -0.009149529 0.73900002 7.4095898e-40
-0.024633333 -0.0091495365 0.73900002 1.1075709e-39
-0.023225714 -0.0091495365 0.73900008 1.4756289e-39
-0.021818103 -0.0091495439 0.73900008 1.2915978e-39
-0.020410482 -0.0091495216 0.73900002 1.2012043e-39
-0.019002862 -0.0091495365 0.73900008 1.3852396e-39
-0.01754762 -0.0091247782 0.73700011 1.5725161e-39
-0.016078094 -0.0090876296 0.73400003 1.8491156e-39
-0.014640004 -0.0090628713 0.73200011 2.131815e-39
-0.013245718 -0.0090628639 0.73200011 4.4399161e-39
-0.011851427 -0.0090628564 0.73200005 6.7476879e-39
-0.010414288 -0.0090257302 0.72900003 6.9310464e-39
-0.0090504782 -0.0090504736 0.73100007 7.2180169e-39
-0.0076580923 -0.0090504885 0.73100007 6.4696843e-39
-0.0062657134 -0.0090504959 0.73100001 5.7450266e-39
-0.004873326 -0.0090504736 0.73100001 5.9154063e-39
-0.0038380937 -0.0099790618 0.80600011 6.1087435e-39
-0.0023028613 -0.0099790543 0.80600005 5.8163555e-39
-0.00076571939 -0.009954311 0.80400008 5.6204988e-39
0.00076570112 -0.0099542961 0.80400008 4.9758665e-39
0.0021028651 -0.0091123953 0.73600006 4.2249905e-39
0.003504772 -0.0091123879 0.73600006 2.7631069e-39
0.0049066688 -0.0091124028 0.73600006 1.3880772e-39
0.0063085756 -0.0091124028 0.73600006 1.2022454e-39
0.0077104722 -0.0091124028 0.73600012 1.0149801e-39
0.0091123786 -0.0091124028 0.73600006 9.2385366e-40
0.010528567 -0.0091247708 0.73700011 9.2457953e-40
0.011932385 -0.0091247708 0.73700005 1.6617816e-39
0.013318103 -0.0091124028 0.73600006 2.3971789e-39
0.014719999 -0.0091123953 0.73600012 2.8592206e-39
0.016143808 -0.0091247708 0.73700011 3.229438e-39
0.017547617 -0.0091247708 0.73700011 3.5049487e-39
0.019002859 -0.009149529 0.73900002 3.7811713e-39
0.020493329 -0.0091866851 0.7420001 3.8733627e-39
0.02190667 -0.0091866702 0.7420001 3.9662688e-39
0.023351435 -0.0091990754 0.74300009 2.9496142e-39
0.024833344 -0.0092238113 0.74500006 1.9372363e-39
0.026252385 -0.0092238113 0.74500006 5.9044229e-39
0.027745727 -0.0092485696 0.74700004 9.8623064e-39
0.029207624 -0.0092609674 0.74800009 9.8637287e-39
0.030796202 -0.0093104616 0.75200003 9.9552265e-39
0.032142848 -0.0092857257 0.75000006 9.8630519e-39
-0.04403621 -0.0079409555 0.75800008 3.2265416e-39
-0.042592388 -0.007940948 0.75800008 2.58334e-39
-0.041148577 -0.0079409629 0.75800002 1.8475952e-39
-0.039390471 -0.0078780875 0.75200003 1.4806274e-39
-0.037958078 -0.0078780949 0.75200003 1.1111274e-39
-0.036282845 -0.0078257099 0.74700004 1.1082505e-39
-0.034859993 -0.0078257248 0.74700004 1.1097009e-39
-0.035317156 -0.0082657188 0.78900003 1.018957e-39
-0.031714275 -0.0077523887 0.74000001 8.3384265e-40
-0.030263811 -0.0077419057 0.73900002 6.4908846e-40
-0.02885619 -0.0077419207 0.73900008 3.7431905e-40
-0.027448578 -0.0077419207 0.73900008 6.5127868e-40
-0.026040958 -0.0077419207 0.73900008 8.3278467e-40
-0.024633337 -0.0077419132 0.73900002 1.2908733e-39
-0.023225717 -0.0077419132 0.73900008 1.7500494e-39
-0.021759056 -0.0077209547 0.73700011 1.5667358e-39
-0.020410474 -0.0077419132 0.73900002 1.2923111e-39
-0.01895144 -0.0077209771 0.73700011 1.2941103e-39
-0.017547622 -0.0077209473 0.73700005 1.2948432e-39
-0.016078096 -0.0076895356 0.73400003 1.5710812e-39
-0.014680004 -0.007689558 0.73400009 1.7594171e-39
-0.013245719 -0.007668592 0.73200011 2.5037882e-39
-0.011851438 -0.007668592 0.73200011 3.1498919e-39
-0.010442856 -0.0076581165 0.73100001 3.1527898e-39
-0.0090504764 -0.0076581016 0.73100001 3.0559083e-39
-0.0076580895 -0.0076581016 0.73100001 1.6683075e-39
-0.0062657106 -0.0076580867 0.73100001 2.9326374e-40
-0.0048800106 -0.007668592 0.73200011 1.8705793e-40
-0.0034857134 -0.0076685771 0.73200011 1.0490961e-40
-0.0020885689 -0.0076580942 0.73100001 9.2355378e-41
-0.00069905602 -0.0076895431 0.73400009 9.7031511e-41
0.00069904636 -0.0076895356 0.73400003 9.23792e-41
0.0021028572 -0.0077104941 0.73600012 9.4869307e-41
0.0035047636 -0.0077104867 0.73600006 7.4092675e-40
0.0049066707 -0.0077104867 0.73600006 1.2933649e-39
0.0063085672 -0.0077105016 0.73600006 1.0182073e-39
0.0077104741 -0.0077104867 0.73600006 7.3981412e-40
0.0091123842 -0.0077105016 0.73600012 4.6249716e-40
0.010514292 -0.0077104867 0.73600006 1.8916408e-40
0.011916198 -0.0077104867 0.73600006 1.2944382e-39
0.013318094 -0.007710509 0.73600012 2.3982565e-39
0.014720001 -0.0077104941 0.73600006 2.9521393e-39
0.016143816 -0.0077209547 0.73700005 3.4109552e-39
0.017547622 -0.0077209622 0.73700011 3.7800895e-39
0.019002846 -0.0077419207 0.73900008 4.1449175e-39
0.02043809 -0.0077523962 0.74000001 4.2399802e-39
0.021847621 -0.0077523962 0.74000001 4.2353139e-39
0.023320008 -0.0077733621 0.7420001 2.8531165e-39
0.024766672 -0.0077838302 0.74300009 1.3908896e-39
0.02618191 -0.0077838227 0.74300003 5.6335842e-39
0.027671427 -0.0078047663 0.74500012 9.8619546e-39
0.029168572 -0.0078257173 0.74700004 9.8669685e-39
0.030591436 -0.0078257248 0.74700004 9.7722729e-39
0.032142863 -0.0078571513 0.75000006 9.9548789e-39
0.033571422 -0.0078571588 0.75000006 1.0047084e-38
-0.042592388 -0.0064971298 0.75800002 2.4889793e-39
-0.041040014 -0.0064800233 0.7560001 1.9379748e-39
-0.039390467 -0.0064457208 0.75200003 1.5706412e-39
-0.037958089 -0.0064457282 0.75200009 1.2929823e-39
-0.036282852 -0.0064028576 0.74700004 1.2926236e-39
-0.034766659 -0.0063857138 0.74500006 1.384829e-39
-0.033258099 -0.0063685924 0.74300003 1.1089736e-39
-0.031714275 -0.0063428581 0.74000001 7.4019668e-40
-0.030304763 -0.0063428655 0.74000001 5.5544809e-40
-0.028856192 -0.0063342974 0.73900002 3.7179811e-40
-0.027448572 -0.0063343123 0.73900008 5.5620619e-40
-0.02604096 -0.0063342974 0.73900008 8.309826e-40
-0.024633331 -0.0063342974 0.73900002 1.1979518e-39
-0.023225719 -0.0063342825 0.73900008 1.564575e-39
-0.02175905 -0.0063171461 0.73700011 1.2897845e-39
-0.020355243 -0.0063171536 0.73700011 1.1064779e-39
-0.018951435 -0.0063171461 0.73700011 1.107917e-39
-0.017547628 -0.0063171536 0.73700011 1.1082884e-39
-0.016121907 -0.006308578 0.73600006 1.1082996e-39
-0.014680002 -0.0062914342 0.73400003 1.1976085e-39
-0.013281911 -0.0062914416 0.73400009 1.6639452e-39
-0.01185144 -0.0062742978 0.73200011 2.1231325e-39
-0.010457142 -0.0062742978 0.73200005 2.0313054e-39
-0.009062863 -0.0062742904 0.73200011 1.8372004e-39
-0.0076685823 -0.0062742978 0.73200011 1.1989832e-39
-0.0062742848 -0.0062743053 0.73200011 4.5961048e-40
-0.0048800041 -0.0062742978 0.73200011 2.7770653e-40
-0.0034857148 -0.0062742904 0.73200005 1.8410119e-40
-0.0020914341 -0.0062742904 0.73200011 3.6851347e-40
-0.00069715426 -0.0062742978 0.73200011 6.4331651e-40
0.00069904496 -0.0062914491 0.73400009 6.4512278e-40
0.0021028591 -0.0063085854 0.73600006 6.4800105e-40
0.0035047554 -0.006308578 0.73600012 9.2351454e-40
0.0049066623 -0.0063085929 0.73600006 1.2908467e-39
0.0063085691 -0.0063085854 0.73600006 1.1993587e-39
0.0077104801 -0.0063085854 0.73600012 1.1982573e-39
0.009112386 -0.0063085929 0.73600006 6.4650026e-40
0.010514294 -0.006308578 0.73600006 1.8771514e-40
0.011916189 -0.0063085854 0.73600006 7.4091274e-40
0.013318096 -0.0063085854 0.73600006 1.296592e-39
0.01474 -0.0063171461 0.73700011 1.4777547e-39
0.01614381 -0.006317161 0.73700011 1.7539703e-39
0.017547617 -0.0063171536 0.73700011 2.5779688e-39
0.019002844 -0.0063342974 0.73900008 3.4001821e-39
0.020438101 -0.0063428655 0.74000001 4.1427553e-39
0.021847621 -0.006342873 0.74000001 4.8717024e-39
0.023320001 -0.0063600242 0.7420001 2.8513229e-39
0.02476668 -0.0063685849 0.74300003 8.3306353e-40
0.026181908 -0.0063685924 0.74300009 4.9846414e-39
0.027745727 -0.0064028576 0.74700004 9.2169608e-39
0.029207628 -0.0064114258 0.74800003 9.3116605e-39
0.030714292 -0.0064285845 0.75000006 9.4034974e-39
0.032142855 -0.0064285845 0.75000006 9.7711995e-39
-0.042592395 -0.0050533339 0.75800008 2.4868115e-39
-0.041040011 -0.0050400198 0.75600004 2.0287158e-39
-0.039390463 -0.0050133318 0.75200003 1.7542926e-39
-0.037857149 -0.0050000101 0.75000006 1.3858604e-39
-0.036331419 -0.0049866661 0.74800003 1.5677237e-39
-0.034859996 -0.0049800128 0.74700004 1.6588613e-39
-0.033347622 -0.0049666613 0.74500012 1.1993447e-39
-0.031799998 -0.0049466863 0.74200004 6.4651988e-40
-0.030304763 -0.0049333423 0.74000001 5.5251377e-40
-0.028895237 -0.0049333423 0.74000001 3.6958967e-40
-0.027448572 -0.0049266741 0.73900008 5.5365022e-40
-0.026040956 -0.0049266815 0.73900008 7.3839181e-40
-0.024633333 -0.0049266741 0.73900002 1.013534e-39
-0.023225714 -0.0049266741 0.73900002 1.2886817e-39
-0.021818101 -0.0049266815 0.73900008 1.1053709e-39
-0.020410482 -0.0049266741 0.73900008 8.3021609e-40
-0.018951431 -0.0049133375 0.73700005 8.3128388e-40
-0.017547622 -0.004913345 0.73700011 8.3094617e-40
-0.016121907 -0.0049066842 0.73600012 7.3913309e-40
-0.014680003 -0.0048933402 0.73400003 6.4691925e-40
-0.013281913 -0.0048933551 0.73400009 9.2276625e-40
-0.011851434 -0.0048800036 0.73200011 1.1071715e-39
-0.010457144 -0.0048800036 0.73200005 9.1993142e-40
-0.0090628639 -0.0048800185 0.73200011 6.4584025e-40
-0.0076685757 -0.0048800036 0.73200011 6.4761569e-40
-0.0062742857 -0.0048800036 0.73200005 6.4616535e-40
-0.0048800055 -0.0048800185 0.73200011 4.6355514e-40
-0.003485726 -0.0048800111 0.73200011 1.8698787e-40
-0.002091428 -0.0048800111 0.73200011 6.4618216e-40
-0.00069714774 -0.0048800185 0.73200011 1.1039345e-39
0.00069904403 -0.0048933476 0.73400009 1.1043031e-39
0.0021028502 -0.0049066842 0.73600012 1.1053877e-39
0.0035047571 -0.0049066693 0.73600006 1.197949e-39
0.004906679 -0.0049066767 0.73600006 1.2897691e-39
0.0063085752 -0.0049066916 0.73600006 1.4730674e-39
0.007710482 -0.0049066767 0.73600006 1.5641686e-39
0.0091123777 -0.0049066842 0.73600012 8.2982793e-40
0.010514284 -0.0049066767 0.73600006 9.4088784e-41
0.011916191 -0.0049066767 0.73600006 9.2317543e-41
0.013318102 -0.0049066916 0.73600006 9.5188803e-41
0.014740006 -0.004913345 0.73700011 9.2321747e-41
0.016143816 -0.0049133301 0.73700011 9.9162886e-41
0.017595237 -0.0049266741 0.73900008 1.3780705e-39
0.019002857 -0.0049266815 0.73900008 2.6824118e-39
0.020438105 -0.0049333349 0.74000001 4.1506951e-39
0.021847622 -0.0049333498 0.74000001 5.5281855e-39
0.023351435 -0.0049533471 0.74300003 2.8473362e-39
0.024766663 -0.004953362 0.74300003 1.9737149e-40
0.026252393 -0.0049666688 0.74500012 4.3468208e-39
0.027745722 -0.0049799979 0.74700004 8.4819237e-39
0.029207628 -0.004986681 0.74800003 8.7592182e-39
0.030714281 -0.0050000176 0.75000006 8.9443283e-39
0.032228585 -0.0050133392 0.75200009 9.6793753e-39
-0.042592384 -0.0036095232 0.75800002 2.9456149e-39
-0.041040011 -0.0036000162 0.7560001 2.5786358e-39
-0.039390475 -0.0035809651 0.75200009 2.0294193e-39
-0.037857153 -0.0035714433 0.75000006 1.57129e-39
-0.036282852 -0.0035571381 0.74700004 1.4765566e-39
-0.034859996 -0.0035571605 0.7470001 1.3818807e-39
-0.03334761 -0.0035476238 0.74500006 1.1056847e-39
-0.031800002 -0.0035333559 0.7420001 8.2799083e-40
-0.030304765 -0.0035238266 0.74000001 7.3576157e-40
-0.028895237 -0.0035238117 0.74000001 6.4324784e-40
-0.027448578 -0.0035190508 0.73900002 8.2875173e-40
-0.026040958 -0.0035190582 0.73900008 1.0138605e-39
-0.024633339 -0.0035190582 0.73900008 1.1046212e-39
-0.023225715 -0.0035190508 0.73900002 1.2868614e-39
-0.021759048 -0.0035095289 0.73700011 1.1042694e-39
-0.02035524 -0.0035095289 0.73700011 8.2838459e-40
-0.018951435 -0.0035095438 0.73700011 9.2127527e-40
-0.017547626 -0.0035095289 0.73700011 1.0127829e-39
-0.016121898 -0.003504768 0.73600006 8.3057763e-40
-0.014720003 -0.0035047829 0.73600012 6.4652688e-40
-0.013281913 -0.0034952462 0.73400009 9.2308715e-40
-0.01188381 -0.0034952536 0.73400003 1.1975427e-39
-0.010485719 -0.0034952685 0.73400009 7.383904e-40
-0.0090628574 -0.0034857169 0.73200011 3.7211901e-40
-0.0076685762 -0.0034857318 0.73200011 3.7175467e-40
-0.0062742862 -0.0034857094 0.73200005 4.6322583e-40
-0.0048800069 -0.0034857243 0.73200011 2.7883177e-40
-0.0034952427 -0.0034952536 0.73400003 1.8808228e-40
-0.0020914299 -0.0034857243 0.73200011 3.6996802e-40
-0.00069904857 -0.0034952462 0.73400003 6.4440391e-40
0.0006990431 -0.0034952462 0.73400009 6.4440952e-40
0.002102867 -0.0035047829 0.73600006 6.440606e-40
0.0035047634 -0.0035047755 0.73600012 6.451452e-40
0.0049066702 -0.003504768 0.73600006 7.3732121e-40
0.0063085775 -0.0035047755 0.73600006 1.1957616e-39
0.0077104736 -0.0035047755 0.73600012 1.6534986e-39
0.0091123795 -0.0035047755 0.73600006 2.4807299e-39
0.010514276 -0.0035047755 0.73600012 3.3983772e-39
0.011932372 -0.0035095215 0.73700011 4.9682e-39
0.01333618 -0.0035095289 0.73700011 6.6133496e-39
0.014740002 -0.0035095364 0.73700011 6.9093053e-39
0.016143795 -0.0035095364 0.73700011 7.1816434e-39
0.017595235 -0.0035190433 0.73900002 8.2087546e-39
0.019002855 -0.0035190657 0.73900008 9.3308541e-39
0.020438105 -0.0035238117 0.74000001 9.4154995e-39
0.021906672 -0.0035333633 0.7420001 9.5083244e-39
0.023351435 -0.0035381094 0.74300003 4.7923413e-39
0.024833342 -0.0035476163 0.74500012 2.0058186e-40
0.026252393 -0.0035476163 0.74500006 4.3418042e-39
0.027745729 -0.0035571381 0.74700004 8.4815706e-39
0.029207624 -0.0035619214 0.74800003 8.7602986e-39
0.030796207 -0.0035809502 0.75200003 9.1287252e-39
0.032228582 -0.0035809502 0.75200003 9.4964329e-39
-0.041040014 -0.0021600276 0.7560001 3.0381706e-39
-0.039390471 -0.0021485686 0.75200003 2.39712e-39
-0.037857145 -0.0021428689 0.75000006 1.661699e-39
-0.036331423 -0.0021371543 0.74800003 1.3850967e-39
-0.034860004 -0.0021343008 0.74700004 1.1071043e-39
-0.03334761 -0.0021285787 0.74500006 1.1053372e-39
-0.031800002 -0.002120018 0.7420001 1.0123989e-39
-0.030386675 -0.0021200255 0.7420001 9.1874312e-40
-0.028856203 -0.0021114498 0.73900008 8.2800764e-40
-0.027448572 -0.0021114349 0.73900002 1.0117025e-39
-0.02604096 -0.0021114424 0.73900008 1.1960965e-39
-0.024633341 -0.0021114349 0.73900008 1.2875775e-39
-0.02322571 -0.0021114275 0.73900002 1.2875831e-39
-0.021759043 -0.0021057203 0.73700005 1.1039163e-39
-0.020355236 -0.0021057203 0.73700011 8.283902e-40
-0.018951427 -0.0021057129 0.73700011 1.0120416e-39
-0.01754762 -0.0021057278 0.73700011 1.1053302e-39
-0.016121907 -0.0021028742 0.73600012 8.3199574e-40
-0.014720001 -0.0021028668 0.73600006 5.5540605e-40
-0.013318094 -0.0021028668 0.73600006 9.2560948e-40
-0.011883811 -0.0020971596 0.73400009 1.1979014e-39
-0.010485717 -0.0020971447 0.73400003 6.4797863e-40
-0.009087625 -0.0020971596 0.73400009 9.516358e-41
-0.0076685781 -0.0020914376 0.73200011 1.8699207e-40
-0.00629143 -0.0020971522 0.73400009 1.8590606e-40
-0.0048933355 -0.0020971522 0.73400003 1.8410259e-40
-0.0034952436 -0.0020971596 0.73400009 9.3358708e-41
-0.0020914308 -0.0020914376 0.73200005 9.2299326e-41
-0.00069904997 -0.0020971596 0.73400009 9.2665065e-41
0.00069904217 -0.0020971671 0.73400009 9.231474e-41
0.0021028586 -0.0021028817 0.73600012 9.303781e-41
0.003504765 -0.0021028668 0.73600006 9.2327352e-41
0.0049066613 -0.0021028742 0.73600012 9.8079682e-41
0.0063085686 -0.0021028817 0.73600006 9.1887344e-40
0.007710475 -0.0021028668 0.73600006 1.7568625e-39
0.009112386 -0.0021028817 0.73600012 4.2249317e-39
0.010514293 -0.0021028668 0.73600006 6.6381498e-39
0.011932378 -0.0021057203 0.73700005 9.8606696e-39
0.013336185 -0.0021057278 0.73700011 1.3084245e-38
0.014739993 -0.0021057129 0.73700011 1.3749342e-38
0.016143801 -0.0021057203 0.73700011 1.4289623e-38
0.017595233 -0.0021114349 0.73900002 1.5128012e-38
0.019002853 -0.0021114424 0.73900008 1.585695e-38
0.020493325 -0.0021200255 0.7420001 1.4671334e-38
0.021906666 -0.0021200106 0.7420001 1.3357562e-38
0.02335144 -0.0021228716 0.74300003 6.7044186e-39
0.024833344 -0.0021285713 0.74500006 1.0375494e-40
0.02632286 -0.0021342859 0.74700004 4.3378876e-39
0.027782857 -0.0021371543 0.74800003 8.480165e-39
0.02928571 -0.0021428615 0.75000006 8.8546775e-39
0.030837147 -0.0021514371 0.75300002 9.2212922e-39
0.03227143 -0.0021514297 0.75300002 9.4053135e-39
-0.039390463 -0.00071618706 0.75200003 2.3956837e-39
-0.037857156 -0.00071430206 0.75000006 1.8435847e-39
-0.036331423 -0.00071238726 0.74800003 1.475514e-39
-0.034859985 -0.00071142614 0.74700004 1.1993125e-39
-0.033347603 -0.00070951134 0.74500006 1.1064232e-39
-0.031842858 -0.00070763379 0.74300009 1.0134947e-39
-0.030386671 -0.00070669502 0.7420001 7.3725255e-40
-0.02889524 -0.00070475787 0.74000001 5.5430743e-40
-0.027448572 -0.0007038191 0.73900002 5.5323964e-40
-0.026040953 -0.0007038191 0.73900008 6.4508354e-40
-0.024633341 -0.00070381165 0.73900008 6.4473182e-40
-0.023225723 -0.000703834 0.73900008 7.3693305e-40
-0.021759056 -0.00070191175 0.73700011 5.525502e-40
-0.020355247 -0.00070191175 0.73700011 4.6105382e-40
-0.018951433 -0.0007019192 0.73700011 5.528697e-40
-0.017547615 -0.00070189685 0.73700005 6.4650726e-40
-0.016143808 -0.00070191175 0.73700011 5.5360258e-40
-0.014720002 -0.00070097297 0.73600012 5.5181592e-40
-0.013318094 -0.00070095807 0.73600006 1.1961049e-39
-0.011916188 -0.00070096552 0.73600006 1.745327e-39
-0.010485719 -0.00069905072 0.73400003 1.9300756e-39
-0.009087625 -0.00069907308 0.73400009 2.1126606e-39
-0.007689523 -0.00069905818 0.73400003 2.5725458e-39
-0.0062914309 -0.00069906563 0.73400009 3.1228273e-39
-0.0048933364 -0.00069905072 0.73400003 4.2277091e-39
-0.003495245 -0.00069905818 0.73400009 5.4187245e-39
-0.0020914411 -0.00069715083 0.73200011 6.3493002e-39
-0.00069714402 -0.00069715083 0.73200011 7.2558268e-39
0.00069712877 -0.00069716573 0.73200011 7.4556491e-39
0.0020971356 -0.00069907308 0.73400009 7.7171692e-39
0.0034952306 -0.00069905072 0.73400003 7.7354674e-39
0.0049066637 -0.00070096552 0.73600006 7.8269904e-39
0.0063085854 -0.00070096552 0.73600006 8.0239807e-39
0.0077104815 -0.00070096552 0.73600012 8.3116701e-39
0.0091123879 -0.00070096552 0.73600006 9.2289349e-39
0.010514284 -0.00070096552 0.73600012 1.0262126e-38
0.011932373 -0.00070191175 0.73700011 1.1445266e-38
0.013336181 -0.0007019192 0.73700011 1.2653847e-38
0.014739987 -0.0007019192 0.73700011 1.3014026e-38
0.016143806 -0.0007019043 0.73700011 1.3476433e-38
0.017595246 -0.00070381165 0.73900002 1.2638793e-38
0.019002851 -0.00070382655 0.73900002 1.1807614e-38
0.020438109 -0.00070476532 0.74000001 1.1992366e-38
0.02190667 -0.00070668012 0.74200004 1.2168046e-38
0.023414293 -0.00070951879 0.74500012 6.1670711e-39
0.024833344 -0.00070951879 0.74500006 1.0019985e-40
0.02632287 -0.00071142614 0.74700004 3.9694974e-39
0.027782854 -0.00071238726 0.74800003 7.9299004e-39
0.029285714 -0.00071430206 0.75000006 8.4848552e-39
0.030837156 -0.00071714818 0.75300002 9.0376366e-39
0.032271441 -0.00071715564 0.75300002 9.2202048e-39
0.033705723 -0.00071714073 0.75300002 9.3113354e-39
-0.042592384 0.00072190911 0.75800002 2.7651879e-39
-0.040985726 0.00071903318 0.75500011 2.7641019e-39
-0.039390467 0.00071620196 0.75200003 2.3953151e-39
-0.037857141 0.00071427226 0.75000006 1.9354034e-39
-0.036428578 0.00071427226 0.75000006 1.6580864e-39
-0.03490667 0.00071236491 0.74800009 1.2911298e-39
-0.03343714 0.00071142614 0.74700004 1.1074854e-39
-0.03184285 0.00070759654 0.74300003 9.2236968e-40
-0.030427622 0.00070760399 0.74300009 5.5358156e-40
-0.028973334 0.00070665032 0.7420001 1.8660952e-40
-0.027485717 0.00070474297 0.74000001 1.8554313e-40
-0.026040955 0.00070379674 0.73900002 9.2988765e-41
-0.024633337 0.00070380419 0.73900008 9.22713e-41
-0.023225725 0.00070378929 0.73900008 9.7299159e-41
-0.021818094 0.00070381165 0.73900002 9.228251e-41
-0.020410474 0.00070379674 0.73900008 9.7314573e-41
-0.019002862 0.00070380419 0.73900008 9.2302129e-41
-0.01754762 0.00070189685 0.73700011 9.9130656e-41
-0.016143812 0.0007018894 0.73700011 3.6783244e-40
-0.014720001 0.00070093572 0.73600006 5.6151711e-40
-0.013318096 0.00070093572 0.73600012 1.4697981e-39
-0.011916189 0.00070093572 0.73600006 2.3092754e-39
-0.010485719 0.00069902837 0.73400003 3.2147608e-39
-0.0090876268 0.00069903582 0.73400009 4.0574275e-39
-0.007689524 0.00069903582 0.73400003 5.0514792e-39
-0.0062914323 0.00069902837 0.73400009 5.9899147e-39
-0.0048800022 0.00069712847 0.73200005 8.3683008e-39
-0.0034952459 0.00069902837 0.73400009 1.0778642e-38
-0.0020914355 0.00069712102 0.73200011 1.2629719e-38
-0.00069714588 0.00069715083 0.73200005 1.4464654e-38
0.00069713482 0.00069712847 0.73200011 1.4941429e-38
0.0020971347 0.00069903582 0.73400009 1.5294053e-38
0.0034952301 0.00069904327 0.73400003 1.5396999e-38
0.0048933295 0.00069902092 0.73400009 1.5484191e-38
0.0062914244 0.00069903582 0.73400003 1.5130142e-38
0.007689523 0.00069902837 0.73400009 1.4750955e-38
0.0091123795 0.00070093572 0.73600012 1.4301097e-38
0.010514286 0.00070095062 0.73600006 1.3836927e-38
0.011932378 0.0007019043 0.73700011 1.3003981e-38
0.013336186 0.00070189685 0.73700011 1.2093164e-38
0.014739993 0.0007019043 0.73700011 1.2360425e-38
0.016143803 0.00070189685 0.73700011 1.2639153e-38
0.017619049 0.00070475787 0.74000001 1.0143086e-38
0.019079996 0.00070665777 0.7420001 7.6692603e-39
0.020493338 0.00070663542 0.7420001 9.3222936e-39
0.021936193 0.00070760399 0.74300003 1.0964493e-38
0.023414295 0.00070952624 0.74500006 5.5116824e-39
0.024833346 0.00070952624 0.74500006 1.0020405e-40
0.026358103 0.00071237981 0.74800003 3.6932692e-39
0.027782865 0.00071235746 0.74800009 7.2830918e-39
0.029285707 0.00071426481 0.75000012 8.1164146e-39
0.030837143 0.00071714073 0.75300008 8.8518104e-39
0.032357134 0.00071904063 0.75500005 9.0347569e-39
0.033839993 0.00071998686 0.75600004 9.1269666e-39
-0.042592395 0.0021657124 0.75800008 2.2152679e-39
-0.041040011 0.0021599755 0.7560001 2.5822287e-39
-0.039442852 0.0021514148 0.75300002 2.3967403e-39
-0.037958082 0.0021485686 0.75200003 2.3038061e-39
-0.036428586 0.0021428391 0.75000012 1.8431699e-39
-0.035000004 0.0021428466 0.75000006 1.4747826e-39
-0.033437133 0.0021342784 0.74700004 1.1989482e-39
-0.031928562 0.0021285862 0.74500006 9.2308014e-40
-0.030427612 0.0021228418 0.74300003 5.5501649e-40
-0.029012386 0.0021228418 0.74300009 1.8732838e-40
-0.027485715 0.0021142736 0.74000001 1.6545565e-39
-0.026076188 0.0021142736 0.74000001 3.1228385e-39
-0.024633331 0.00211142 0.73900008 5.4373701e-39
-0.023225717 0.0021114126 0.73900008 7.7329044e-39
-0.021818098 0.0021114126 0.73900008 7.55462e-39
-0.020410478 0.0021114126 0.73900002 7.3652486e-39
-0.019002859 0.0021114275 0.73900008 7.5575684e-39
-0.017595246 0.00211142 0.73900008 7.8309393e-39
-0.016143816 0.0021057129 0.73700011 8.2076237e-39
-0.014740008 0.0021057054 0.73700011 8.6731911e-39
-0.013318094 0.0021028519 0.73600006 9.317766e-39
-0.011916198 0.002102837 0.73600012 9.8789103e-39
-0.010485721 0.0020971224 0.73400003 9.9679629e-39
-0.0090876175 0.0020971373 0.73400003 1.0075242e-38
-0.0076895249 0.0020971298 0.73400003 1.0060911e-38
-0.0062914304 0.0020971373 0.73400003 1.0080637e-38
-0.0048933383 0.0020971298 0.73400009 1.0615503e-38
-0.0034952366 0.0020971298 0.73400003 1.1279888e-38
-0.0020914364 0.0020914152 0.73200011 1.089749e-38
-0.00069714588 0.0020914227 0.73200005 1.0633851e-38
0.00069714134 0.0020914078 0.73200011 9.791936e-39
0.0020971338 0.0020971298 0.73400009 9.0690677e-39
0.0034952287 0.0020971224 0.73400003 1.0152775e-38
0.0048933285 0.0020971298 0.73400009 1.1367794e-38
0.0062914235 0.0020971298 0.73400003 1.3102617e-38
0.0076895221 0.0020971224 0.73400009 1.4832783e-38
0.0091123814 0.0021028444 0.73600006 1.4570191e-38
0.010514277 0.0021028444 0.73600012 1.4291116e-38
0.011932374 0.002105698 0.73700011 1.3470354e-38
0.013336181 0.0021057054 0.73700011 1.2741767e-38
0.014739999 0.0021057129 0.73700005 1.2367249e-38
0.016187612 0.0021114275 0.73900008 1.209711e-38
0.017619051 0.0021142736 0.74000001 1.1534602e-38
0.019079991 0.0021199733 0.7420001 1.1067158e-38
0.020493332 0.0021199882 0.7420001 1.0976741e-38
0.021936202 0.0021228418 0.74300003 1.0885925e-38
0.023414295 0.0021285713 0.74500006 6.0795712e-39
0.024900008 0.0021342784 0.74700004 1.3812431e-39
0.026322871 0.0021342859 0.74700004 4.4254365e-39
0.027782865 0.0021371245 0.74800009 7.5553557e-39
0.029285705 0.0021428317 0.75000006 8.5744935e-39
0.030837139 0.0021514222 0.75300008 9.5861329e-39
0.032271422 0.0021514148 0.75300008 9.401757e-39
0.033795238 0.0021571293 0.75500005 9.2181042e-39
-0.042704761 0.0036190376 0.76000005 1.757154e-39
-0.041257147 0.0036190525 0.76000005 2.3063607e-39
-0.039600011 0.0035999864 0.7560001 2.4896618e-39
-0.038008571 0.0035857037 0.75300002 2.6718838e-39
-0.036525704 0.0035809577 0.75200003 2.119782e-39
-0.035000011 0.0035714135 0.75000006 1.5673523e-39
-0.0334819 0.0035618842 0.74800009 1.2907879e-39
-0.031928569 0.0035476163 0.74500012 9.2344448e-40
-0.030427622 0.0035380796 0.74300003 5.5574376e-40
-0.029012376 0.0035380945 0.74300003 1.8624798e-40
-0.027560003 0.0035333186 0.7420001 3.214667e-39
-0.026076186 0.0035238042 0.74000001 6.176059e-39
-0.024666665 0.0035237968 0.74000001 1.0801612e-38
-0.023225721 0.0035190284 0.73900008 1.5388005e-38
-0.021818101 0.0035190359 0.73900008 1.5028553e-38
-0.020410478 0.0035190359 0.73900002 1.4559717e-38
-0.019002859 0.0035190433 0.73900008 1.503291e-38
-0.017595239 0.0035190359 0.73900008 1.5482765e-38
-0.01614381 0.0035095215 0.73700005 1.614176e-38
-0.014740003 0.003509514 0.73700011 1.6774888e-38
-0.013336196 0.0035095215 0.73700011 1.7157262e-38
-0.011916189 0.0035047457 0.73600006 1.7420267e-38
-0.010514282 0.0035047531 0.73600006 1.6702141e-38
-0.0091123851 0.0035047457 0.73600006 1.594162e-38
-0.0076895258 0.0034952164 0.73400009 1.5035812e-38
-0.0062914314 0.0034952313 0.73400003 1.401234e-38
-0.0048933397 0.0034952164 0.73400009 1.282421e-38
-0.0034952376 0.0034952313 0.73400003 1.1616717e-38
-0.0020971459 0.0034952164 0.73400009 9.2300699e-39
-0.00069905043 0.0034952238 0.73400003 6.7397482e-39
0.00069713296 0.003485702 0.73200011 4.7064515e-39
0.0020971431 0.0034952238 0.73400003 2.6868118e-39
0.0034952278 0.0034952313 0.73400009 4.8686462e-39
0.0048933378 0.0034952313 0.73400003 7.1211325e-39
0.0062914216 0.0034952164 0.73400009 1.0987556e-38
0.0076895314 0.0034952313 0.73400003 1.484571e-38
0.009112387 0.0035047531 0.73600006 1.4763907e-38
0.010514294 0.0035047606 0.73600006 1.4661678e-38
0.01193238 0.003509514 0.73700011 1.4028525e-38
0.013336186 0.003509514 0.73700011 1.3364496e-38
0.014739995 0.0035095066 0.73700011 1.2452581e-38
0.01618761 0.0035190433 0.73900008 1.144024e-38
0.017619053 0.0035238117 0.74000001 1.3014716e-38
0.019080009 0.0035333186 0.7420001 1.4470091e-38
0.020493336 0.0035333261 0.74200004 1.2630869e-38
0.021936201 0.0035380796 0.74300003 1.0694724e-38
0.023414297 0.0035476312 0.74500006 6.6316562e-39
0.024900001 0.0035571307 0.74700004 2.5847889e-39
0.026322864 0.0035571381 0.74700004 5.1640679e-39
0.02778287 0.0035618991 0.74800003 7.7426168e-39
0.029207621 0.0035618916 0.74800003 9.0397736e-39
0.030714281 0.0035714209 0.75000006 1.032082e-38
0.032271434 0.0035857111 0.75300008 9.7680256e-39
0.033795238 0.003595233 0.75500011 9.2177399e-39
-0.044036198 0.0050533339 0.75800002 6.4650166e-40
-0.042592399 0.0050533265 0.75800008 1.2018222e-39
-0.041148581 0.0050533265 0.75800008 1.8457469e-39
-0.039600007 0.005039975 0.75600004 2.1212534e-39
-0.038008559 0.0050199926 0.75300002 2.3960382e-39
-0.036525708 0.0050133318 0.75200003 1.9361391e-39
-0.035093334 0.0050133318 0.75200009 1.5677265e-39
-0.033481903 0.0049866512 0.74800009 1.2000314e-39
-0.031928569 0.0049666613 0.74500006 8.3269219e-40
-0.030509517 0.0049666762 0.74500006 4.6320061e-40
-0.029090475 0.0049666613 0.74500012 1.8445152e-40
-0.027597139 0.0049533322 0.74300003 3.1314228e-39
-0.026181905 0.0049533173 0.74300003 6.0957534e-39
-0.024733337 0.0049466416 0.7420001 9.8851671e-39
-0.02325714 0.0049333274 0.74000001 1.3662252e-38
-0.021818096 0.0049266517 0.73900008 1.0519748e-38
-0.020410473 0.0049266592 0.73900002 7.4041696e-39
-0.01900286 0.0049266592 0.73900002 7.5770912e-39
-0.017595243 0.0049266517 0.73900008 7.8644289e-39
-0.016143814 0.0049133226 0.73700011 8.1284475e-39
-0.014740008 0.0049133226 0.73700011 8.5051138e-39
-0.013318094 0.0049066618 0.73600006 8.5851069e-39
-0.011916189 0.0049066469 0.73600012 8.7691604e-39
-0.010514283 0.0049066469 0.73600006 8.3896454e-39
-0.0090876194 0.0048933253 0.73400003 7.9942886e-39
-0.0076895347 0.0048933178 0.73400009 7.552654e-39
-0.0062914323 0.0048933178 0.73400003 7.0884417e-39
-0.0048933406 0.0048933253 0.73400009 6.447733e-39
-0.0034952385 0.0048933178 0.73400003 5.8780533e-39
-0.0021028558 0.0049066618 0.73600006 5.0630007e-39
-0.00069905136 0.0048933327 0.73400003 4.2249695e-39
0.00069904729 0.0048933178 0.73400009 6.5398375e-39
0.0020971422 0.0048933104 0.73400003 8.8167836e-39
0.0034952268 0.0048933178 0.73400009 9.86256e-39
0.0048933369 0.0048933178 0.73400003 1.0994379e-38
0.0062914207 0.0048933178 0.73400009 1.0342938e-38
0.0076895161 0.0048933253 0.73400003 9.7068813e-39
0.0091123898 0.0049066544 0.73600006 8.5850999e-39
0.010514286 0.0049066544 0.73600006 7.4809229e-39
0.011932385 0.0049133375 0.73700005 7.0995918e-39
0.013336192 0.0049133226 0.73700011 6.7045966e-39
0.01474 0.0049133301 0.73700011 6.9990851e-39
0.016209524 0.0049333274 0.74000001 7.1856427e-39
0.017619055 0.0049333274 0.74000001 1.1164718e-38
0.019080004 0.0049466491 0.7420001 1.5197599e-38
0.02049333 0.0049466491 0.7420001 1.2904951e-38
0.021936182 0.0049533099 0.74300009 1.0609709e-38
0.023414288 0.0049666613 0.74500012 6.2711259e-39
0.02490001 0.0049799904 0.74700004 1.9372755e-39
0.026322857 0.0049799904 0.74700004 4.7027394e-39
0.027782869 0.0049866512 0.74800003 7.3742014e-39
0.029207617 0.0049866661 0.74800003 8.4823076e-39
0.030837147 0.0050199851 0.75300008 9.6754628e-39
0.03227143 0.0050199926 0.75300008 9.493238e-39
0.033795226 0.0050333217 0.75500011 9.4010466e-39
0.035233334 0.0050333291 0.75500005 9.1255415e-39
-0.054000009 0.006479986 0.75600004 5.7872295e-39
-0.052560009 0.006479986 0.7560001 5.0737108e-39
-0.051120013 0.006479986 0.7560001 5.5106482e-39
-0.049811434 0.0064971372 0.75800002 5.8969596e-39
-0.048367623 0.0064971521 0.75800002 3.1228399e-39
-0.045480009 0.0064971298 0.75800008 2.7626459e-40
-0.044036206 0.0064971298 0.75800008 9.474319e-41
-0.042592388 0.0064971372 0.75800008 7.4117759e-40
-0.040985722 0.0064714178 0.75500005 1.2936381e-39
-0.039547626 0.0064714253 0.75500011 1.6620703e-39
-0.038008563 0.006454289 0.75300002 2.0287018e-39
-0.036525697 0.0064457133 0.75200003 1.8446791e-39
-0.035093322 0.0064457133 0.75200003 1.5688083e-39
-0.033571422 0.0064285696 0.75000006 1.1085504e-39
-0.031928569 0.0063857213 0.74500006 6.4864564e-40
-0.030509517 0.0063857213 0.74500006 3.7169582e-40
-0.029090477 0.0063857213 0.74500006 9.4025726e-41
-0.027597141 0.0063685477 0.74300003 3.0309567e-39
-0.026146667 0.006359987 0.7420001 5.9102719e-39
-0.024733333 0.0063599795 0.7420001 8.9800755e-39
-0.023319997 0.0063599944 0.7420001 1.1895425e-38
-0.021847617 0.0063428581 0.74000001 5.9841652e-39
-0.020410486 0.0063342601 0.73900008 1.113766e-40
-0.019002855 0.0063342825 0.73900002 9.7765791e-41
-0.017595243 0.006334275 0.73900008 1.0853197e-40
-0.016143808 0.0063171461 0.73700011 9.346941e-41
-0.01474 0.0063171312 0.73700011 1.067369e-40
-0.013318095 0.0063085631 0.73600012 9.2383404e-41
-0.011916188 0.0063085631 0.73600006 1.0387265e-40
-0.010514292 0.0063085482 0.73600012 9.2403022e-41
-0.0091123851 0.0063085631 0.73600006 9.4542805e-41
-0.0076895254 0.0062914193 0.73400003 9.23792e-41
-0.0062914332 0.0062914118 0.73400003 9.6660167e-41
-0.0048933313 0.0062914267 0.73400003 9.2331556e-41
-0.0034952404 0.0062914118 0.73400003 9.2709906e-41
-0.0020971454 0.0062914267 0.73400003 9.1889026e-40
-0.00069905323 0.0062914193 0.73400009 1.769477e-39
0.00069903146 0.0062914044 0.73400009 8.4107223e-39
0.0020971412 0.0062914193 0.73400009 1.5023633e-38
0.0034952259 0.0062914044 0.73400009 1.4953361e-38
0.004893336 0.0062914193 0.73400009 1.4742757e-38
0.0062914197 0.0062914118 0.73400009 9.6824497e-39
0.0077104741 0.0063085556 0.73600012 4.5263552e-39
0.0091123814 0.0063085556 0.73600006 2.3882778e-39
0.010514288 0.0063085705 0.73600006 2.028926e-40
0.01193238 0.0063171312 0.73700011 1.8425113e-40
0.013336186 0.0063171461 0.73700011 9.9923791e-41
0.014779991 0.0063342825 0.73900008 1.5617331e-39
0.016187621 0.0063342825 0.73900002 2.9791311e-39
0.017619057 0.0063428581 0.74000001 9.4446129e-39
0.019079998 0.0063599795 0.7420001 1.5853372e-38
0.020493325 0.0063599721 0.7420001 1.3180818e-38
0.021936191 0.0063685551 0.74300003 1.0420303e-38
0.023414303 0.0063857138 0.74500006 5.9052301e-39
0.024833353 0.0063857287 0.74500006 1.3023079e-39
0.026322866 0.0064028576 0.74700004 4.152053e-39
0.027745727 0.0064028502 0.74700004 7.006121e-39
0.02920763 0.0064114109 0.74800009 8.0231189e-39
0.030837143 0.0064542815 0.75300008 8.9429158e-39
0.032271426 0.0064542741 0.75300008 9.2195055e-39
0.033795241 0.0064714178 0.75500005 9.4939386e-39
0.035233337 0.0064714253 0.75500005 9.4932254e-39
0.036671419 0.0064714178 0.75500005 9.4010129e-39
-0.058320012 0.0079199821 0.75600004 8.6682768e-39
-0.057030488 0.0079409555 0.75800008 1.0239893e-38
-0.055440016 0.0079199821 0.7560001 1.1823013e-38
-0.054000013 0.007919997 0.7560001 1.1534984e-38
-0.052560009 0.0079199746 0.75600004 1.1368894e-38
-0.051120009 0.0079199821 0.7560001 1.1630053e-38
-0.049680013 0.0079199895 0.7560001 1.1923416e-38
-0.048176199 0.007909514 0.75500011 7.386446e-39
-0.046800006 0.0079199895 0.75600004 2.7763128e-39
-0.045360018 0.0079199895 0.7560001 1.4751273e-39
-0.043920018 0.0079199821 0.7560001 9.2922904e-41
-0.042480011 0.0079199895 0.7560001 7.3935029e-40
-0.041040007 0.0079199821 0.75600004 1.3850953e-39
-0.03954763 0.007909514 0.75500011 2.1205233e-39
-0.038008578 0.007888563 0.75300008 2.8548668e-39
-0.036525708 0.0078780949 0.75200009 2.2123952e-39
-0.035093326 0.0078781098 0.75200003 1.6617256e-39
-0.033571437 0.0078571364 0.75000006 1.2929333e-39
-0.032014281 0.0078257099 0.74700004 9.2449405e-40
-0.030509517 0.0078047514 0.74500006 7.3900838e-40
-0.029090466 0.0078047588 0.74500006 5.5389545e-40
-0.027597133 0.0077838004 0.74300003 2.6700509e-39
-0.026181905 0.0077837855 0.74300003 4.890739e-39
-0.024733339 0.0077733174 0.7420001 8.4986454e-39
-0.023320004 0.0077733174 0.7420001 1.2159382e-38
-0.021847613 0.0077523813 0.74000001 6.0747942e-39
-0.02043809 0.0077523813 0.74000001 9.2241873e-41
-0.019002857 0.0077418983 0.73900002 1.8625779e-40
-0.017595237 0.0077418908 0.73900002 2.7595771e-40
-0.016187627 0.0077418983 0.73900008 4.6107904e-40
-0.014740004 0.0077209547 0.73700005 6.433095e-40
-0.013318092 0.0077104717 0.73600006 6.4581362e-40
-0.011916197 0.0077104568 0.73600012 7.3620998e-40
-0.010514283 0.0077104568 0.73600006 9.223879e-40
-0.0091123758 0.0077104792 0.73600006 1.1064288e-39
-0.0077104783 0.0077104568 0.73600006 5.547082e-40
-0.0063085649 0.0077104717 0.73600006 9.3344695e-41
-0.0049066683 0.0077104643 0.73600012 1.4704834e-39
-0.0035095259 0.0077209473 0.73700011 2.8484264e-39
-0.0021028544 0.0077104717 0.73600006 6.6420734e-39
-0.00069905416 0.0076894984 0.73400009 1.0421416e-38
0.00069903984 0.0076895133 0.73400003 1.34754e-38
0.00210286 0.0077104568 0.73600012 1.6617543e-38
0.0035047664 0.0077104568 0.73600006 1.1990977e-38
0.0049066735 0.0077104717 0.73600006 7.4525803e-39
0.0063085696 0.0077104568 0.73600006 4.8811121e-39
0.0077104764 0.0077104643 0.73600006 2.2964045e-39
0.0091123721 0.0077104568 0.73600012 5.158331e-39
0.010528577 0.0077209547 0.73700005 8.0228331e-39
0.011932385 0.0077209547 0.73700011 7.9299452e-39
0.013336194 0.0077209473 0.73700011 7.8359377e-39
0.01477999 0.0077418983 0.73900008 8.9458347e-39
0.016209528 0.0077523813 0.74000001 1.0070898e-38
0.017666675 0.0077733174 0.74200004 1.209925e-38
0.019080002 0.0077733248 0.74200004 1.4202852e-38
0.020520961 0.0077838004 0.74300003 1.2353224e-38
0.021936189 0.0077837929 0.74300009 1.0516451e-38
0.023414303 0.0078047588 0.74500006 6.3669285e-39
0.024900012 0.007825695 0.74700004 2.1227191e-39
0.0263581 0.0078361928 0.74800003 4.4235812e-39
0.027782861 0.0078361779 0.74800003 6.6376804e-39
0.029285714 0.0078571364 0.75000006 7.7468838e-39
0.030837154 0.0078885704 0.75300002 8.8539348e-39
0.032357134 0.0079095289 0.75500005 9.1280077e-39
0.033795245 0.0079095066 0.75500005 9.4020849e-39
0.035233326 0.007909514 0.75500005 9.5854014e-39
-0.059760015 0.0093599781 0.7560001 1.5678628e-38
-0.058320016 0.0093599781 0.7560001 1.667988e-38
-0.056880012 0.009359993 0.75600004 1.6886182e-38
-0.055586673 0.0093847662 0.75800002 1.7053005e-38
-0.054000024 0.0093599781 0.7560001 1.7344667e-38
-0.052560013 0.0093599856 0.7560001 1.7512557e-38
-0.051120009 0.0093599856 0.75600004 1.7716321e-38
-0.049680009 0.0093599707 0.7560001 1.7875178e-38
-0.048048567 0.0093228519 0.75300002 1.1538824e-38
-0.046800014 0.0093599856 0.7560001 5.1633392e-39
-0.045360006 0.009359993 0.75600004 2.6635993e-39
-0.043920018 0.0093599707 0.7560001 9.4356432e-41
-0.042480018 0.0093599856 0.7560001 7.382797e-40
-0.041040011 0.009359993 0.7560001 1.3836519e-39
-0.039600007 0.0093599856 0.75600004 2.4878415e-39
-0.038008567 0.0093228444 0.75300008 3.5898856e-39
-0.036525708 0.0093104765 0.75200003 2.6711888e-39
-0.035093326 0.0093104839 0.75200003 1.6609913e-39
-0.03357143 0.0092857108 0.75000006 1.3847603e-39
-0.032014281 0.0092485622 0.74700004 1.1081706e-39
-0.030509518 0.0092238113 0.74500006 1.0145345e-39
-0.029090468 0.0092238113 0.74500006 9.2125565e-40
-0.027597141 0.0091990307 0.74300003 2.3881041e-39
-0.026181895 0.0091990456 0.74300003 3.8845016e-39
-0.024733339 0.0091866404 0.7420001 8.1478037e-39
-0.023320002 0.0091866478 0.7420001 1.2342707e-38
-0.021847611 0.009161897 0.74000001 6.2473725e-39
-0.020438088 0.009161897 0.74000001 9.4057956e-41
-0.019028574 0.009161897 0.74000001 2.7954503e-40
-0.017595241 0.0091495216 0.73900002 3.7067147e-40
-0.016187621 0.0091495216 0.73900008 8.3093356e-40
-0.014740008 0.0091247484 0.73700011 1.1993489e-39
-0.013318093 0.009112373 0.73600006 1.2951291e-39
