# .PCD v0.7 - Point Cloud Data file format
VERSION 0.7
FIELDS x y z rgb
SIZE 4 4 4 4
TYPE F F F F
COUNT 1 1 1 1
WIDTH 966
HEIGHT 1
VIEWPOINT 0 0 0 1 0 0 0
POINTS 966
DATA ascii
0.019234279 0.0064114407 0.74800003 1.2901068e-39
0.020714285 0.0064285696 0.75000006 1.8432736e-39
0.022142855 0.0064285621 0.75000006 2.3982368e-39
0.02357143 0.0064285547 0.75000006 2.7691704e-39
0.024999982 0.0064285547 0.75000012 3.0461146e-39
0.026499044 0.0064457133 0.75200003 3.4138195e-39
0.027968584 0.006454289 0.75300002 3.7815118e-39
0.029402871 0.006454289 0.75300002 3.044667e-39
0.030919043 0.0064714178 0.75500005 2.2163567e-39
0.032399982 0.0064800084 0.75600004 4.4211275e-39
0.033929516 0.0064971447 0.75800002 6.6351973e-39
0.035513345 0.0065228641 0.76100004 7.6568405e-39
0.036962848 0.0065228641 0.76100004 8.5773563e-39
0.038715236 0.0065742657 0.76700002 8.9468577e-39
0.040176176 0.0065742582 0.76700008 9.2194943e-39
0.041691404 0.0065828562 0.76800007 9.401729e-39
0.04326665 0.0065999851 0.77000004 9.492861e-39
0.044733323 0.0065999925 0.77000004 9.4003221e-39
-0.034466691 0.0080666617 0.77000004 4.7128442e-39
-0.033000007 0.0080666691 0.77000004 6.9283881e-39
-0.031410486 0.0080352202 0.76700008 6.6450008e-39
-0.029949546 0.0080352277 0.76700008 6.3731194e-39
-0.028414303 0.0080142766 0.76500005 1.0061285e-38
-0.026816186 0.0079723746 0.76100004 1.3752262e-38
-0.025333332 0.007961899 0.76000005 1.1166855e-38
-0.023822883 0.0079409555 0.75800002 8.6840274e-39
-0.022320027 0.0079200044 0.75600004 8.1968281e-39
-0.020852389 0.007909514 0.75500005 7.7542112e-39
-0.019414315 0.0079095066 0.75500011 8.5879627e-39
-0.017904786 0.0078780875 0.75200003 9.3874722e-39
-0.016472405 0.0078780949 0.75200003 4.7808842e-39
-0.015000021 0.0078571364 0.75000012 9.299437e-41
-0.013571447 0.0078571364 0.75000012 5.5506553e-40
-0.012142875 0.0078571364 0.75000012 1.0160423e-39
-0.010714302 0.0078571364 0.75000012 1.2904768e-39
-0.0092857163 0.007857129 0.75000012 1.5648959e-39
-0.0078571429 0.007857129 0.75000006 2.6780313e-39
-0.0064114318 0.0078362003 0.74800003 3.7915605e-39
-0.0049866824 0.0078362077 0.74800003 4.7074282e-39
-0.0035619191 0.0078362003 0.74800003 5.5389979e-39
-0.0021342984 0.0078257099 0.74700004 5.2602895e-39
-0.00070954347 0.0078047514 0.74500006 4.9894073e-39
0.00070950715 0.0078047588 0.74500012 2.9481806e-39
0.0021285559 0.0078047514 0.74500012 9.188286e-40
0.0035571367 0.0078257024 0.7470001 8.280665e-40
0.0049799671 0.0078257024 0.7470001 7.3658974e-40
0.0064028269 0.0078257024 0.7470001 9.19902e-40
0.0078257062 0.0078257099 0.74700004 1.0121046e-39
0.009248565 0.0078257099 0.74700004 1.3801725e-39
0.010671425 0.0078257099 0.74700004 1.8386157e-39
0.012094283 0.0078257099 0.74700004 1.5638098e-39
0.013517142 0.0078257099 0.74700004 1.2886355e-39
0.014940001 0.0078257099 0.74700004 9.2162559e-40
0.016384754 0.0078362077 0.74800003 6.457884e-40
0.01780952 0.0078362003 0.74800003 9.2239771e-40
0.019234283 0.0078362003 0.74800003 1.1975483e-39
0.020714281 0.0078571364 0.75000006 1.8432694e-39
0.022142854 0.0078571364 0.75000006 2.4893549e-39
0.023571426 0.0078571439 0.75000006 2.9514092e-39
0.025066653 0.0078781024 0.75200003 3.412379e-39
0.026534298 0.0078885853 0.75300002 3.5978408e-39
0.027968584 0.0078885853 0.75300002 3.875141e-39
0.029480921 0.007909514 0.75500011 3.0435992e-39
0.030919043 0.007909514 0.75500005 2.2113373e-39
0.032399993 0.0079200044 0.75600004 4.9764438e-39
0.033929519 0.0079409555 0.75800002 7.737226e-39
0.035606656 0.0079933405 0.76300001 8.2057081e-39
0.037254281 0.0080352128 0.76700008 8.7610119e-39
0.03871524 0.0080352202 0.76700008 8.9446675e-39
0.040228575 0.0080457181 0.76800001 9.1269175e-39
0.041691437 0.0080457106 0.76800001 9.1262141e-39
0.043266658 0.0080666542 0.77000004 9.1240631e-39
-0.034600977 0.0095704645 0.77300012 3.3234161e-39
-0.032871436 0.0094961748 0.76700008 4.9796935e-39
-0.031410478 0.0094961822 0.76700002 5.4349361e-39
-0.02987144 0.0094714314 0.76500005 5.9103196e-39
-0.028414289 0.0094714239 0.76500005 1.0162798e-38
-0.026816199 0.0094219074 0.76100004 1.4288912e-38
-0.025333341 0.0094095096 0.76000011 8.9487957e-39
-0.023822881 0.0093847513 0.75800002 3.6050799e-39
-0.02232003 0.0093600154 0.75600004 5.6024655e-39
-0.020852404 0.0093476102 0.75500005 7.6598589e-39
-0.019414295 0.0093476102 0.75500005 8.6066168e-39
-0.017904781 0.009310469 0.75200003 9.4857663e-39
-0.016472401 0.009310469 0.75200003 4.7758648e-39
-0.015000022 0.0092856959 0.75000012 9.3714637e-41
-0.013571437 0.0092856959 0.75000012 4.6431044e-40
-0.012142863 0.0092856959 0.75000012 8.3201396e-40
-0.010714292 0.0092856959 0.75000012 9.2349492e-40
-0.0092857191 0.0092856959 0.75000012 9.2313059e-40
-0.0078571457 0.0092857033 0.75000006 1.8418401e-39
-0.0064285737 0.0092857033 0.75000006 2.6766258e-39
-0.0049866778 0.0092609674 0.74800003 3.2272955e-39
-0.0035714484 0.0092856884 0.75000012 3.7815468e-39
-0.0021343059 0.0092485622 0.7470001 3.6882876e-39
-0.0007124017 0.0092609599 0.74800003 3.5946374e-39
0.00071143312 0.0092485771 0.74700004 2.3892755e-39
0.0021342919 0.0092485696 0.74700004 1.1039359e-39
0.0035571507 0.0092485771 0.74700004 1.0135326e-39
0.0049799816 0.0092485696 0.74700004 9.2097679e-40
0.0064028399 0.0092485771 0.74700004 1.0113746e-39
0.0078256996 0.0092485696 0.74700004 1.1042891e-39
0.0092485594 0.0092485771 0.74700004 1.5645455e-39
0.010671417 0.0092485696 0.7470001 1.9315204e-39
0.012094277 0.0092485547 0.7470001 1.746406e-39
0.013517135 0.0092485473 0.7470001 1.4730365e-39
0.014939995 0.0092485547 0.7470001 1.197516e-39
0.01638473 0.0092609525 0.74800003 8.305468e-40
0.017809495 0.0092609525 0.74800003 1.015308e-39
0.019285705 0.0092856959 0.75000012 1.1074952e-39
0.020714277 0.0092857033 0.75000006 1.8425309e-39
0.02214285 0.0092857033 0.75000006 2.4889905e-39
0.023571422 0.0092857033 0.75000006 3.1347327e-39
0.02506665 0.009310469 0.75200009 3.6886071e-39
0.026534298 0.0093228668 0.75300002 3.8740634e-39
0.028042847 0.0093476027 0.75500005 3.9655275e-39
0.02948094 0.0093476027 0.75500005 3.1346921e-39
0.030919017 0.0093476027 0.75500005 2.2174343e-39
0.032399978 0.0093600079 0.75600004 5.5357315e-39
0.034019068 0.009409517 0.76000005 8.8532678e-39
0.035606664 0.0094466656 0.76300007 8.8518118e-39
0.037254274 0.0094961748 0.76700008 8.8525125e-39
0.038715228 0.0094961748 0.76700002 8.9443312e-39
0.040228557 0.0095085576 0.76800007 8.943992e-39
0.041691419 0.0095085576 0.76800001 8.8521762e-39
0.043266661 0.0095333233 0.77000004 8.6659632e-39
0.044733331 0.0095333159 0.77000004 8.4786741e-39
-0.036260009 0.011099987 0.77700007 2.862005e-39
-0.034690473 0.011071436 0.77500004 3.5023661e-39
-0.032871451 0.010957122 0.76700008 4.232395e-39
-0.031410489 0.010957122 0.76700008 5.6189042e-39
-0.029949537 0.010957122 0.76700008 7.0890806e-39
-0.028414289 0.010928571 0.76500005 9.042827e-39
-0.026816212 0.010871425 0.76100004 1.1066764e-38
-0.025333332 0.010857128 0.76000005 6.450565e-39
-0.023822898 0.010828562 0.75800008 1.8372326e-39
-0.022379074 0.01082857 0.75800002 4.9703678e-39
-0.020880019 0.010800011 0.75600004 8.2173235e-39
-0.019414308 0.010785706 0.75500005 8.9574571e-39
-0.017928565 0.010757148 0.75300002 9.754817e-39
-0.016472399 0.010742858 0.75200003 4.9645608e-39
-0.015000012 0.010714263 0.75000012 9.2999975e-41
-0.013571439 0.01071427 0.75000012 4.6359577e-40
-0.012142866 0.01071427 0.75000012 9.2456972e-40
-0.010714294 0.010714278 0.75000012 9.2385506e-40
-0.0092857219 0.010714278 0.75000012 1.0153332e-39
-0.0078571485 0.010714278 0.75000006 1.5681399e-39
-0.0064285765 0.010714285 0.75000006 2.1213136e-39
-0.005000005 0.010714278 0.75000006 2.3053504e-39
-0.003571453 0.010714278 0.75000012 2.5790562e-39
-0.0021342919 0.010671422 0.74700004 2.4886486e-39
-0.00071239797 0.010685712 0.74800003 2.3932244e-39
0.00071236538 0.010685705 0.74800003 1.7482207e-39
0.0021342845 0.010671422 0.7470001 1.0128179e-39
0.0035571163 0.010671422 0.74700004 8.302217e-40
0.0049799751 0.010671414 0.7470001 5.547096e-40
0.0064028334 0.010671414 0.7470001 7.3694006e-40
0.007825694 0.010671414 0.7470001 9.2096698e-40
0.0092485724 0.010671429 0.74700004 1.2897397e-39
0.010671432 0.010671422 0.74700004 1.6581579e-39
0.01209429 0.010671429 0.74700004 1.4744869e-39
0.01351715 0.010671422 0.74700004 1.2918893e-39
0.01493998 0.010671429 0.74700004 1.1071393e-39
0.016384754 0.01068572 0.74800003 8.3055801e-40
0.01780952 0.010685712 0.74800003 1.0163814e-39
0.019285701 0.010714278 0.75000012 1.1096364e-39
0.020714274 0.010714278 0.75000006 1.7524681e-39
0.022142846 0.010714278 0.75000006 2.3049566e-39
0.023571419 0.010714285 0.75000006 2.9514316e-39
0.02506664 0.010742858 0.75200003 3.6900463e-39
0.026499022 0.010742858 0.75200003 3.874778e-39
0.028042844 0.010785706 0.75500011 4.1509782e-39
0.02948094 0.010785714 0.75500005 3.5927667e-39
0.030959958 0.010799997 0.75600004 2.947096e-39
0.03239999 0.010800004 0.75600004 7.6641147e-39
0.033929504 0.010828562 0.75800008 1.2369588e-38
0.035606675 0.010900006 0.76300007 1.0514204e-38
0.037254274 0.010957129 0.76700008 8.5770312e-39
0.038715232 0.010957129 0.76700008 8.7603238e-39
0.040228561 0.010971434 0.76800001 8.9436613e-39
0.041691422 0.010971442 0.76800001 8.7596568e-39
0.043154266 0.010971427 0.76800007 8.6673995e-39
0.044617128 0.010971434 0.76800001 8.3896762e-39
-0.036260013 0.012579985 0.77700007 3.9586401e-39
-0.03455621 0.012499042 0.77200001 3.6831435e-39
-0.033000026 0.012466669 0.77000004 3.4109034e-39
-0.031451456 0.012434274 0.76800007 5.9030567e-39
-0.029949529 0.012418084 0.76700002 8.3001627e-39
-0.028414289 0.012385711 0.76500005 8.0358329e-39
-0.026886666 0.012353346 0.76300001 7.7376829e-39
-0.025333334 0.012304753 0.76000005 3.9494252e-39
-0.023822894 0.01227238 0.75800008 9.2324549e-41
-0.022379071 0.012272388 0.75800002 4.4085817e-39
-0.020880025 0.012239993 0.75600004 8.6693249e-39
-0.019414308 0.012223803 0.75500011 9.434937e-39
-0.017904775 0.01217524 0.75200003 1.0039296e-38
-0.016472414 0.012175232 0.75200003 5.0513741e-39
-0.015000016 0.012142844 0.75000012 9.3723045e-41
-0.013571444 0.012142844 0.75000012 5.5615854e-40
-0.012142871 0.012142852 0.75000012 9.2349633e-40
-0.010714299 0.012142852 0.75000012 1.015329e-39
-0.0092857247 0.012142852 0.75000012 1.107882e-39
-0.0078571532 0.012142852 0.75000006 1.3858996e-39
-0.0064285821 0.012142852 0.75000006 1.5692161e-39
-0.0050000078 0.012142859 0.75000006 1.4777449e-39
-0.0035714353 0.012142859 0.75000006 1.2929949e-39
-0.0021371511 0.012110479 0.74800003 1.2933508e-39
-0.00071238866 0.012110479 0.74800003 1.1986357e-39
0.00071236165 0.012110479 0.74800003 1.1057128e-39
0.0021342705 0.012094297 0.74700004 9.2169566e-40
0.0035618884 0.012110479 0.74800003 5.5544108e-40
0.0049866517 0.012110487 0.74800003 1.8664735e-40
0.0064028478 0.012094289 0.74700004 4.6070349e-40
0.0078257071 0.012094282 0.74700004 6.4545769e-40
0.0092485659 0.012094289 0.74700004 1.0153178e-39
0.010671425 0.012094282 0.7470001 1.3830185e-39
0.012094283 0.012094274 0.7470001 1.2933368e-39
0.013535232 0.012110479 0.74800003 1.1082253e-39
0.014959997 0.012110479 0.74800003 1.0163856e-39
0.016384758 0.012110479 0.74800003 8.3235727e-40
0.017809523 0.012110472 0.74800003 1.0174646e-39
0.019285697 0.012142844 0.75000012 1.1089358e-39
0.02071427 0.012142844 0.75000006 1.6606592e-39
0.022142844 0.012142837 0.75000006 2.1216528e-39
0.023571415 0.012142837 0.75000006 2.8595891e-39
0.025066657 0.01217524 0.75200003 3.5974933e-39
0.026534306 0.012191437 0.75300002 3.967338e-39
0.028042836 0.012223803 0.75500005 4.3310688e-39
0.02948094 0.012223803 0.75500011 4.0462129e-39
0.030959988 0.01224 0.75600004 3.6972237e-39
0.032399967 0.012240008 0.75600004 9.8039815e-39
0.034063827 0.012320966 0.76100004 1.5855757e-38
0.035606652 0.012353323 0.76300007 1.2074676e-38
0.037254266 0.012418084 0.76700008 8.3018778e-39
0.038715225 0.012418084 0.76700002 8.5755823e-39
0.040176183 0.012418091 0.76700002 8.8510958e-39
0.041691404 0.012434296 0.76800001 8.7585512e-39
0.043154269 0.012434281 0.76800001 8.6663163e-39
0.044617157 0.012434289 0.76800001 8.3911279e-39
-0.036260001 0.014060006 0.77700001 4.7804863e-39
-0.034690466 0.014023826 0.77499998 4.9695326e-39
-0.033000022 0.013933331 0.77000004 5.2429568e-39
-0.031451438 0.013897143 0.76800001 7.1970409e-39
-0.029949544 0.013879031 0.76700008 9.0506337e-39
-0.028414309 0.013842843 0.76500005 6.4584543e-39
-0.026886672 0.013806663 0.76300001 3.9497825e-39
-0.025333343 0.013752364 0.76000011 2.0218985e-39
-0.023822889 0.013716184 0.75800008 1.8412501e-40
-0.022379067 0.013716184 0.75800002 4.1416735e-39
-0.020880027 0.013679996 0.75600004 8.2087097e-39
-0.019414321 0.013661884 0.75500011 9.5088428e-39
-0.017928571 0.013625719 0.75300002 1.0864383e-38
-0.01647241 0.013607621 0.75200003 5.4258907e-39
-0.015040013 0.013607614 0.75200003 9.3009784e-41
-0.013571446 0.013571419 0.75000012 3.7106243e-40
-0.012142873 0.013571411 0.75000012 6.4727658e-40
-0.010714302 0.013571411 0.75000012 8.3057763e-40
-0.0092857275 0.013571411 0.75000012 1.0142486e-39
-0.0078571429 0.013571411 0.75000012 1.1993531e-39
-0.00642857 0.013571419 0.75000006 1.3830269e-39
-0.0049999976 0.013571419 0.75000006 1.291553e-39
-0.0035714251 0.013571419 0.75000006 1.1993601e-39
-0.0021371623 0.013535239 0.74800003 1.1068086e-39
-0.00071239891 0.013535246 0.74800003 1.104638e-39
0.00071236538 0.013535239 0.74800003 1.0131416e-39
0.0021342649 0.013517141 0.74700004 9.2061385e-40
0.0035618921 0.013535239 0.74800003 6.4585005e-40
0.0049866554 0.013535246 0.74800003 3.6924074e-40
0.0064114193 0.013535246 0.74800003 5.5288371e-40
0.0078361826 0.013535239 0.74800003 8.2804968e-40
0.009260946 0.013535239 0.74800003 1.1053666e-39
0.010685681 0.013535239 0.74800003 1.3819507e-39
0.012110446 0.013535239 0.74800003 1.4748638e-39
0.013535208 0.013535239 0.74800003 1.5663336e-39
0.014959972 0.013535239 0.74800003 1.1071491e-39
0.016384734 0.013535239 0.74800003 7.3980992e-40
0.017809499 0.013535239 0.74800003 8.3164822e-40
0.019285696 0.013571419 0.75000012 1.0149647e-39
0.020714266 0.013571419 0.75000006 1.6596096e-39
0.022201883 0.013607606 0.75200003 2.3042574e-39
0.023571441 0.013571419 0.75000006 2.7677452e-39
0.025100019 0.013625719 0.75300002 3.3212679e-39
0.026534284 0.013625711 0.75300002 3.7818789e-39
0.02804284 0.013661906 0.75500005 4.2410354e-39
0.029480914 0.013661899 0.75500011 3.5913486e-39
0.030959971 0.013680018 0.75600004 3.0425553e-39
0.032399982 0.013680011 0.75600004 9.4201659e-39
0.034063816 0.013770476 0.76100004 1.5767157e-38
0.035513319 0.013770476 0.76100004 1.1983543e-38
0.037157141 0.013842858 0.76500005 8.2961339e-39
0.038715225 0.013879023 0.76700008 8.5737942e-39
0.040176183 0.013879031 0.76700008 8.8510845e-39
0.041691415 0.013897128 0.76800007 8.6670436e-39
0.043154281 0.013897136 0.76800007 8.5726802e-39
0.044617139 0.013897136 0.76800001 8.2975142e-39
-0.036260001 0.015539989 0.77700001 5.5310315e-39
-0.03469047 0.015500017 0.77500004 6.3546699e-39
-0.032914296 0.015360005 0.76800001 7.1030334e-39
-0.031410489 0.015339993 0.76700008 8.4996249e-39
-0.029871443 0.015299983 0.76500005 9.771292e-39
-0.028414292 0.015299983 0.76500005 4.9810976e-39
-0.026886679 0.015260004 0.76300007 9.9104031e-41
-0.025333332 0.015199982 0.76000005 1.87348e-40
-0.023822885 0.015159994 0.75800008 2.770339e-40
-0.022379084 0.015159994 0.75800008 3.9493804e-39
-0.020880029 0.01512 0.75600004 7.6573366e-39
-0.019440016 0.015120007 0.75600004 9.710819e-39
-0.017928572 0.015060008 0.75300002 1.1601583e-38
-0.016472394 0.015040003 0.75200003 5.8778935e-39
-0.015040012 0.01504001 0.75200003 9.3364313e-41
-0.013571449 0.014999993 0.75000012 1.870257e-40
-0.012142876 0.014999993 0.75000012 2.7921292e-40
-0.01071429 0.014999993 0.75000012 5.5399634e-40
-0.0092857173 0.014999993 0.75000012 8.3021469e-40
-0.0078571439 0.014999993 0.75000012 1.0135213e-39
-0.0064285728 0.014999993 0.75000006 1.1060799e-39
-0.0050000013 0.014999993 0.75000006 1.1064442e-39
-0.0035714288 0.014999993 0.75000006 1.0146186e-39
-0.0021371716 0.014960006 0.74800003 1.0139123e-39
-0.00071240822 0.014960006 0.74800003 1.0128193e-39
0.0007123691 0.014959998 0.74800003 1.0128025e-39
0.002134278 0.014940001 0.74700004 9.2097959e-40
0.0035618688 0.014960013 0.74800003 7.3732121e-40
0.0049866308 0.014960006 0.74800003 4.6144058e-40
0.0064114151 0.014960006 0.74800003 7.3657432e-40
0.0078257145 0.014939986 0.74700004 9.2025372e-40
0.0092609422 0.014960013 0.74800003 1.1957686e-39
0.010685706 0.014960013 0.74800003 1.3816032e-39
0.01211047 0.014960013 0.74800003 1.6581957e-39
0.013535232 0.014960013 0.74800003 1.9325994e-39
0.014959997 0.014960013 0.74800003 1.2890082e-39
0.016384758 0.014960013 0.74800003 5.5469559e-40
0.017857118 0.014999993 0.75000012 7.3766173e-40
0.019285692 0.014999993 0.75000012 9.2241172e-40
0.020714263 0.014999993 0.75000012 1.6585348e-39
0.022201901 0.015040003 0.75200003 2.3971691e-39
0.023634283 0.01504001 0.75200003 2.6777034e-39
0.025099998 0.015060008 0.75300002 2.9542861e-39
0.026534285 0.015060008 0.75300002 3.5063753e-39
0.02804284 0.015099987 0.75500011 4.0544988e-39
0.029480936 0.015099995 0.75500005 3.2186326e-39
0.031041889 0.015159987 0.75800008 2.3215129e-39
0.032571442 0.015199982 0.76000005 8.9749944e-39
0.034063824 0.015220009 0.76100004 1.5576667e-38
0.035513327 0.015220009 0.76100004 1.1979937e-38
0.037157118 0.015299998 0.76500005 8.2993527e-39
0.038614269 0.015299991 0.76500005 8.5727166e-39
0.040176205 0.015339993 0.76700008 8.8510705e-39
0.041691419 0.01535999 0.76800001 8.6691722e-39
0.043154284 0.015360013 0.76800001 8.3889882e-39
0.044617124 0.015360005 0.76800007 8.2953464e-39
-0.0329143 0.016822852 0.76800001 7.8553443e-39
-0.031410486 0.016800947 0.76700002 6.6485923e-39
-0.029871443 0.016757123 0.76500005 5.3491626e-39
-0.028414292 0.016757123 0.76500005 3.1349639e-39
-0.02688667 0.016713329 0.76300007 8.2943837e-40
-0.025366681 0.016669527 0.76100004 5.5469699e-40
-0.023885714 0.016647615 0.76000005 2.7738983e-40
-0.02237908 0.016603798 0.75800008 3.8668593e-39
-0.020935256 0.016603805 0.75800002 7.4743817e-39
-0.01944002 0.016560003 0.75600004 9.5999791e-39
-0.017928576 0.016494289 0.75300002 1.1595848e-38
-0.016494291 0.016494296 0.75300002 5.883992e-39
-0.015040029 0.016472377 0.75200003 9.2285313e-41
-0.013607646 0.016472384 0.75200003 2.7849406e-40
-0.012142866 0.016428553 0.75000012 4.6323985e-40
-0.010714294 0.016428553 0.75000012 6.465493e-40
-0.0092857219 0.01642856 0.75000012 8.3021049e-40
-0.0078571485 0.01642856 0.75000012 1.0131542e-39
-0.0064285775 0.016428553 0.75000006 1.1964749e-39
-0.0050000031 0.01642856 0.75000006 1.0135298e-39
-0.0035714316 0.016428553 0.75000006 9.2171387e-40
-0.0021371474 0.01638478 0.74800003 8.2917913e-40
-0.00071238494 0.016384773 0.74800003 8.2808892e-40
0.00071236538 0.01638478 0.74800003 8.2879097e-40
0.0021371287 0.01638478 0.74800003 7.3803307e-40
0.0035618921 0.016384773 0.74800003 5.5400335e-40
0.0049866554 0.016384773 0.74800003 3.6997082e-40
0.0064114193 0.016384766 0.74800003 5.5363901e-40
0.0078361826 0.016384773 0.74800003 7.3659254e-40
0.009260946 0.016384773 0.74800003 9.2133973e-40
0.010685709 0.016384773 0.74800003 1.1064653e-39
0.012110474 0.016384773 0.74800003 1.2901559e-39
0.013535237 0.016384773 0.74800003 1.4723471e-39
0.014999971 0.016428545 0.75000012 1.0138408e-39
0.016428571 0.016428545 0.75000012 5.5432845e-40
0.017857144 0.016428553 0.75000012 7.3802186e-40
0.019285716 0.016428553 0.75000012 9.2133692e-40
0.020769509 0.016472384 0.75200003 1.6588936e-39
0.02220189 0.016472384 0.75200003 2.3056923e-39
0.023665713 0.016494289 0.75300002 2.7684613e-39
0.025099998 0.016494304 0.75300002 3.1383158e-39
0.026604736 0.016538084 0.75500005 3.6900477e-39
0.028042838 0.016538091 0.75500011 4.1502845e-39
0.029480934 0.016538091 0.75500005 2.9531777e-39
0.031041892 0.016603805 0.75800008 1.764054e-39
0.032571416 0.016647607 0.76000011 6.7433341e-39
0.034063809 0.016669534 0.76100004 1.1716705e-38
0.035513338 0.016669534 0.76100004 9.6822367e-39
0.037157148 0.016757131 0.76500005 7.6547008e-39
0.038765728 0.01682286 0.76800001 7.7465545e-39
0.040228538 0.016822852 0.76800007 7.8415849e-39
0.041691404 0.016822852 0.76800007 7.7457697e-39
0.043154266 0.01682286 0.76800001 7.7425327e-39
0.044617154 0.01682286 0.76800001 7.836871e-39
-0.032871444 0.018261887 0.76700008 8.5742006e-39
-0.031328592 0.018214285 0.76500005 4.7985224e-39
-0.029871443 0.018214285 0.76500005 9.31345e-40
-0.028340016 0.018166669 0.76300007 1.2889606e-39
-0.026886677 0.018166669 0.76300007 1.5669866e-39
-0.025366671 0.018119045 0.76100004 9.2414653e-40
-0.023917155 0.018119045 0.76100004 2.7772474e-40
-0.022438088 0.018095233 0.76000005 3.7656939e-39
-0.020935254 0.018047623 0.75800002 7.2881799e-39
-0.019440021 0.018000007 0.75600004 9.5260466e-39
-0.017976206 0.017976187 0.75500005 1.1603366e-38
-0.016494278 0.017928578 0.75300002 5.8778977e-39
-0.015040023 0.017904751 0.75200003 9.2995771e-41
-0.013607643 0.017904751 0.75200003 3.710316e-40
-0.012175246 0.017904758 0.75200003 5.5506693e-40
-0.010742886 0.017904751 0.75200009 6.465507e-40
-0.0093105035 0.017904751 0.75200003 7.3766593e-40
-0.0078571513 0.017857134 0.75000012 1.0117361e-39
-0.0064457268 0.017904758 0.75200003 1.28796e-39
-0.0050000069 0.017857134 0.75000006 1.0131724e-39
-0.0035714353 0.017857142 0.75000006 7.3731281e-40
-0.0021371576 0.01780954 0.74800003 7.3624221e-40
-0.00071239425 0.017809533 0.74800003 6.4476265e-40
0.0007123691 0.017809533 0.74800003 6.4476125e-40
0.0021371325 0.017809533 0.74800003 5.5364462e-40
0.0035618958 0.017809533 0.74800003 3.7069109e-40
0.0049866596 0.017809533 0.74800003 1.870215e-40
0.0064114225 0.017809533 0.74800003 3.7069249e-40
0.0078361584 0.017809533 0.74800003 4.617923e-40
0.0092609217 0.01780954 0.74800003 6.4580241e-40
0.010685686 0.017809518 0.74800003 7.3909806e-40
0.012110449 0.017809518 0.74800003 9.2351174e-40
0.013571423 0.017857127 0.75000012 1.0149633e-39
0.014999995 0.017857127 0.75000012 8.3090973e-40
0.016428567 0.017857134 0.75000012 5.5469979e-40
0.01785714 0.017857127 0.75000012 7.383862e-40
0.019285712 0.017857134 0.75000012 9.2277746e-40
0.020769527 0.017904758 0.75200003 1.5667049e-39
0.022201886 0.017904751 0.75200003 2.213861e-39
0.023665741 0.017928578 0.75300002 2.7677466e-39
0.025100006 0.017928563 0.75300002 3.3209092e-39
0.026534293 0.017928571 0.75300002 3.7811615e-39
0.028042832 0.01797618 0.75500005 4.2414082e-39
0.029480934 0.017976172 0.75500011 2.7716745e-39
0.031123815 0.01809524 0.76000005 1.208718e-39
0.032614294 0.018119045 0.76100004 4.5177064e-39
0.034063794 0.018119045 0.76100004 7.8402117e-39
0.035513349 0.018119052 0.76100004 7.4695682e-39
0.037059985 0.018166669 0.76300001 7.0107509e-39
0.03876571 0.018285714 0.76800007 6.9167644e-39
0.040228572 0.018285714 0.76800001 6.8249121e-39
0.041691434 0.018285714 0.76800001 6.9135022e-39
0.043154277 0.018285707 0.76800007 7.0089278e-39
0.044617139 0.018285714 0.76800007 7.3780662e-39
-0.032871433 0.019722857 0.76700008 5.2519363e-39
-0.031328578 0.019671418 0.76500005 3.5019752e-39
-0.029871443 0.019671425 0.76500005 1.6563166e-39
-0.028340021 0.019619994 0.76300007 1.3840583e-39
-0.026886683 0.019619994 0.76300007 1.2043025e-39
-0.025366671 0.01956857 0.76100004 6.4823647e-40
-0.023917155 0.01956857 0.76100004 1.8407176e-40
-0.0224381 0.019542843 0.76000005 4.0487296e-39
-0.020935269 0.019491427 0.75800008 8.0196171e-39
-0.019440025 0.01944001 0.75600004 1.00616e-38
-0.018000027 0.019440018 0.75600004 1.2158669e-38
-0.016538108 0.019414276 0.75500005 6.0705399e-39
-0.015059996 0.019362859 0.75300002 9.2272701e-41
-0.013607624 0.019337155 0.75200003 4.6177549e-40
-0.012175264 0.01933714 0.75200009 7.3873092e-40
-0.01074288 0.019337147 0.75200003 7.383862e-40
-0.0093104998 0.01933714 0.75200003 8.2915251e-40
-0.0078781042 0.01933714 0.75200003 8.2915811e-40
-0.0064457231 0.019337155 0.75200003 9.2062787e-40
-0.005013363 0.01933714 0.75200003 7.373072e-40
-0.0035714391 0.019285716 0.75000006 5.5291174e-40
-0.0021371688 0.019234292 0.74800003 6.4473882e-40
-0.00071240449 0.0192343 0.74800003 8.2842103e-40
0.00071234396 0.019234292 0.74800003 7.3659674e-40
0.0021371082 0.0192343 0.74800003 6.4440391e-40
0.0035618716 0.019234292 0.74800003 5.5400335e-40
0.004979996 0.019208558 0.7470001 5.5472502e-40
0.0064113988 0.0192343 0.74800003 4.6217626e-40
0.0078361835 0.019234307 0.74800003 4.6142096e-40
0.009260946 0.019234307 0.74800003 6.4613031e-40
0.01068571 0.019234292 0.74800003 7.397903e-40
0.012110474 0.0192343 0.74800003 7.4053719e-40
0.013535237 0.019234292 0.74800003 7.4161059e-40
0.014999992 0.019285709 0.75000012 7.3981272e-40
0.016428564 0.019285709 0.75000012 7.3802607e-40
0.017857136 0.019285716 0.75000012 8.3094336e-40
0.019285709 0.019285709 0.75000012 1.0153346e-39
0.020769496 0.01933714 0.75200003 1.6599796e-39
0.022201877 0.019337147 0.75200003 2.3982523e-39
0.023634287 0.019337147 0.75200003 3.0425371e-39
0.025166662 0.019414276 0.75500005 3.5964143e-39
0.026604759 0.019414283 0.75500005 3.9648269e-39
0.028042832 0.019414276 0.75500005 4.4261595e-39
0.029480956 0.019414268 0.75500005 2.5851476e-39
0.031123819 0.019542836 0.76000011 7.4019387e-40
0.032614302 0.019568577 0.76100004 5.1605016e-39
0.034063831 0.01956857 0.76100004 9.6772509e-39
0.035606652 0.019619994 0.76300007 1.1426378e-38
0.037157148 0.019671418 0.76500005 1.3256257e-38
0.038765714 0.019748576 0.76800001 1.2985397e-38
0.040228553 0.019748561 0.76800007 1.2791323e-38
0.041691419 0.019748561 0.76800001 1.2987191e-38
0.043154281 0.019748576 0.76800001 1.3164419e-38
0.044617139 0.019748583 0.76800001 1.3076184e-38
-0.034466699 0.021266654 0.77000004 5.8137351e-39
-0.032914303 0.02121143 0.76800007 1.9426215e-39
-0.031410489 0.021183796 0.76700008 2.2091274e-39
-0.029871441 0.021128565 0.76500005 2.3942431e-39
-0.028414292 0.021128565 0.76500005 1.5702446e-39
-0.026957145 0.021128565 0.76500005 7.42272e-40
-0.025366666 0.02101811 0.76100004 4.645963e-40
-0.023917148 0.02101811 0.76100004 9.4436306e-41
-0.022438088 0.020990469 0.76000005 4.4086055e-39
-0.020935267 0.02093523 0.75800008 8.6747199e-39
-0.019491458 0.020935237 0.75800002 1.0725663e-38
-0.018000014 0.020879999 0.75600004 1.2620381e-38
-0.016560035 0.020879991 0.75600004 6.337078e-39
-0.015059982 0.020797156 0.75300002 9.2635638e-41
-0.013625718 0.020797148 0.75300002 5.5326206e-40
-0.012175262 0.020769522 0.75200003 9.2276345e-40
-0.010742879 0.020769522 0.75200003 9.2277185e-40
-0.009310483 0.020769529 0.75200003 8.2986296e-40
-0.0078781229 0.020769514 0.75200009 6.4655351e-40
-0.0064457408 0.020769514 0.75200003 4.6216225e-40
-0.0050133592 0.020769529 0.75200003 3.7068268e-40
-0.003571427 0.020714276 0.75000006 2.7812552e-40
-0.0021371576 0.020659052 0.74800003 6.454647e-40
-0.00071239425 0.020659052 0.74800003 9.2025933e-40
0.0007123691 0.020659052 0.74800003 8.280707e-40
0.0021371334 0.020659052 0.74800003 6.4511577e-40
0.0035618958 0.020659052 0.74800003 7.383862e-40
0.0049866596 0.020659052 0.74800003 8.2950844e-40
0.0064114225 0.020659052 0.74800003 6.4512418e-40
0.0078361863 0.020659052 0.74800003 4.6143217e-40
0.0092609497 0.020659052 0.74800003 6.4615834e-40
0.010685714 0.020659052 0.74800003 7.3944418e-40
0.012110477 0.020659059 0.74800003 5.5650607e-40
0.013535213 0.020659044 0.74800003 3.73191e-40
0.014999988 0.020714261 0.75000012 6.4833736e-40
0.016428562 0.020714268 0.75000012 8.3129369e-40
0.017857132 0.020714268 0.75000012 9.2420819e-40
0.019285705 0.020714276 0.75000012 1.0156892e-39
0.020769512 0.020769514 0.75200003 1.8429317e-39
0.022231434 0.020797148 0.75300002 2.5801268e-39
0.023665721 0.020797148 0.75300002 3.2244102e-39
0.025166634 0.020852372 0.75500011 3.870483e-39
0.026604759 0.02085238 0.75500005 4.2396145e-39
0.028042832 0.020852372 0.75500011 4.515823e-39
0.029480929 0.020852372 0.75500005 2.402515e-39
0.031123815 0.020990476 0.76000005 1.9275421e-40
0.032614291 0.021018103 0.76100004 5.7986978e-39
0.034063816 0.021018095 0.76100004 1.1428629e-38
0.03560666 0.021073334 0.76300007 1.5486596e-38
0.037157148 0.021128558 0.76500005 1.9437312e-38
0.038765699 0.021211438 0.76800001 1.9160366e-38
0.040228561 0.02121143 0.76800001 1.8795892e-38
0.041691422 0.021211438 0.76800001 1.9080007e-38
0.043154262 0.02121143 0.76800007 1.9256147e-38
-0.034466691 0.022733323 0.77000004 5.5310147e-39
-0.0329143 0.022674292 0.76800001 2.025839e-39
-0.031410482 0.022644751 0.76700008 2.395332e-39
-0.029949529 0.022644758 0.76700002 2.7641089e-39
-0.028414294 0.022585705 0.76500005 3.1282223e-39
-0.026886664 0.022526674 0.76300001 3.494844e-39
-0.025433339 0.022526667 0.76300001 3.6878378e-39
-0.02391715 0.022467613 0.76100004 3.8615344e-39
-0.022438098 0.022438079 0.76000011 7.2749433e-39
-0.020935277 0.022379048 0.75800008 1.0718117e-38
-0.019491455 0.022379056 0.75800002 1.1730879e-38
-0.018000031 0.022320002 0.75600004 1.2810893e-38
-0.016560039 0.022319995 0.75600004 6.440393e-39
-0.015100026 0.022290461 0.75500011 9.228251e-41
-0.013625718 0.022231445 0.75300002 4.6215244e-40
-0.012191418 0.022231445 0.75300002 8.3272582e-40
-0.010757153 0.022231437 0.75300002 7.3909806e-40
-0.0093104998 0.022201896 0.75200009 6.4582763e-40
-0.0078781191 0.022201903 0.75200003 5.5399074e-40
-0.0064457371 0.022201903 0.75200003 4.6179791e-40
-0.0050133555 0.022201896 0.75200003 4.6144058e-40
-0.00358096 0.022201903 0.75200003 3.6924775e-40
-0.0021428592 0.02214285 0.75000006 7.3658974e-40
-0.00071239052 0.022083811 0.74800003 1.1954085e-39
0.00071237283 0.022083811 0.74800003 9.2026073e-40
0.0021371362 0.022083819 0.74800003 7.373058e-40
0.0035618995 0.022083811 0.74800003 8.2877976e-40
0.0049866633 0.022083819 0.74800003 1.0117389e-39
0.0064113983 0.022083811 0.74800003 7.3623661e-40
0.007836163 0.022083819 0.74800003 4.6000845e-40
0.0092609255 0.022083811 0.74800003 6.454689e-40
0.010714289 0.02214285 0.75000012 9.2277045e-40
0.01214286 0.02214285 0.75000006 8.3165242e-40
0.013571434 0.022142857 0.75000006 7.3945679e-40
0.014999985 0.022142842 0.75000012 7.4017286e-40
0.016472356 0.022201888 0.75200003 8.3129089e-40
0.01790474 0.022201896 0.75200003 9.2312498e-40
0.01933712 0.022201903 0.75200003 1.0149689e-39
0.020797146 0.022231437 0.75300002 1.7503773e-39
0.022231434 0.022231445 0.75300002 2.487571e-39
0.023728561 0.022290468 0.75500005 3.1329278e-39
0.025166655 0.022290468 0.75500005 3.7790021e-39
0.026604729 0.022290461 0.75500005 3.871911e-39
0.028042853 0.022290468 0.75500005 4.0555483e-39
0.029519973 0.02232001 0.75600004 3.2286365e-39
0.030959973 0.02232001 0.75600004 2.3899762e-39
0.032614272 0.022467613 0.76100004 7.7394499e-39
0.034063824 0.022467621 0.76100004 1.3191129e-38
0.035606667 0.022526659 0.76300007 1.7338814e-38
0.037157148 0.022585712 0.76500005 2.1488997e-38
0.038614299 0.022585712 0.76500005 2.1297083e-38
0.040228568 0.022674285 0.76800007 2.1121661e-38
0.041691404 0.022674285 0.76800001 2.1208113e-38
0.04326668 0.022733338 0.77000004 2.1397158e-38
-0.034466699 0.024199992 0.77000004 5.3394684e-39
-0.032914303 0.024137139 0.76800001 2.1219933e-39
-0.031410497 0.024105705 0.76700008 2.6733622e-39
-0.029949542 0.024105713 0.76700008 3.1274922e-39
-0.0284143 0.024042837 0.7650001 4.6840083e-39
-0.026957165 0.024042845 0.76500005 6.266433e-39
-0.025433345 0.023979999 0.76300001 7.0226983e-39
-0.023980007 0.023979999 0.76300007 7.6454732e-39
-0.022467626 0.023917146 0.76100004 1.0202893e-38
-0.020990476 0.023885697 0.76000005 1.2728448e-38
-0.019491469 0.023822844 0.75800008 1.2852649e-38
-0.01800002 0.023760006 0.75600004 1.2899507e-38
-0.016560022 0.023760006 0.75600004 6.5207518e-39
-0.015100026 0.023728557 0.75500011 9.2999975e-41
-0.013661929 0.023728572 0.75500005 4.6251117e-40
-0.012191439 0.023665719 0.75300002 7.3945539e-40
-0.010742893 0.023634285 0.75200003 5.5542987e-40
-0.009310497 0.023634285 0.75200003 3.7067988e-40
-0.0078781135 0.023634285 0.75200003 4.6179651e-40
-0.0064457334 0.023634292 0.75200003 4.6143778e-40
-0.0050133388 0.023634292 0.75200003 4.6072171e-40
-0.0035809767 0.023634285 0.75200003 4.6144338e-40
-0.002142862 0.023571417 0.75000006 9.199076e-40
-0.00071240077 0.023508579 0.74800003 1.3790823e-39
0.00071234768 0.023508579 0.74800003 1.103573e-39
0.002137112 0.023508579 0.74800003 8.2841262e-40
0.0035618753 0.023508571 0.74800003 1.0117123e-39
0.0049866391 0.023508579 0.74800003 1.1035632e-39
0.006411402 0.023508571 0.74800003 8.2735464e-40
0.0078361658 0.023508571 0.74800003 4.6037139e-40
0.0092609292 0.023508571 0.74800003 7.3659674e-40
0.010685714 0.023508586 0.74800003 1.0146158e-39
0.012142858 0.023571424 0.75000006 1.015336e-39
0.013571431 0.023571424 0.75000006 1.0156878e-39
0.015000002 0.023571409 0.75000006 9.2492145e-40
0.016472347 0.023634292 0.75200003 8.3092655e-40
0.017904757 0.023634292 0.75200003 9.2167884e-40
0.019337138 0.023634292 0.75200003 9.2169005e-40
0.020797146 0.023665719 0.75300002 1.6563838e-39
0.022231413 0.023665711 0.75300002 2.3953712e-39
0.023728559 0.023728564 0.75500011 3.0410895e-39
0.025166655 0.023728564 0.75500005 3.5953297e-39
0.026604729 0.023728557 0.75500011 3.5967632e-39
0.028042853 0.023728564 0.75500011 3.5985527e-39
0.029519984 0.023759991 0.7560001 4.1585298e-39
0.031164775 0.023917146 0.76100004 4.615964e-39
0.032699995 0.023979984 0.76300007 9.7613134e-39
0.034153335 0.023979984 0.76300007 1.4846372e-38
0.035606645 0.023979984 0.76300007 1.9188854e-38
0.037157148 0.02404286 0.76500005 2.3416526e-38
0.038715228 0.024105705 0.76700008 2.341761e-38
0.040228575 0.024137139 0.76800001 2.3416174e-38
0.041799989 0.0242 0.77000004 2.3417607e-38
0.043266658 0.024200007 0.77000004 2.3417606e-38
-0.036073357 0.025766663 0.77300012 8.6699835e-39
-0.034466673 0.025666669 0.76999998 4.9782403e-39
-0.032914322 0.025599986 0.76800007 1.3883995e-39
-0.031410489 0.025566652 0.76700008 1.5666839e-39
-0.029949531 0.025566652 0.76700002 1.6534481e-39
-0.028488575 0.025566645 0.76700002 4.7001134e-39
-0.026957165 0.025499992 0.76500005 7.6597735e-39
-0.025500018 0.0255 0.76500005 7.6534326e-39
-0.023980012 0.025433332 0.76300007 7.7502525e-39
-0.022467641 0.025366664 0.76100004 9.5912294e-39
-0.020990467 0.02533333 0.76000005 1.1537451e-38
-0.019491466 0.02526667 0.75800008 1.1812338e-38
-0.018000038 0.025200002 0.75600004 1.2066539e-38
-0.016560024 0.025200002 0.75600004 6.0705455e-39
-0.015100018 0.025166661 0.75500005 9.2283912e-41
-0.01362571 0.0251 0.75300002 4.6250977e-40
-0.012191425 0.025100008 0.75300002 9.2312778e-40
-0.010742876 0.025066659 0.75200003 6.4690803e-40
-0.0093104932 0.025066666 0.75200003 3.6996381e-40
-0.0078781117 0.025066666 0.75200003 4.6215384e-40
-0.006445752 0.025066659 0.75200009 6.454675e-40
-0.0050133546 0.025066666 0.75200003 5.53632e-40
-0.003580973 0.025066666 0.75200003 4.6252098e-40
-0.0021428647 0.024999991 0.75000006 6.4548151e-40
-0.00071429228 0.024999999 0.75000006 9.2026493e-40
0.0007123719 0.024933353 0.74800003 8.2842383e-40
0.0021371362 0.024933346 0.74800003 7.3620718e-40
0.0035618986 0.024933338 0.74800003 1.1042428e-39
0.0049866633 0.024933346 0.74800003 1.4719701e-39
0.0064114262 0.024933338 0.74800003 1.0117431e-39
0.0078361901 0.024933346 0.74800003 5.5221249e-40
0.0092609534 0.024933338 0.74800003 7.3804008e-40
0.010685718 0.024933346 0.74800003 9.2458513e-40
0.012142854 0.024999999 0.75000006 1.1990196e-39
0.013571427 0.024999991 0.75000006 1.4741548e-39
0.015 0.024999999 0.75000006 1.0149647e-39
0.016472364 0.025066659 0.75200003 5.5433966e-40
0.017904745 0.025066666 0.75200003 7.3799664e-40
0.019337106 0.025066659 0.75200003 1.0124409e-39
0.020797154 0.025100008 0.75300002 1.6581719e-39
0.022231443 0.025100008 0.75300002 2.3049664e-39
0.023728553 0.025166661 0.75500005 3.0425202e-39
0.025166655 0.025166653 0.75500011 3.7800755e-39
0.026604751 0.025166653 0.75500005 3.5928172e-39
0.028079988 0.025199994 0.75600004 3.5020831e-39
0.029519988 0.025200002 0.75600004 5.8198784e-39
0.031164762 0.025366664 0.76100004 8.2155382e-39
0.032700002 0.025433324 0.76300007 1.1985502e-38
0.034153335 0.025433339 0.76300001 1.5774107e-38
0.035699978 0.025499985 0.7650001 1.955159e-38
0.037254266 0.025566652 0.76700008 2.3417661e-38
0.038765695 0.025599994 0.76800001 2.3138935e-38
0.040228557 0.025599994 0.76800001 2.2861275e-38
0.041799992 0.025666669 0.77000004 2.2955261e-38
-0.036073353 0.02723904 0.77300006 8.7585862e-39
-0.034466684 0.027133331 0.77000004 4.6980689e-39
-0.032914303 0.027062856 0.76800001 6.4938693e-40
-0.031410504 0.0270276 0.76700008 4.5958806e-40
-0.029949544 0.0270276 0.76700008 1.9523311e-40
-0.028488589 0.0270276 0.76700008 4.6202282e-39
-0.026957152 0.026957139 0.76500005 9.0323103e-39
-0.025433343 0.026886657 0.76300007 8.3636667e-39
-0.02398002 0.026886657 0.76300007 7.7502623e-39
-0.022467619 0.026816189 0.76100004 9.0582301e-39
-0.020990489 0.026780941 0.76000011 1.0338941e-38
-0.019491464 0.02671048 0.75800008 1.0791698e-38
-0.017976202 0.026604749 0.75500005 1.1237849e-38
-0.016538128 0.026604749 0.75500011 5.694245e-39
-0.015059996 0.026534297 0.75300002 9.3365714e-41
-0.013625709 0.026534297 0.75300002 5.5506413e-40
-0.012175267 0.02649904 0.75200003 1.0149563e-39
-0.010742872 0.02649904 0.75200003 7.3908685e-40
-0.0093104895 0.026499048 0.75200003 3.7067287e-40
-0.0078781294 0.026499033 0.75200003 5.5434947e-40
-0.0064457334 0.026499033 0.75200003 7.3802046e-40
-0.0050133518 0.026499033 0.75200003 5.5435087e-40
-0.0035809702 0.02649904 0.75200003 3.7068408e-40
-0.0021428685 0.026428573 0.75000006 3.7104562e-40
-0.00071428297 0.026428573 0.75000006 3.6996942e-40
0.00071236258 0.026358105 0.74800003 5.5363901e-40
0.0021371399 0.026358105 0.74800003 6.4510036e-40
0.0035618753 0.026358105 0.74800003 1.2882922e-39
0.0049866387 0.026358105 0.74800003 1.8389618e-39
0.0064114016 0.026358105 0.74800003 1.2868866e-39
0.0078361658 0.026358105 0.74800003 6.4475844e-40
0.0092609292 0.026358113 0.74800003 7.38389e-40
0.010685693 0.026358105 0.74800003 7.3874073e-40
0.012110456 0.026358105 0.74800003 1.2901054e-39
0.013571423 0.026428573 0.75000006 1.8407597e-39
0.014999996 0.026428573 0.75000006 1.1064344e-39
0.016428547 0.026428565 0.75000012 2.7955204e-40
0.017904742 0.026499033 0.75200009 6.4689122e-40
0.019337123 0.02649904 0.75200003 1.0138829e-39
0.020797154 0.026534297 0.75300002 1.5666979e-39
0.022231441 0.026534297 0.75300002 2.121301e-39
0.023728555 0.026604757 0.75500005 3.0432475e-39
0.025166629 0.026604749 0.75500011 3.8658209e-39
0.026604751 0.026604749 0.75500005 3.5845761e-39
0.02807997 0.026640005 0.75600004 3.3320748e-39
0.02951997 0.026640005 0.75600004 7.5863286e-39
0.031123819 0.026780948 0.76000005 1.180506e-38
0.032614302 0.026816204 0.76100004 1.4191387e-38
0.034153342 0.026886664 0.76300001 1.660172e-38
0.035699978 0.026957132 0.76500005 2.000933e-38
0.037254285 0.027027607 0.76700002 2.3413336e-38
0.038765699 0.027062863 0.76800001 2.2859449e-38
0.040228568 0.027062848 0.76800007 2.2217677e-38
0.041908555 0.027203806 0.77200007 2.2492825e-38
-0.036073342 0.028711446 0.77300006 7.4814933e-39
-0.034556217 0.028674275 0.77200007 5.8008109e-39
-0.03300003 0.028599985 0.77000004 4.2248476e-39
-0.031451441 0.028525718 0.76800001 5.7999898e-39
-0.029949538 0.028488554 0.76700008 7.3630976e-39
-0.028488582 0.028488562 0.76700002 1.0054059e-38
-0.026957151 0.028414279 0.76500005 1.2730152e-38
-0.025433352 0.028340004 0.76300007 1.2256932e-38
-0.023980025 0.028339989 0.76300007 1.1890045e-38
-0.022467632 0.028265715 0.76100004 1.2727781e-38
-0.02099048 0.028228559 0.76000005 1.3642165e-38
-0.019491458 0.028154284 0.75800008 1.3097942e-38
-0.017976215 0.028042853 0.75500011 1.244927e-38
-0.016538106 0.02804286 0.75500005 6.2581821e-39
-0.015059997 0.027968578 0.75300002 9.2295122e-41
-0.013625717 0.027968571 0.75300002 5.547068e-40
-0.01217525 0.027931437 0.75200003 9.2418997e-40
-0.010742866 0.027931437 0.75200003 5.5540044e-40
-0.0093105063 0.027931422 0.75200003 2.7883037e-40
-0.0078781256 0.027931429 0.75200003 4.6251397e-40
-0.0064457296 0.027931437 0.75200003 6.465451e-40
-0.0050133471 0.027931437 0.75200003 4.6179931e-40
-0.0035809665 0.027931444 0.75200003 2.7776959e-40
-0.0021371613 0.027782865 0.74800003 2.7812832e-40
-0.00071239704 0.027782865 0.74800003 2.7813252e-40
0.00071235234 0.027782865 0.74800003 3.6997222e-40
0.0021371157 0.027782865 0.74800003 5.5363621e-40
0.003561879 0.027782865 0.74800003 9.2096978e-40
0.0049866429 0.027782865 0.74800003 1.2883146e-39
0.0064114057 0.027782865 0.74800003 9.2025792e-40
0.0078361696 0.027782865 0.74800003 5.5255721e-40
0.0092609338 0.027782872 0.74800003 6.4510877e-40
0.010685717 0.027782865 0.74800003 7.3620858e-40
0.012142847 0.027857132 0.75000006 1.1046071e-39
0.01357142 0.027857132 0.75000006 1.4719617e-39
0.014999992 0.02785714 0.75000006 9.2132011e-40
0.016428564 0.027857132 0.75000006 4.628671e-40
0.017904732 0.027931429 0.75200003 7.3838059e-40
0.019337114 0.027931422 0.75200003 1.1050093e-39
0.020797135 0.027968571 0.75300002 1.5667007e-39
0.022231421 0.027968571 0.75300002 2.1216668e-39
0.023728553 0.028042845 0.75500011 2.2131491e-39
0.025166648 0.02804286 0.75500005 2.3003225e-39
0.026604751 0.028042845 0.75500011 4.4182786e-39
0.028079981 0.028080001 0.75600004 6.6442805e-39
0.029676195 0.028228551 0.76000011 9.9690797e-39
0.031164756 0.028265722 0.76100004 1.3369178e-38
0.032614291 0.028265707 0.76100004 1.5767695e-38
0.03415332 0.028339997 0.76300001 1.8176214e-38
0.035699978 0.028414287 0.76500005 2.075011e-38
0.037254289 0.028488554 0.76700008 2.3417623e-38
0.038765706 0.02852571 0.76800001 2.3138867e-38
0.040333319 0.0286 0.77000004 2.2861209e-38
0.041908551 0.028674275 0.77200007 2.2953405e-38
-0.036260005 0.030339994 0.77700001 6.0777369e-39
-0.034466676 0.030066662 0.77000004 6.9828356e-39
-0.033000004 0.030066654 0.77000004 7.8312532e-39
-0.03145146 0.029988557 0.76800007 1.1244607e-38
-0.02994954 0.029949501 0.76700008 1.4562594e-38
-0.02848858 0.029949501 0.76700008 1.5502184e-38
-0.026957151 0.029871427 0.76500005 1.6414767e-38
-0.025433358 0.02979333 0.76300007 1.6227478e-38
-0.023917161 0.02971524 0.76100004 1.5951296e-38
-0.022438101 0.029676177 0.76000011 1.6503428e-38
-0.02093526 0.029598087 0.75800002 1.6967981e-38
-0.019440027 0.029519998 0.75600004 1.5324981e-38
-0.017976217 0.029480942 0.75500011 1.3637041e-38
-0.016538123 0.029480942 0.75500005 6.8881064e-39
-0.015060003 0.02940286 0.75300002 9.3009784e-41
-0.013625718 0.029402867 0.75300002 4.6287551e-40
-0.012175246 0.029363811 0.75200003 8.3165102e-40
-0.010742886 0.029363811 0.75200003 4.628727e-40
-0.0093105044 0.029363811 0.75200003 9.5889453e-41
-0.0078781219 0.029363811 0.75200003 2.7848565e-40
-0.0064457268 0.029363811 0.75200003 4.6215524e-40
-0.0050133648 0.029363804 0.75200009 3.6888341e-40
-0.0035809833 0.029363804 0.75200003 1.8593409e-40
-0.0021371511 0.029207624 0.74800003 1.8557956e-40
-0.0007123868 0.029207624 0.74800003 1.8558376e-40
0.00071237562 0.029207624 0.74800003 2.7742346e-40
0.0021371399 0.029207624 0.74800003 3.6996942e-40
0.0035619023 0.029207624 0.74800003 5.5363481e-40
0.0049866666 0.029207624 0.74800003 6.4511017e-40
0.0064114295 0.029207624 0.74800003 5.5255721e-40
0.0078361938 0.029207624 0.74800003 3.6924635e-40
0.0092609301 0.029207624 0.74800003 5.5363761e-40
0.010714272 0.029285714 0.75000012 6.4511017e-40
0.012142844 0.029285707 0.75000006 9.2025512e-40
0.013571416 0.029285714 0.75000006 1.1042848e-39
0.014999989 0.029285707 0.75000006 8.2806089e-40
0.016472368 0.029363804 0.75200003 5.5399214e-40
0.017904749 0.029363811 0.75200003 8.3022029e-40
0.019337131 0.029363811 0.75200003 1.1060883e-39
0.020797161 0.02940286 0.75300002 1.56527e-39
0.022231447 0.029402867 0.75300002 2.0287551e-39
0.023728555 0.029480942 0.75500011 1.3877045e-39
0.025166651 0.029480956 0.75500011 6.4694167e-40
0.026639985 0.029520012 0.75600004 5.3269843e-39
0.028079985 0.029520005 0.75600004 9.9575736e-39
0.029676193 0.029676169 0.76000005 1.2459446e-38
0.031123817 0.029676162 0.76000011 1.485184e-38
0.032614294 0.02971524 0.76100004 1.7241365e-38
0.034153327 0.029793322 0.76300001 1.9641279e-38
0.035606667 0.029793322 0.76300007 2.1580939e-38
0.037157129 0.029871427 0.76500005 2.3416559e-38
0.038765691 0.029988557 0.76800007 2.3417623e-38
0.040228553 0.029988579 0.76800007 2.341511e-38
0.041799974 0.030066654 0.77000004 2.341511e-38
-0.036260001 0.031819999 0.77700001 6.6129292e-39
-0.034466684 0.031533316 0.77000004 9.3052706e-39
-0.033000015 0.031533316 0.77000004 1.199477e-38
-0.031451441 0.031451434 0.76800001 1.3378482e-38
-0.029988585 0.031451441 0.76800001 1.4772547e-38
-0.028488575 0.031410463 0.76700008 1.5134539e-38
-0.026957151 0.031328559 0.76500005 1.559765e-38
-0.02543333 0.031246662 0.76300001 1.5224914e-38
-0.02391714 0.031164758 0.76100004 1.4868325e-38
-0.02243809 0.031123802 0.76000005 1.4120715e-38
-0.020935277 0.031041898 0.75800008 1.3493306e-38
-0.019440031 0.030959994 0.75600004 1.3109118e-38
-0.018000029 0.030959994 0.75600004 1.2722642e-38
-0.016538121 0.030919038 0.75500011 6.3492805e-39
-0.015059989 0.030837163 0.75300002 9.2289517e-41
-0.013625702 0.030837163 0.75300002 4.6287971e-40
-0.012191437 0.030837148 0.75300002 9.2493686e-40
-0.010742882 0.030796178 0.75200003 6.4800385e-40
-0.0093104988 0.030796185 0.75200003 3.7392108e-40
-0.0078781033 0.030796185 0.75200003 5.557858e-40
-0.0064457436 0.030796178 0.75200009 7.3837639e-40
-0.005013362 0.030796185 0.75200003 5.5398373e-40
-0.0035809656 0.030796185 0.75200003 3.6996241e-40
-0.0021428647 0.030714266 0.75000012 3.6925336e-40
-0.00071429228 0.030714266 0.75000006 3.685415e-40
0.00071236631 0.030632384 0.74800003 3.6926316e-40
0.0021371148 0.030632384 0.74800003 4.6181052e-40
0.003561879 0.030632384 0.74800003 5.5328168e-40
0.0049866424 0.030632392 0.74800003 6.4439551e-40
0.0064114067 0.030632384 0.74800003 5.5255581e-40
0.0078361696 0.030632392 0.74800003 3.6889042e-40
0.0092609338 0.030632384 0.74800003 4.6144758e-40
0.010685696 0.030632377 0.74800003 4.6217766e-40
0.012142841 0.030714273 0.75000006 1.1965141e-39
0.013571413 0.030714273 0.75000006 1.83935e-39
0.015039978 0.030796185 0.75200003 1.2879656e-39
0.016472358 0.030796185 0.75200003 8.2986577e-40
0.017904738 0.030796193 0.75200003 9.2205999e-40
0.019337129 0.030796185 0.75200009 1.10681e-39
0.02076951 0.030796185 0.75200003 1.5674252e-39
0.022231428 0.030837156 0.75300002 2.0298327e-39
0.023665713 0.030837156 0.75300002 1.2926376e-39
0.025166651 0.030919038 0.75500011 5.5261186e-40
0.026639966 0.030960009 0.75600004 5.8995562e-39
0.028079994 0.030960009 0.75600004 1.1358823e-38
0.029676188 0.031123802 0.76000005 1.3205655e-38
0.031123815 0.031123802 0.76000005 1.4959123e-38
0.032614283 0.031164765 0.76100004 1.5587964e-38
0.034153335 0.03124667 0.76300007 1.6147585e-38
0.035606675 0.03124667 0.76300007 1.8450645e-38
0.037157129 0.031328574 0.76500005 2.0749398e-38
0.03871524 0.031410456 0.76700008 2.0471733e-38
0.040228583 0.031451434 0.76800001 2.0292364e-38
0.041908577 0.031615227 0.77200001 2.0288055e-38
-0.036260005 0.03329999 0.77700001 7.191297e-39
-0.034466699 0.032999985 0.77000004 1.1630312e-38
-0.033000015 0.032999992 0.77000004 1.6043833e-38
-0.031451445 0.032914288 0.76800007 1.5501109e-38
-0.029988587 0.032914281 0.76800001 1.4942937e-38
-0.028488588 0.03287141 0.76700008 1.4848964e-38
-0.026957158 0.032785691 0.7650001 1.4668148e-38
-0.025433335 0.032699995 0.76300001 1.4206444e-38
-0.023917152 0.032614283 0.76100004 1.3650401e-38
-0.022438101 0.032571405 0.76000011 1.1801489e-38
-0.020935273 0.032485709 0.75800008 9.9751936e-39
-0.019491449 0.032485716 0.75800002 1.0895355e-38
-0.01800002 0.032399997 0.75600004 1.1702755e-38
-0.016538113 0.032357134 0.75500005 5.8779104e-39
-0.015060009 0.03227143 0.75300002 9.3369918e-41
-0.013625708 0.032271437 0.75300002 5.5543688e-40
-0.012191422 0.032271445 0.75300002 9.2313899e-40
-0.010742879 0.032228574 0.75200003 8.3058743e-40
-0.009310496 0.032228574 0.75200003 6.4760868e-40
-0.0078781201 0.032228574 0.75200009 8.3161319e-40
-0.0064457399 0.032228574 0.75200003 9.2310116e-40
