# .PCD v0.7 - Point Cloud Data file format
VERSION 0.7
FIELDS x y z rgb
SIZE 4 4 4 4
TYPE F F F F
COUNT 1 1 1 1
WIDTH 972
HEIGHT 1
VIEWPOINT 0 0 0 1 0 0 0
POINTS 972
DATA ascii
0.055002913 0.039060012 0.83700001 4.320454e-39
0.056597173 0.039060012 0.83700007 8.4932742e-39
0.058191437 0.039059997 0.83700007 1.5130946e-38
0.059785787 0.039060004 0.83700007 2.17553e-38
0.061380047 0.03906 0.83700007 2.2590791e-38
0.062974311 0.039060004 0.83700007 2.3417312e-38
0.064722843 0.039153349 0.83900005 2.3417314e-38
0.066320919 0.039153337 0.83900005 2.3325115e-38
-0.028674291 0.037497133 0.77200007 2.6761984e-39
-0.027203782 0.03749714 0.77200007 3.6845966e-39
-0.025666671 0.0374 0.7700001 3.3179721e-39
-0.02419997 0.037400007 0.77000004 3.0417593e-39
-0.022674259 0.037302852 0.76800007 2.580798e-39
-0.021183837 0.037254274 0.76700008 2.2116582e-39
-0.019671412 0.037157163 0.76500005 1.842877e-39
-0.018119022 0.036962859 0.76100004 1.4751777e-39
-0.016647615 0.036914296 0.76000011 1.382266e-39
-0.015199993 0.036914289 0.76000011 1.2889998e-39
-0.013716174 0.036817148 0.75800002 1.1971671e-39
-0.01227236 0.036817163 0.75800002 1.105333e-39
-0.010799996 0.036720008 0.7560001 5.5252778e-40
-0.0093599893 0.036720015 0.7560001 9.239041e-41
-0.007909487 0.036671437 0.75500005 6.7351547e-39
-0.0064542862 0.036574282 0.75300008 1.33979e-38
-0.0050199721 0.036574304 0.75300002 1.5234258e-38
-0.0035809716 0.036525704 0.75200009 1.7162413e-38
-0.0021428578 0.036428563 0.75000012 1.4660579e-38
-0.00071235176 0.036331438 0.74800003 1.210717e-38
0.00071240414 0.036331423 0.74800003 1.3944285e-38
0.0021371394 0.03633143 0.74800009 1.569454e-38
0.0035619363 0.03633143 0.74800003 1.4861205e-38
0.0049866717 0.036331438 0.74800003 1.4041134e-38
0.0064114667 0.036331438 0.74800003 1.5594435e-38
0.0078362003 0.03633143 0.74800003 1.7074572e-38
0.0092609962 0.03633143 0.74800003 1.5133478e-38
0.010671417 0.036282845 0.7470001 1.3184758e-38
0.012094266 0.036282845 0.7470001 6.6313479e-39
0.013517139 0.03628286 0.7470001 1.8429177e-40
0.014939987 0.036282852 0.7470001 8.1249163e-39
0.016362859 0.036282852 0.7470001 1.6153694e-38
0.017809523 0.036331423 0.74800003 1.4484139e-38
0.019234318 0.036331438 0.74800003 1.2818923e-38
0.020659054 0.03633143 0.74800003 1.5774537e-38
0.022083849 0.036331438 0.74800003 1.8825911e-38
0.023571413 0.036428563 0.75000012 1.8909133e-38
0.024999993 0.036428578 0.75000012 1.9009567e-38
0.02642856 0.036428556 0.75000012 1.4116444e-38
0.027931424 0.036525697 0.75200009 9.2211507e-39
0.029363813 0.036525711 0.75200009 8.4789025e-39
0.030919056 0.03667143 0.75500005 7.6807705e-39
0.03235716 0.036671422 0.75500011 1.2652489e-38
0.033795282 0.036671437 0.75500005 1.7533393e-38
0.035280026 0.03672 0.7560001 1.5410044e-38
0.036719993 0.036720008 0.7560001 1.3301017e-38
0.038260937 0.036817141 0.75800002 1.0796307e-38
0.039809544 0.036914289 0.76000005 8.3080534e-39
0.041311421 0.036962852 0.76100004 4.890683e-39
0.042760987 0.036962852 0.76100004 1.3779753e-39
0.044442859 0.037157141 0.7650001 5.340532e-39
0.045899995 0.037157148 0.76500005 9.3806535e-39
0.047542885 0.037302859 0.76800007 6.6357087e-39
0.049005739 0.037302867 0.76800007 3.8680868e-39
0.055002879 0.040654276 0.83700007 7.1910223e-39
0.056597181 0.040654287 0.83700001 1.0616241e-38
0.058191445 0.04065429 0.83700007 1.4301183e-38
0.059785709 0.040654287 0.83700007 1.7983942e-38
0.061380055 0.040654294 0.83700007 1.9367584e-38
0.062974319 0.040654294 0.83700007 2.0754451e-38
0.064568579 0.04065429 0.83700007 2.2039795e-38
0.066162884 0.040654287 0.83700001 2.3417675e-38
0.067757197 0.040654279 0.83700007 2.3417663e-38
-0.02867428 0.038967613 0.77200007 2.5861622e-39
-0.027133316 0.038866673 0.77000004 3.5023675e-39
-0.025666676 0.03886668 0.7700001 3.2261478e-39
-0.024137137 0.038765717 0.76800007 2.9495665e-39
-0.022585707 0.038614295 0.76500005 2.7648221e-39
-0.02118383 0.038715228 0.76700008 2.4867989e-39
-0.019619972 0.038513351 0.76300001 2.0258236e-39
-0.01811903 0.038412377 0.76100004 1.4733771e-39
-0.016669523 0.038412366 0.7610001 1.5644951e-39
-0.015199972 0.038361914 0.76000005 1.5641293e-39
-0.01371617 0.038260967 0.75800002 1.2886173e-39
-0.012272355 0.038260963 0.75800002 1.0124087e-39
-0.01080001 0.038160004 0.7560001 5.5145298e-40
-0.0093600024 0.038160007 0.7560001 1.0271658e-40
-0.0079095094 0.038109522 0.75500011 6.7454024e-39
-0.0064542862 0.038008578 0.75300002 1.3286253e-38
-0.0050200131 0.038008571 0.75300002 1.4870855e-38
-0.00358098 0.037958086 0.75200009 1.6313995e-38
-0.0021428466 0.037857141 0.75000012 1.6048851e-38
-0.00071430381 0.037857134 0.75000012 1.5769437e-38
0.00071239856 0.037756193 0.74800003 1.4498127e-38
0.002137132 0.037756197 0.74800003 1.3097991e-38
0.003561927 0.037756201 0.74800003 1.1173389e-38
0.0049866606 0.037756182 0.74800003 9.1433057e-39
0.0064114565 0.037756193 0.74800003 1.1900508e-38
0.0078361919 0.037756197 0.74800003 1.466709e-38
0.0092609879 0.037756201 0.74800003 1.2464868e-38
0.010685721 0.03775619 0.74800003 1.0233442e-38
0.012110516 0.037756201 0.74800003 5.1432768e-39
0.013517123 0.037705708 0.7470001 1.128816e-40
0.014960009 0.037756186 0.74800009 8.5037433e-39
0.01638478 0.037756193 0.74800003 1.6783639e-38
0.017809536 0.037756193 0.74800009 1.4569893e-38
0.019234311 0.037756208 0.74800003 1.2367283e-38
0.020659067 0.037756193 0.74800003 1.4482735e-38
0.022083839 0.037756193 0.74800003 1.6512081e-38
0.02357142 0.037857153 0.75000012 1.6785791e-38
0.024999987 0.03785713 0.75000012 1.697016e-38
0.026428567 0.03785713 0.75000012 1.0988997e-38
0.027931413 0.037958074 0.75200009 4.9945318e-39
0.029480953 0.03810953 0.75500011 5.5117777e-39
0.030919097 0.038109526 0.75500005 6.0169248e-39
0.032357179 0.03810953 0.75500005 1.0908293e-38
0.033840008 0.038159996 0.7560001 1.5681581e-38
0.035280012 0.038160007 0.7560001 1.2178913e-38
0.036817171 0.038260959 0.75800008 8.5875956e-39
0.038260981 0.038260955 0.75800002 5.1577074e-39
0.039861929 0.038412374 0.76100004 1.7683588e-39
0.041420028 0.038513348 0.76300001 9.1883561e-40
0.042985748 0.038614281 0.7650001 1.0276843e-40
0.044442885 0.038614295 0.76500005 8.9505936e-39
0.046080045 0.038765725 0.76800001 1.7777601e-38
0.0475429 0.038765717 0.76800001 1.2741036e-38
0.053408623 0.042248562 0.83700007 7.6606479e-39
0.055002887 0.042248562 0.83700007 1.0143058e-38
0.056597188 0.042248573 0.83700001 1.2638067e-38
0.058191452 0.042248573 0.83700007 1.3381745e-38
0.059785713 0.042248573 0.83700007 1.4119304e-38
0.061233331 0.042147614 0.8350001 1.6141124e-38
0.062823787 0.042147614 0.8350001 1.8077933e-38
-0.028599985 0.040333346 0.77000004 2.4918212e-39
-0.027133321 0.040333334 0.77000004 3.5020172e-39
-0.02566666 0.040333323 0.7700001 3.1336046e-39
-0.0241371 0.040228568 0.76800007 2.8570164e-39
-0.022674268 0.040228572 0.76800001 2.6715447e-39
-0.021183822 0.040176194 0.76700008 2.4849996e-39
-0.019671435 0.040071443 0.7650001 1.8410694e-39
-0.018119037 0.039861895 0.76100004 1.1957112e-39
-0.01666953 0.039861903 0.7610001 1.1960699e-39
-0.015199967 0.039809521 0.76000005 1.2871711e-39
-0.013716204 0.039704762 0.75800002 1.1042008e-39
-0.01227239 0.039704774 0.75800002 1.0123947e-39
-0.010799984 0.039600007 0.75600004 5.5252918e-40
-0.009359994 0.039600007 0.7560001 1.8407176e-40
-0.0079094935 0.039547618 0.75500005 3.4183625e-39
-0.006454288 0.03944286 0.75300002 6.7436101e-39
-0.0050199926 0.039442863 0.75300008 7.4701988e-39
-0.0035809297 0.039390467 0.75200009 8.1739841e-39
-0.0021428745 0.039285708 0.75000012 1.096021e-38
-0.0007142945 0.039285719 0.75000012 1.3627415e-38
0.00071427238 0.039285708 0.75000012 1.4094153e-38
0.0021371488 0.039180953 0.74800009 1.4423823e-38
0.0035619214 0.039180968 0.74800003 1.4180954e-38
0.0049866773 0.039180946 0.74800009 1.3876727e-38
0.00641145 0.039180968 0.74800003 1.5753951e-38
0.0078362087 0.039180953 0.74800009 1.7686868e-38
0.0092609813 0.039180968 0.74800003 1.7052697e-38
0.010671445 0.039128564 0.7470001 1.6386036e-38
0.01211051 0.039180968 0.74800003 1.3723029e-38
0.013535267 0.039180953 0.74800003 1.1139936e-38
0.014960002 0.039180961 0.74800003 1.5492215e-38
0.016384797 0.039180953 0.74800003 1.9916819e-38
0.017809531 0.039180961 0.74800003 1.8809051e-38
0.019234303 0.039180957 0.74800003 1.7699486e-38
0.020659059 0.039180964 0.74800003 1.8715051e-38
0.022083834 0.039180964 0.74800003 1.9719142e-38
0.023571417 0.039285701 0.75000012 1.9726315e-38
0.024999997 0.039285704 0.75000012 1.9718039e-38
0.026428539 0.039285712 0.75000012 1.6687083e-38
0.027931403 0.039390467 0.75200009 1.3633849e-38
0.02948099 0.039547626 0.75500005 1.3731722e-38
0.030919073 0.039547615 0.75500005 1.3925853e-38
0.032357156 0.039547622 0.75500011 1.6142518e-38
0.033839993 0.039600004 0.7560001 1.8432307e-38
0.03528 0.0396 0.7560001 1.5948803e-38
0.036817174 0.03970477 0.75800002 1.3539501e-38
0.038260989 0.039704777 0.75800002 1.0784741e-38
0.039861917 0.039861891 0.76100004 8.0253666e-39
0.041419998 0.039966673 0.76300007 4.5105009e-39
0.043098092 0.040176202 0.76700002 1.010807e-39
0.044559002 0.040176187 0.76700008 9.5107108e-39
0.046080023 0.040228575 0.76800007 1.7997961e-38
0.047666702 0.040333331 0.77000004 1.3467888e-38
0.053280912 0.043738097 0.83500004 8.9410073e-39
0.054871403 0.043738108 0.83500004 1.1806525e-38
0.056597196 0.04384286 0.83700001 1.4666709e-38
0.05819146 0.04384286 0.83700007 1.4574523e-38
0.059785724 0.043842863 0.83700007 1.4572728e-38
0.061233319 0.04373809 0.8350001 1.4941143e-38
0.06282381 0.043738097 0.83500004 1.5398547e-38
-0.028599991 0.041800015 0.77000004 2.3085187e-39
-0.027133327 0.041800007 0.77000004 3.4098384e-39
-0.025666665 0.041800015 0.7700001 3.0414328e-39
-0.024137123 0.04169143 0.76800007 2.6729992e-39
-0.022674229 0.041691441 0.76800001 2.5797134e-39
-0.021211399 0.041691441 0.76800001 2.3935285e-39
-0.019671384 0.041528594 0.76500005 1.6574068e-39
-0.018166676 0.041419998 0.76300007 8.2981392e-40
-0.016669538 0.041311421 0.76100004 9.2093615e-40
-0.015199983 0.041257154 0.76000011 1.0127632e-39
-0.013716199 0.041148581 0.75800002 1.0120374e-39
-0.012272363 0.041148581 0.75800002 9.2093896e-40
-0.010799974 0.041040007 0.7560001 6.4509475e-40
-0.0093475962 0.040985726 0.75500005 2.7664995e-40
-0.0079095159 0.040985726 0.75500005 1.8407036e-40
-0.0064542675 0.040877152 0.75300002 1.0201873e-40
-0.0050199945 0.040877141 0.75300002 9.2432449e-41
-0.0035809427 0.040822849 0.75200009 1.1254529e-40
-0.0021428633 0.04071429 0.75000012 5.8074475e-39
-0.00071429822 0.040714279 0.75000012 1.1529598e-38
0.00071428169 0.040714279 0.75000012 1.3735095e-38
0.0021428484 0.040714275 0.75000012 1.5852335e-38
0.003561914 0.040605716 0.74800003 1.7342152e-38
0.0049866717 0.04060572 0.74800009 1.8707835e-38
0.0064285733 0.040714279 0.75000012 1.9735592e-38
0.0078571169 0.040714279 0.75000012 2.0651111e-38
0.009260973 0.04060572 0.74800003 2.1580979e-38
0.010685731 0.040605724 0.74800003 2.2485633e-38
0.012110503 0.040605724 0.74800003 2.2315527e-38
0.01353526 0.04060572 0.74800003 2.2114705e-38
0.014959994 0.040605713 0.74800003 2.2591171e-38
0.016384788 0.04060572 0.74800003 2.2955283e-38
0.017809525 0.040605716 0.74800003 2.3050347e-38
0.01923432 0.040605724 0.74800003 2.3043528e-38
0.020659054 0.040605716 0.74800003 2.2958505e-38
0.022083849 0.040605724 0.74800003 2.2855548e-38
0.023571428 0.040714275 0.75000012 2.2681563e-38
0.024999969 0.040714279 0.75000012 2.2489268e-38
0.026428573 0.040714279 0.75000012 2.2407464e-38
0.02793139 0.040822856 0.75200009 2.2209413e-38
0.029480968 0.040985707 0.75500011 2.2039702e-38
0.030919088 0.040985722 0.75500005 2.1752028e-38
0.032400012 0.041040007 0.75600004 2.1486953e-38
0.033840019 0.041040003 0.75600004 2.1109198e-38
0.035373341 0.041148581 0.75800002 1.9828156e-38
0.036817178 0.041148573 0.75800002 1.8430131e-38
0.038361907 0.04125715 0.76000005 1.632397e-38
0.03986191 0.041311424 0.76100004 1.4180877e-38
0.041420005 0.041420002 0.76300001 8.0867071e-39
0.043098059 0.041637145 0.76700008 1.9535558e-39
0.044559054 0.041637141 0.76700008 1.0083248e-38
0.046080038 0.041691437 0.76800001 1.8073276e-38
0.047666699 0.041800003 0.77000004 1.4098862e-38
0.049260929 0.041908558 0.77200007 1.0151718e-38
0.054871395 0.045328576 0.83500004 1.3383168e-38
0.056597162 0.045437139 0.83700007 1.6597409e-38
0.058191463 0.04543715 0.83700001 1.5769095e-38
0.059785727 0.04543715 0.83700007 1.4940428e-38
0.061233301 0.045328572 0.83500004 1.3835896e-38
0.062823802 0.045328569 0.8350001 1.2644201e-38
-0.028599972 0.04326668 0.77000004 2.214898e-39
-0.027133333 0.043266673 0.77000004 3.5931675e-39
-0.025666632 0.043266676 0.77000004 3.132932e-39
-0.02419997 0.04326668 0.77000004 2.7644886e-39
-0.022733331 0.04326668 0.77000004 2.7626697e-39
-0.021211399 0.043154288 0.76800007 2.7601586e-39
-0.019671397 0.04298573 0.76500005 2.0247558e-39
-0.018166669 0.042873349 0.76300001 1.3815556e-39
-0.016669523 0.042760942 0.7610001 1.1975329e-39
-0.01519996 0.04270478 0.76000005 1.0142206e-39
-0.013716173 0.042592391 0.75800002 1.0135031e-39
-0.012272359 0.042592399 0.75800002 9.2275504e-40
-0.010799988 0.042480014 0.7560001 8.2949442e-40
-0.0093599828 0.042480007 0.75600004 7.3657012e-40
-0.0079094758 0.042423815 0.75500005 4.5997342e-40
-0.0064542685 0.042311434 0.75300002 1.8415024e-40
-0.0050199935 0.042311441 0.75300002 3.7912452e-39
-0.0035856981 0.04231143 0.75300008 7.405931e-39
-0.0021428708 0.042142849 0.75000012 1.089757e-38
-0.00071428891 0.042142842 0.75000012 1.4417803e-38
0.00071425375 0.042142849 0.75000012 1.4126504e-38
0.0021428559 0.042142864 0.75000012 1.3958625e-38
0.0035714004 0.042142849 0.75000012 1.4129749e-38
0.0050000027 0.042142846 0.75000012 1.4417811e-38
0.0064285444 0.042142849 0.75000012 1.3943208e-38
0.0078571495 0.042142864 0.75000012 1.3591292e-38
0.0092609888 0.042030487 0.74800003 1.3208524e-38
0.010685724 0.042030491 0.74800003 1.2945215e-38
0.01211052 0.042030487 0.74800003 1.2472047e-38
0.013535254 0.042030472 0.74800003 1.2116184e-38
0.01496001 0.042030483 0.74800009 1.2286223e-38
0.016384782 0.042030495 0.74800003 1.2579667e-38
0.01780954 0.04203048 0.74800009 1.2470971e-38
0.019285709 0.042142846 0.75000012 1.2486755e-38
0.02065907 0.042030476 0.74800003 1.2005336e-38
0.022083843 0.042030495 0.74800003 1.164481e-38
0.023571398 0.042142853 0.75000012 1.1636918e-38
0.025000002 0.042142846 0.75000012 1.1741309e-38
0.026428543 0.042142849 0.75000012 1.1639788e-38
0.027931442 0.042255238 0.75200009 1.1654854e-38
0.029480984 0.042423807 0.75500005 1.1637994e-38
0.030959995 0.042479999 0.7560001 1.1647321e-38
0.032399997 0.042480007 0.7560001 1.2098248e-38
0.033929534 0.042592395 0.75800002 1.2474898e-38
0.035373367 0.042592399 0.75800002 1.0986498e-38
0.036914308 0.042704765 0.76000005 9.4266959e-39
0.038361892 0.042704768 0.76000005 1.0424297e-38
0.039966688 0.042873334 0.76300007 1.1429781e-38
0.041420016 0.042873349 0.76300001 6.6345597e-39
0.042985752 0.04298573 0.76500005 1.9496111e-39
0.044442855 0.042985719 0.76500005 7.3055827e-39
0.04620003 0.04326668 0.77000004 1.266465e-38
0.047666691 0.043266673 0.77000004 1.2455472e-38
0.0534086 0.047031432 0.83700001 1.2264999e-38
0.054871384 0.046919048 0.83500004 1.4758561e-38
0.056461923 0.046919048 0.83500004 1.7244207e-38
0.058191475 0.047031436 0.83700001 1.6322253e-38
0.059785739 0.04703144 0.83700007 1.5400323e-38
0.06123329 0.046919044 0.83500004 1.4204321e-38
-0.028674286 0.044849522 0.77200007 2.1244862e-39
-0.027133338 0.044733346 0.77000004 3.777179e-39
-0.025666639 0.044733342 0.77000004 3.315503e-39
-0.024199976 0.044733346 0.77000004 2.7641173e-39
-0.022733312 0.044733342 0.7700001 2.9466981e-39
-0.021266673 0.044733334 0.77000004 3.0363699e-39
-0.019671408 0.044442859 0.76500005 2.4831948e-39
-0.018166658 0.044326682 0.76300001 1.8407288e-39
-0.016669532 0.044210464 0.7610001 1.4726946e-39
-0.015219986 0.044210475 0.76100004 1.0135115e-39
-0.013752356 0.04415239 0.76000005 1.0131486e-39
-0.012272354 0.044036206 0.75800002 9.2132431e-40
-0.01082858 0.044036195 0.75800002 1.0128109e-39
-0.0093599958 0.043920014 0.75600004 1.1049925e-39
-0.0079094991 0.043861903 0.75500005 7.3548551e-40
-0.0064714178 0.043861896 0.75500005 2.8746797e-40
-0.0050199954 0.043745719 0.75300002 7.4826017e-39
-0.0035856999 0.043745723 0.75300002 1.4564421e-38
-0.0021428578 0.04357142 0.75000012 1.586742e-38
-0.00071431685 0.043571424 0.75000012 1.7143411e-38
0.00071428542 0.043571416 0.75000012 1.4578097e-38
0.0021428298 0.04357142 0.75000012 1.1992359e-38
0.0035714321 0.04357142 0.75000012 1.0983606e-38
0.0049999766 0.04357142 0.75000012 9.9644386e-39
0.0064285565 0.04357142 0.75000012 8.2109462e-39
0.0078571206 0.04357142 0.75000012 6.3774593e-39
0.0092857033 0.043571424 0.75000012 4.9001936e-39
0.010714267 0.043571424 0.75000018 3.3443697e-39
0.012110512 0.043455247 0.74800003 2.6939851e-39
0.013535247 0.043455247 0.74800003 1.9628856e-39
0.014960003 0.043455228 0.74800009 2.0407292e-39
0.016384777 0.043455243 0.74800003 2.1454804e-39
0.017857142 0.04357142 0.75000012 1.9510489e-39
0.019285683 0.043571427 0.75000012 1.7759903e-39
0.020714285 0.043571416 0.75000012 1.1141304e-39
0.022142829 0.043571405 0.75000012 3.9415303e-40
0.023571409 0.043571427 0.75000012 6.63917e-40
0.025066672 0.043687616 0.75200003 8.565577e-40
0.026499044 0.043687619 0.75200009 9.3870882e-40
0.0279686 0.043745723 0.75300002 1.0402189e-39
0.02948096 0.043861914 0.75500005 1.3010047e-39
0.030960022 0.043920014 0.75600004 1.4993795e-39
0.032399986 0.043920014 0.7560001 2.6914445e-39
0.033840016 0.043920007 0.7560001 3.7948984e-39
0.035280019 0.043920007 0.75600004 2.1246333e-39
0.036817148 0.044036195 0.75800002 3.8978238e-40
0.038361959 0.044152386 0.76000005 4.5169791e-39
0.039966695 0.044326667 0.76300001 8.5677924e-39
0.04141999 0.044326678 0.76300001 5.256342e-39
0.042985745 0.044442855 0.76500005 1.9474293e-39
0.044559028 0.044559039 0.76700008 4.6160747e-39
0.046200022 0.044733346 0.77000004 7.2090038e-39
0.04779049 0.044849508 0.77200007 1.0792753e-38
0.049452387 0.045023821 0.7750001 1.4297225e-38
0.054871414 0.048509531 0.83500004 1.6050365e-38
0.056461912 0.048509523 0.8350001 1.7795588e-38
0.058191478 0.048625719 0.83700001 1.6783235e-38
0.059785742 0.048625723 0.83700007 1.5770904e-38
0.061233319 0.048509523 0.83500004 1.4664944e-38
-0.028674275 0.046319991 0.77200007 2.2152329e-39
-0.027203802 0.046319984 0.77200007 3.5960009e-39
-0.025733318 0.046320003 0.77200007 3.1339606e-39
-0.024199983 0.046200022 0.77000004 2.7648221e-39
-0.022733318 0.046200011 0.77000004 2.6715489e-39
-0.021266656 0.0462 0.7700001 2.6690168e-39
-0.019722883 0.04601999 0.76700008 2.2091008e-39
-0.018166663 0.045779999 0.76300007 1.7496066e-39
-0.01666954 0.045659993 0.7610001 1.289395e-39
-0.015219994 0.045659993 0.76100004 8.2877415e-40
-0.013752373 0.045600004 0.76000005 9.2095857e-40
-0.012272391 0.045480005 0.75800002 1.0120878e-39
-0.010828576 0.045480002 0.75800002 9.2241452e-40
-0.0093600098 0.045360006 0.75600004 7.4088471e-40
-0.0079199821 0.045360006 0.7560001 5.5504872e-40
-0.006471402 0.045300011 0.75500005 3.696205e-40
-0.0050332965 0.045300003 0.75500005 3.8798521e-39
-0.0035857018 0.045180004 0.75300002 7.3890398e-39
-0.0021428857 0.044999979 0.75000012 8.0226285e-39
-0.00071428146 0.044999991 0.75000012 8.6489472e-39
0.00071425934 0.044999994 0.75000012 7.3682431e-39
0.002142841 0.044999994 0.75000012 6.0617383e-39
0.003571406 0.044999979 0.75000012 5.5243558e-39
0.0049999859 0.044999991 0.75000012 5.0515296e-39
0.0064285519 0.044999998 0.75000018 4.1424849e-39
0.0078571327 0.044999994 0.75000012 3.2147917e-39
0.0092856986 0.044999979 0.75000018 2.4883473e-39
0.010714279 0.044999991 0.75000012 1.7454083e-39
0.012110505 0.044880006 0.74800003 1.3855955e-39
0.013571423 0.044999991 0.75000012 1.0107159e-39
0.014959997 0.044879995 0.74800003 1.1075681e-39
0.016384792 0.044879999 0.74800003 1.10255e-39
0.017857151 0.044999994 0.75000012 1.1079338e-39
0.019285694 0.044999998 0.75000012 1.102557e-39
0.020714259 0.044999983 0.75000018 8.2992462e-40
0.022142841 0.044999991 0.75000012 5.5154407e-40
0.02363427 0.045120001 0.75200009 7.4023311e-40
0.025099989 0.04518 0.75300002 1.0107201e-39
0.026534325 0.045180012 0.75300002 8.3207421e-40
0.027968599 0.045180004 0.75300002 6.4335714e-40
0.029520001 0.045360006 0.75600004 1.1075331e-39
0.030960007 0.045360018 0.75600004 1.4698458e-39
0.03248575 0.045480005 0.75800002 2.3989543e-39
0.033929523 0.045480009 0.75800002 3.3072704e-39
0.035373338 0.045480002 0.75800002 2.303184e-39
0.036914323 0.045600004 0.76000011 1.3780061e-39
0.038361944 0.045600004 0.76000011 4.7931302e-39
0.039966665 0.045780007 0.76300007 8.2011483e-39
0.041419998 0.045780007 0.76300001 5.1595165e-39
0.042873375 0.045780022 0.76300001 2.1210264e-39
0.044559032 0.046019994 0.76700008 6.4519747e-39
0.046380013 0.046380002 0.77300006 1.0772968e-38
0.047852386 0.046380002 0.77300006 1.3464598e-38
0.049452387 0.046500016 0.7750001 1.6244432e-38
0.051059999 0.046619996 0.77700007 1.6973392e-38
0.056461859 0.050099999 0.83500004 1.7706632e-38
0.058191448 0.050220001 0.83700007 1.7154175e-38
0.05978575 0.050220009 0.83700007 1.6694292e-38
0.061233308 0.050100002 0.83500004 1.5309598e-38
-0.027203791 0.047790471 0.77200007 3.4108936e-39
-0.025733344 0.047790468 0.77200007 3.0435586e-39
-0.024199987 0.047666676 0.77000004 2.6737167e-39
-0.022733325 0.04766668 0.77000004 2.4889807e-39
-0.021266662 0.047666673 0.7700001 2.302779e-39
-0.019722875 0.047480948 0.76700008 1.9347013e-39
-0.018166654 0.047233351 0.76300001 1.5655853e-39
-0.016669508 0.047109518 0.76100004 1.1057114e-39
-0.015220003 0.047109522 0.76100004 6.4615974e-40
-0.013752367 0.047047619 0.76000011 9.2093335e-40
-0.012304745 0.047047626 0.76000011 1.1056988e-39
-0.010828549 0.04692382 0.75800002 7.3981132e-40
-0.0093600014 0.046800006 0.7560001 3.7281966e-40
-0.007919997 0.046799999 0.7560001 3.7388885e-40
-0.0064714001 0.046738099 0.75500011 3.7103721e-40
-0.0050333189 0.046738103 0.75500011 2.7814373e-40
-0.0035857018 0.046614286 0.75300002 1.0347889e-40
-0.0021485705 0.046552371 0.75200003 9.2396016e-41
-0.0007143094 0.046428569 0.75000012 9.6332263e-41
0.00071427051 0.046428565 0.75000012 9.2374996e-41
0.0021428354 0.046428569 0.75000012 9.3092461e-41
0.0035714172 0.046428565 0.75000012 9.2376397e-41
0.0049999822 0.046428565 0.75000018 9.3082652e-41
0.0064285621 0.046428561 0.75000012 9.2353977e-41
0.0078571429 0.04642858 0.75000012 9.2711308e-41
0.0092857089 0.046428565 0.75000012 9.2352575e-41
0.010714289 0.046428576 0.75000012 9.2707104e-41
0.012142856 0.046428565 0.75000012 9.2344168e-41
0.013571436 0.046428561 0.75000012 9.3403549e-41
0.014999977 0.046428565 0.75000012 9.2311938e-41
0.016428582 0.046428576 0.75000012 9.3046218e-41
0.017857123 0.046428569 0.75000012 2.7601516e-40
0.019285727 0.046428561 0.75000012 3.6893106e-40
0.02071427 0.046428565 0.75000012 5.5153006e-40
0.022142874 0.046428576 0.75000012 6.4443614e-40
0.023634262 0.046552379 0.75200009 9.1886223e-40
0.025100011 0.046614289 0.75300008 1.104673e-39
0.026534285 0.046614282 0.75300008 7.3552615e-40
0.027968597 0.046614297 0.75300002 2.7921993e-40
0.029480979 0.046738092 0.75500005 9.2350613e-40
0.030960014 0.046800006 0.7560001 1.4781064e-39
0.032400019 0.046800014 0.75600004 2.1277708e-39
0.033929527 0.046923816 0.75800002 2.7673949e-39
0.035373341 0.046923827 0.75800002 2.5869567e-39
0.036914304 0.047047619 0.76000011 2.3989599e-39
0.038361926 0.047047619 0.76000011 5.1676356e-39
0.03986188 0.047109518 0.76100004 7.8301938e-39
0.041420005 0.047233343 0.76300001 5.059751e-39
0.042985719 0.047357138 0.76500005 2.3204872e-39
0.044617176 0.047542855 0.76800007 8.2977034e-39
0.046379998 0.047852378 0.77300012 1.4286065e-38
0.047852412 0.047852371 0.77300012 1.6232231e-38
0.049452387 0.047976196 0.77500004 1.8166166e-38
0.051060017 0.048099998 0.77700007 1.7892101e-38
0.056461886 0.051690474 0.83500004 1.7523326e-38
0.058052383 0.05169047 0.83500004 1.7524405e-38
0.059785757 0.051814295 0.83700007 1.7520097e-38
-0.024199992 0.049133342 0.77000004 2.8566828e-39
-0.022733331 0.049133345 0.77000004 2.4882899e-39
-0.02126663 0.049133353 0.77000004 2.1187787e-39
-0.019748561 0.049005717 0.76800007 1.7503423e-39
-0.018166644 0.048686683 0.76300001 1.3808465e-39
-0.016713329 0.048686672 0.76300001 1.1975329e-39
-0.015219988 0.048559036 0.7610001 1.0141996e-39
-0.013752344 0.048495241 0.76000005 1.106014e-39
-0.012304722 0.048495248 0.76000005 1.2900704e-39
-0.010828545 0.048367627 0.75800002 1.1067848e-39
-0.0093599763 0.048240006 0.75600004 1.0138703e-39
-0.00792001 0.048240002 0.7560001 9.2274803e-40
-0.0064713843 0.048176195 0.75500005 8.2947901e-40
-0.0050333031 0.048176199 0.75500005 7.3764351e-40
-0.0035856832 0.048048578 0.75300002 6.433067e-40
-0.0021428429 0.047857147 0.75000012 7.3658553e-40
-0.00071430195 0.047857139 0.75000012 8.2735324e-40
0.00071430218 0.047857132 0.75000012 7.3731841e-40
0.0021428447 0.047857132 0.75000012 6.4620318e-40
0.0035714265 0.04785715 0.75000012 5.5436909e-40
0.0049999915 0.047857136 0.75000012 3.7069389e-40
0.0064285723 0.047857136 0.75000012 4.6144758e-40
0.0078571364 0.047857136 0.75000012 5.5257542e-40
0.0092857191 0.047857147 0.75000012 6.4513679e-40
0.01071426 0.047857139 0.75000012 7.3660935e-40
0.012142863 0.047857136 0.75000012 6.4584585e-40
0.013571407 0.047857139 0.75000012 6.4725416e-40
0.01500001 0.047857132 0.75000012 5.5431584e-40
0.016428553 0.047857139 0.75000012 5.5434526e-40
0.017857157 0.047857132 0.75000012 8.3023851e-40
0.019285697 0.047857136 0.75000012 1.1983022e-39
0.020714279 0.047857139 0.75000012 1.1975875e-39
0.022201898 0.047984753 0.75200003 1.2897775e-39
0.023634272 0.047984749 0.75200009 1.7507431e-39
0.02510001 0.048048571 0.75300002 2.3042405e-39
0.026534284 0.048048578 0.75300002 1.5673762e-39
0.028042875 0.048176188 0.75500011 9.2599064e-40
0.029519998 0.048239995 0.7560001 1.479184e-39
0.030960003 0.048240006 0.7560001 1.9426747e-39
0.03248572 0.048367623 0.75800002 2.8617541e-39
0.033929531 0.048367623 0.75800002 3.6897127e-39
0.035373345 0.048367631 0.75800002 2.6752203e-39
0.036914326 0.048495244 0.76000005 1.5656259e-39
0.038412388 0.048559044 0.76100004 5.6210608e-39
0.039861917 0.04855904 0.7610001 9.7698361e-39
0.041420024 0.048686676 0.76300007 9.6830565e-39
0.042985708 0.0488143 0.76500005 9.6910102e-39
0.044617187 0.049005728 0.76800007 1.2638416e-38
0.046380021 0.049324766 0.77300006 1.5688024e-38
0.047976203 0.049452379 0.7750001 1.6602814e-38
0.049452387 0.049452394 0.77500004 1.7519734e-38
0.051059999 0.049579997 0.77700007 1.7521526e-38
0.052539982 0.049579997 0.77700007 1.7429703e-38
0.054020017 0.049579989 0.77700007 1.7707734e-38
-0.024199976 0.050600007 0.77000004 2.949219e-39
-0.022733336 0.050600003 0.77000004 2.3964404e-39
-0.021266636 0.050600018 0.77000004 1.8436239e-39
-0.019748546 0.050468579 0.76800001 1.4744785e-39
-0.01821427 0.050271437 0.7650001 1.1060575e-39
-0.016713321 0.050140008 0.76300001 1.1975315e-39
-0.015260005 0.050140016 0.76300001 1.2904403e-39
-0.013752361 0.04994287 0.76000005 1.3826304e-39
-0.012304741 0.049942862 0.76000005 1.4744757e-39
-0.010828579 0.049811427 0.75800002 1.5663224e-39
-0.0093599902 0.049680009 0.75600004 1.5656091e-39
-0.0079199849 0.049680017 0.75600004 1.3812249e-39
-0.0064799944 0.049680002 0.7560001 1.1986287e-39
-0.0050333254 0.049614292 0.75500005 1.198986e-39
-0.0035856832 0.049482871 0.75300002 1.1060813e-39
-0.0021485686 0.049417142 0.75200009 1.3837486e-39
-0.00071428891 0.04928571 0.75000012 1.5656315e-39
0.00071427424 0.049285706 0.75000012 1.3830423e-39
0.0021428559 0.049285706 0.75000012 1.1986609e-39
0.0035714209 0.04928571 0.75000012 9.2459634e-40
0.0050000008 0.049285706 0.75000012 6.4764512e-40
0.0064285677 0.049285706 0.75000012 8.2987277e-40
0.0078571485 0.04928571 0.75000012 1.0139081e-39
0.0092856893 0.04928571 0.75000012 1.199021e-39
0.010714294 0.049285702 0.75000012 1.3816102e-39
0.012142836 0.049285699 0.75000012 1.2908453e-39
0.013571439 0.049285706 0.75000012 1.1067988e-39
0.014999983 0.04928571 0.75000012 1.106782e-39
0.016428564 0.04928571 0.75000012 1.015322e-39
0.017857131 0.049285699 0.75000012 1.4759526e-39
0.019285709 0.04928571 0.75000012 1.9344127e-39
0.020769501 0.049417131 0.75200009 1.9344141e-39
0.022201912 0.049417142 0.75200009 1.8443708e-39
0.023634262 0.049417127 0.75200009 2.6737587e-39
0.025166687 0.049614277 0.75500011 3.4073497e-39
0.026604809 0.049614292 0.75500005 2.4879031e-39
0.028080016 0.049679998 0.7560001 1.5702867e-39
0.029520022 0.049680009 0.75600004 2.0327137e-39
0.030959988 0.049680009 0.7560001 2.4011347e-39
0.032485723 0.049811434 0.75800002 3.5028048e-39
0.034019068 0.049942855 0.76000011 4.6059069e-39
0.035466686 0.049942866 0.76000011 2.6744916e-39
0.036962859 0.050008554 0.7610001 7.4379241e-40
0.038412381 0.050008573 0.76100004 6.1645964e-39
0.03986191 0.050008558 0.7610001 1.1614141e-38
0.041420035 0.050140005 0.76300001 1.4394717e-38
0.042873323 0.050140001 0.76300001 1.7054402e-38
0.044559017 0.050402846 0.76700008 1.7060185e-38
0.046500027 0.050928578 0.7750001 1.6971228e-38
0.048100039 0.051059987 0.77700007 1.6970519e-38
0.049580026 0.051060002 0.77700007 1.6877609e-38
0.051060013 0.051059995 0.77700007 1.7152758e-38
0.052540001 0.05106001 0.77700007 1.7338948e-38
0.054020032 0.051059999 0.77700007 1.7894276e-38
-0.024262853 0.052201904 0.77200007 2.9506371e-39
-0.02273332 0.052066669 0.7700001 2.3971438e-39
-0.021266641 0.052066673 0.77000004 1.8432582e-39
-0.019722873 0.051863797 0.76700008 1.4744785e-39
-0.018166663 0.051593341 0.76300001 1.0145807e-39
-0.016713347 0.051593337 0.76300001 1.0145765e-39
-0.015259996 0.051593348 0.76300001 1.0160255e-39
-0.013752379 0.051390484 0.76000005 1.1071575e-39
-0.012304735 0.051390477 0.76000011 1.1993461e-39
-0.010857114 0.051390488 0.76000011 1.2908159e-39
-0.0093847401 0.051255237 0.75800002 1.4744995e-39
-0.0079199737 0.051120006 0.75600004 1.2908397e-39
-0.006497114 0.051255245 0.75800002 1.2004363e-39
-0.005040003 0.051120002 0.7560001 1.1993559e-39
-0.0035999976 0.051120017 0.75600004 1.1982868e-39
-0.0021485779 0.05084952 0.75200009 1.3826822e-39
-0.00071618881 0.050849516 0.75200003 1.6574754e-39
0.00071618531 0.05084952 0.75200009 1.4745247e-39
0.0021485724 0.050849516 0.75200009 1.2901475e-39
0.0035714339 0.050714277 0.75000012 1.1075639e-39
0.0049999747 0.050714284 0.75000012 9.2388028e-40
0.006428577 0.05071428 0.75000012 1.0142668e-39
0.0078571215 0.05071428 0.75000012 1.1061065e-39
0.0092857247 0.05071428 0.75000012 1.1061107e-39
0.010714267 0.050714284 0.75000012 1.1975805e-39
0.012142848 0.050714277 0.75000012 1.1060953e-39
0.013571412 0.050714284 0.75000012 1.1060883e-39
0.014999993 0.05071428 0.75000012 1.0146045e-39
0.01642856 0.050714266 0.75000012 9.2385226e-40
0.017857138 0.05071428 0.75000012 1.3837542e-39
0.019285705 0.05071428 0.75000012 1.7514521e-39
0.020769514 0.050849508 0.75200009 1.4773778e-39
0.022201903 0.05084952 0.75200009 1.2036677e-39
0.023665734 0.050917149 0.75300002 1.9390706e-39
0.025100006 0.050917141 0.75300002 2.7655858e-39
0.026604787 0.05105238 0.75500005 1.9369098e-39
0.028042868 0.051052392 0.75500005 1.1104043e-39
0.029520007 0.051120017 0.75600004 1.7561353e-39
0.030960012 0.051120009 0.75600004 2.4014935e-39
0.032400001 0.051119994 0.7560001 3.321282e-39
0.033929523 0.051255241 0.75800002 4.2403502e-39
0.035466671 0.05139048 0.76000011 2.5840784e-39
0.036914293 0.051390473 0.76000011 9.2748442e-40
0.038412374 0.051458087 0.76100004 6.2697597e-39
0.039861903 0.051458076 0.7610001 1.1626758e-38
0.041311424 0.051458091 0.76100004 1.4301872e-38
0.042985722 0.051728591 0.76500005 1.7061986e-38
0.04444287 0.051728573 0.7650001 1.6877265e-38
0.046500027 0.052404772 0.7750001 1.6787934e-38
0.048100017 0.052539993 0.77700007 1.6878328e-38
0.049580008 0.052539989 0.77700007 1.696945e-38
0.051059991 0.052540004 0.77700007 1.7062006e-38
-0.024199987 0.053533345 0.77000004 2.9502896e-39
-0.02267424 0.053394288 0.76800001 2.3985844e-39
-0.021211386 0.053394295 0.76800001 1.8436183e-39
-0.019722868 0.053324763 0.76700008 1.3822814e-39
-0.018166669 0.053046666 0.76300007 9.2274103e-40
-0.016669519 0.052907612 0.76100004 8.3054119e-40
-0.015220013 0.052907616 0.7610001 6.4758766e-40
-0.013752336 0.052838106 0.76000005 8.3090133e-40
-0.012304752 0.052838091 0.76000011 9.2346129e-40
-0.010828548 0.052699048 0.75800002 1.1064232e-39
-0.0093847364 0.052699056 0.75800002 1.2904642e-39
-0.0079409219 0.052699056 0.75800002 1.1982825e-39
-0.0064799823 0.052560005 0.75600004 1.1078792e-39
-0.005040016 0.052560009 0.7560001 1.1993545e-39
-0.0035952255 0.05249048 0.75500005 1.1990014e-39
-0.0021513905 0.052351438 0.75300002 1.4741562e-39
-0.00071711454 0.052351445 0.75300002 1.750027e-39
0.00071715761 0.052351438 0.75300002 1.5667203e-39
0.0021514539 0.052351441 0.75300002 1.3823361e-39
0.0035809353 0.052281894 0.75200009 1.2908635e-39
0.0050133243 0.05228189 0.75200009 1.1990182e-39
0.0064285509 0.052142855 0.75000012 1.1972162e-39
0.0078571308 0.052142855 0.75000012 1.1057408e-39
0.0092856968 0.052142855 0.75000012 1.0139067e-39
0.010714278 0.052142851 0.75000012 9.2170406e-40
0.012142844 0.052142855 0.75000012 1.0131738e-39
0.013571424 0.052142851 0.75000012 1.1053568e-39
0.014999988 0.05214284 0.75000012 1.0131514e-39
0.016428569 0.052142851 0.75000012 8.3128528e-40
0.01790474 0.052281905 0.75200009 1.2000748e-39
0.019337151 0.052281901 0.75200009 1.5688559e-39
0.020797145 0.052351434 0.75300008 1.0196394e-39
0.022231456 0.052351434 0.75300002 4.6862504e-40
0.02366573 0.052351445 0.75300002 1.296578e-39
0.025166683 0.052490477 0.75500011 2.029104e-39
0.026640022 0.05256002 0.75600004 1.291546e-39
0.028042907 0.052490484 0.75500005 5.5974167e-40
0.029519994 0.052560002 0.75600004 1.4802602e-39
0.030960022 0.052560009 0.75600004 2.4022025e-39
0.032485716 0.052699048 0.75800002 3.1397577e-39
0.033929531 0.052699044 0.75800002 3.873713e-39
0.035466693 0.052838102 0.76000005 2.4943771e-39
0.036962882 0.052907612 0.76100004 1.1140085e-39
0.038412362 0.05290762 0.76100004 6.3594287e-39
0.039966676 0.053046681 0.76300001 1.1623891e-38
0.041528575 0.053185716 0.76500005 1.4306917e-38
0.043098081 0.053324766 0.76700008 1.6968717e-38
0.044617154 0.053394292 0.76800007 1.6782542e-38
0.046080049 0.053394292 0.76800001 1.6509192e-38
0.047976203 0.053880967 0.77500004 1.678542e-38
0.049452383 0.05388096 0.77500004 1.7062004e-38
0.051059972 0.054019988 0.77700007 1.7062364e-38
0.052539997 0.054019999 0.77700001 1.7062715e-38
-0.024199994 0.055000015 0.77000004 2.8577464e-39
-0.022674263 0.054857153 0.76800001 2.3967949e-39
-0.02121141 0.054857146 0.76800007 1.9340203e-39
-0.019748555 0.054857139 0.76800007 1.4744729e-39
-0.018166661 0.054500014 0.76300001 1.0145723e-39
-0.016713306 0.05450001 0.76300001 8.3089432e-40
-0.01522002 0.05435713 0.7610001 5.5537522e-40
-0.013752352 0.05428572 0.76000005 6.4791417e-40
-0.012304729 0.054285727 0.76000005 8.3232504e-40
-0.010828543 0.054142874 0.75800002 9.234641e-40
-0.0093847699 0.054142855 0.75800002 1.0149535e-39
-0.0079409555 0.054142866 0.75800002 1.0153234e-39
-0.0064799972 0.054000013 0.75600004 1.0167583e-39
-0.0050399695 0.054000005 0.75600004 1.0160395e-39
-0.0036000032 0.054000005 0.7560001 1.015329e-39
-0.002157107 0.05392858 0.75500005 1.1993643e-39
-0.0007171164 0.053785726 0.75300002 1.4755953e-39
0.00071717997 0.053785726 0.75300002 1.2908551e-39
0.0021514557 0.053785723 0.75300002 1.1972232e-39
0.0035809651 0.053714283 0.75200003 1.199014e-39
0.005013315 0.053714287 0.75200009 1.200086e-39
0.0064285602 0.053571425 0.75000012 1.2901236e-39
0.0078571253 0.05357141 0.75000012 1.381599e-39
0.0092857052 0.053571429 0.75000012 1.1979266e-39
0.010714271 0.053571425 0.75000012 1.013171e-39
0.012142852 0.053571422 0.75000012 1.0135213e-39
0.013571396 0.053571418 0.75000012 1.1049827e-39
0.015039991 0.053714279 0.75200009 1.0138492e-39
0.016472381 0.05371429 0.75200009 9.2274943e-40
0.017904729 0.053714283 0.75200009 1.1993489e-39
0.019337142 0.053714279 0.75200009 1.5692119e-39
0.020797145 0.053785715 0.75300002 1.3851919e-39
0.022290494 0.053928569 0.75500011 1.2015153e-39
0.023728577 0.053928576 0.75500011 1.9372699e-39
0.025166698 0.053928576 0.75500005 2.7630663e-39
0.026604801 0.053928576 0.75500005 1.9361825e-39
0.028080037 0.054000001 0.75600004 1.1114651e-39
0.029520003 0.054000005 0.7560001 1.8486686e-39
0.030960009 0.054000016 0.7560001 2.586584e-39
0.03248572 0.05414287 0.75800002 3.3223455e-39
0.033929534 0.05414287 0.75800002 4.058449e-39
0.035466675 0.054285716 0.76000005 2.4911303e-39
0.036962874 0.054357141 0.76100004 9.1956008e-40
0.038412403 0.05435713 0.7610001 6.1778947e-39
0.039966647 0.054500002 0.76300001 1.1538517e-38
0.041528564 0.054642856 0.76500005 1.4302276e-38
0.043098085 0.05478571 0.76700008 1.7151314e-38
0.044617169 0.05485715 0.76800001 1.6966552e-38
0.046500027 0.055357147 0.77500004 1.6782179e-38
0.047976203 0.055357162 0.77500004 1.7245318e-38
0.04958 0.055500008 0.77700007 1.7614453e-38
0.051059987 0.055500001 0.77700007 1.7246393e-38
-0.0242 0.056466669 0.77000004 2.766634e-39
-0.022674249 0.056320015 0.76800001 2.3967977e-39
-0.021211395 0.056320004 0.76800001 2.0272809e-39
-0.019748541 0.056320012 0.76800001 1.5666475e-39
-0.01816665 0.055953346 0.76300001 1.1067567e-39
-0.016713336 0.05595335 0.76300001 8.3053839e-40
-0.015220005 0.055806655 0.7610001 4.6390826e-40
-0.013752367 0.055733334 0.76000005 5.5681575e-40
-0.012272354 0.055586681 0.75800002 6.4866526e-40
-0.010828579 0.05558667 0.75800002 6.4832054e-40
-0.0093847662 0.055586666 0.75800002 6.4761149e-40
-0.0079409517 0.055586677 0.75800002 7.3945679e-40
-0.0064799879 0.055440009 0.7560001 8.3236708e-40
-0.0050399825 0.055440009 0.75600004 8.3272442e-40
-0.0035999781 0.055440016 0.75600004 8.3237269e-40
-0.0021571275 0.055366665 0.75500011 1.0156934e-39
-0.00071713503 0.055220008 0.75300008 1.1079016e-39
0.00071717624 0.055220008 0.75300002 1.0153612e-39
0.002151452 0.055220015 0.75300002 9.2315861e-40
0.0035809539 0.055146661 0.75200003 1.0153458e-39
0.005013328 0.055146661 0.75200009 1.1071757e-39
0.0064285565 0.054999985 0.75000012 1.3816004e-39
0.0078571364 0.054999996 0.75000012 1.657823e-39
0.0093104802 0.055146661 0.75200009 1.3826738e-39
0.010742868 0.055146661 0.75200003 1.1064442e-39
0.012175219 0.055146661 0.75200009 1.1067988e-39
0.013607631 0.055146668 0.75200009 1.0142472e-39
0.014999972 0.054999989 0.75000012 1.0138899e-39
0.016428575 0.054999996 0.75000012 9.2241452e-40
0.017904744 0.055146657 0.75200009 1.2893992e-39
0.019362867 0.055220004 0.75300002 1.5670707e-39
0.020852391 0.055366665 0.75500011 1.7500382e-39
0.022290513 0.05536668 0.75500005 1.9362077e-39
0.023728594 0.055366673 0.75500005 2.6715979e-39
0.0251667 0.055366658 0.75500005 3.4062777e-39
0.026640018 0.055440009 0.7560001 2.4861263e-39
0.028042862 0.055366661 0.75500011 1.5706482e-39
0.02951999 0.055440009 0.7560001 2.1245394e-39
0.030959995 0.055440001 0.7560001 2.6769971e-39
0.032571454 0.055733338 0.76000005 3.4127685e-39
0.03401906 0.055733334 0.76000011 4.1481489e-39
0.035466682 0.055733331 0.76000011 2.4000249e-39
0.036962863 0.055806659 0.76100004 6.5052759e-40
0.038412392 0.055806659 0.7610001 5.9859967e-39
0.039966702 0.055953346 0.76300001 1.1347325e-38
0.04152859 0.056100011 0.76500005 1.4304071e-38
0.043098055 0.056246661 0.76700008 1.7244955e-38
0.04461715 0.056320004 0.76800007 1.7149887e-38
0.046380013 0.056686658 0.77300012 1.7060571e-38
0.047976203 0.056833342 0.77500004 1.7615538e-38
0.049579978 0.056979995 0.77700007 1.8165822e-38
-0.024200005 0.057933334 0.77000004 3.1343389e-39
-0.022733303 0.057933353 0.77000004 2.5808288e-39
-0.021266641 0.057933345 0.77000004 2.0272725e-39
-0.019748565 0.057782866 0.76800007 1.5666279e-39
-0.018214263 0.057557151 0.76500005 1.1985838e-39
-0.016713327 0.057406683 0.76300001 1.0145695e-39
-0.015199968 0.057180963 0.76000005 8.3054399e-40
-0.013752384 0.057180949 0.76000011 8.3162299e-40
-0.012272388 0.057030477 0.75800002 8.3234747e-40
-0.010828576 0.057030492 0.75800002 8.3199434e-40
-0.0093847392 0.05703048 0.75800002 7.3908965e-40
-0.0079409247 0.057030477 0.75800002 8.3164822e-40
-0.0064971121 0.057030488 0.75800002 8.3164682e-40
-0.0050399965 0.056880012 0.7560001 9.2383824e-40
-0.0035999911 0.056880008 0.75600004 1.0160423e-39
-0.0021571126 0.056804765 0.75500005 1.0160521e-39
-0.00071713689 0.056654282 0.75300002 1.1079072e-39
0.00071907614 0.056804761 0.75500011 9.2353836e-40
0.0021571573 0.056804769 0.75500011 8.3169026e-40
0.0035857465 0.056654301 0.75300002 1.0167822e-39
0.0050133169 0.056579042 0.75200009 1.1986539e-39
0.006445705 0.056579039 0.75200009 1.3826766e-39
0.0078781163 0.056579031 0.75200009 1.4745107e-39
0.0093104672 0.056579039 0.75200009 1.2908369e-39
0.010742856 0.056579053 0.75200003 1.0149717e-39
0.012175229 0.056579035 0.75200009 1.0149703e-39
0.013571401 0.056428559 0.75000012 1.0153472e-39
0.014999981 0.056428574 0.75000012 7.3878137e-40
0.016472381 0.056579042 0.75200009 5.5581383e-40
0.01790477 0.056579042 0.75200003 1.1068114e-39
0.019414324 0.056804769 0.75500005 1.5674406e-39
0.020852406 0.056804761 0.75500005 1.7522046e-39
0.022290487 0.056804769 0.75500005 1.846533e-39
0.023728592 0.056804769 0.75500011 2.3056923e-39
0.025166675 0.056804765 0.75500011 2.6741091e-39
0.026640005 0.056880012 0.7560001 2.1205836e-39
0.028080009 0.056880008 0.75600004 1.5702951e-39
0.029520014 0.056880008 0.75600004 2.3067797e-39
0.030959981 0.056880008 0.7560001 2.9510827e-39
0.032571461 0.057180949 0.76000005 3.597178e-39
0.034019083 0.057180963 0.76000005 4.2414362e-39
0.035513312 0.057256192 0.7610001 2.5811974e-39
0.036962856 0.057256188 0.76100004 1.0107131e-39
0.038513336 0.057406671 0.76300001 6.1786584e-39
0.039966673 0.057406671 0.76300007 1.1447783e-38
0.041528624 0.057557158 0.7650001 1.4396266e-38
0.043098062 0.057707619 0.76700008 1.7343619e-38
0.044617161 0.057782866 0.76800001 1.7060943e-38
0.046380036 0.058159035 0.77300012 1.6786873e-38
0.047976203 0.058309536 0.77500004 1.6510292e-38
0.04958 0.058459993 0.77700007 1.6237274e-38
-0.024262872 0.059554286 0.77200007 3.500239e-39
-0.022792362 0.059554283 0.77200007 2.7644844e-39
-0.021266647 0.059400011 0.77000004 1.935437e-39
-0.019799985 0.059400003 0.77000004 1.6581214e-39
-0.018214276 0.059014294 0.76500005 1.2907907e-39
-0.016669527 0.058705699 0.76100004 1.1989678e-39
-0.015199983 0.058628578 0.76000005 1.106782e-39
-0.013752339 0.05862857 0.76000005 1.1071477e-39
-0.012272362 0.058474299 0.75800002 1.0163884e-39
-0.010828548 0.058474295 0.75800002 9.2383404e-40
-0.0093847355 0.058474302 0.75800002 8.3128528e-40
-0.007940921 0.058474302 0.75800002 8.3272582e-40
-0.0064971466 0.058474284 0.75800002 8.3200135e-40
-0.0050533339 0.058474299 0.75800002 1.0149479e-39
-0.0035999808 0.058320008 0.7560001 1.107512e-39
-0.0021514129 0.058088571 0.75300002 1.1086008e-39
-0.00071713689 0.058088578 0.75300002 1.0153444e-39
0.00071713713 0.058088571 0.75300002 9.2208942e-40
0.0021514315 0.058088563 0.75300008 7.4127568e-40
0.0035809577 0.058011416 0.75200009 1.0210743e-39
0.0050133057 0.05801142 0.75200009 1.2929935e-39
0.0064456966 0.05801142 0.75200009 1.2915586e-39
0.007878108 0.058011424 0.75200009 1.2908397e-39
0.0093228631 0.058088582 0.75300002 1.1071673e-39
0.01075716 0.058088567 0.75300002 9.2349352e-40
0.012191433 0.058088578 0.75300002 9.2277326e-40
0.013625707 0.058088571 0.75300002 9.2242854e-40
0.015040022 0.05801142 0.75200009 5.5366423e-40
0.016472371 0.058011428 0.75200009 1.8738864e-40
0.017928591 0.058088582 0.75300002 9.2278026e-40
0.019414302 0.058242857 0.75500005 1.5677909e-39
0.020852385 0.058242865 0.75500005 1.660711e-39
0.022290491 0.058242854 0.75500011 1.7543304e-39
0.023728609 0.058242869 0.75500005 1.8468735e-39
0.025166692 0.058242861 0.75500005 1.9383475e-39
0.026639991 0.058320004 0.7560001 1.7521626e-39
0.028079996 0.058320001 0.7560001 1.5702909e-39
0.029519999 0.058320016 0.75600004 2.3978935e-39
0.030960029 0.058320019 0.75600004 3.2283731e-39
0.032571442 0.058628563 0.76000005 3.78263e-39
0.034019064 0.058628578 0.76000005 4.3314752e-39
0.035466686 0.05862857 0.76000005 2.8563521e-39
0.036962848 0.058705706 0.76100004 1.294825e-39
0.038513348 0.058860008 0.76300001 6.3619567e-39
0.039966684 0.058860004 0.76300001 1.1441316e-38
0.041637119 0.059168566 0.76700008 1.448989e-38
0.043098066 0.059168562 0.76700008 1.7427904e-38
0.044617139 0.059245717 0.76800001 1.6963699e-38
0.046380013 0.059631426 0.77300012 1.6504506e-38
0.047976203 0.059785735 0.77500004 1.5401747e-38
-0.024262836 0.061024766 0.77200007 3.2232905e-39
-0.022792388 0.061024763 0.77200007 2.5793631e-39
-0.021321919 0.061024752 0.77200007 1.9343622e-39
-0.019799991 0.060866673 0.77000004 1.5663014e-39
-0.018214285 0.060471434 0.7650001 1.1989692e-39
-0.016713323 0.060313337 0.76300001 1.0149479e-39
-0.015219991 0.060155228 0.76100004 9.2348371e-40
-0.013752358 0.060076199 0.76000005 9.2421239e-40
-0.012304736 0.060076192 0.76000005 9.2599904e-40
-0.010828545 0.059918102 0.75800002 1.015315e-39
-0.009384769 0.059918102 0.75800008 1.1053596e-39
-0.0079409564 0.059918102 0.75800002 1.1067974e-39
-0.0064971419 0.059918109 0.75800002 1.1082211e-39
-0.0050533293 0.059918106 0.75800002 1.0152968e-39
-0.0035999939 0.059760012 0.7560001 1.0153108e-39
-0.002157094 0.059680961 0.75500005 1.1071603e-39
-0.00071713876 0.05952286 0.75300002 1.1064541e-39
0.00071715761 0.059522849 0.75300002 1.1071813e-39
0.0021514334 0.059522856 0.75300002 1.0171283e-39
0.0035857055 0.059522863 0.75300002 1.2936984e-39
0.0050200392 0.059522867 0.75300002 1.4763002e-39
0.0064457068 0.059443794 0.75200009 1.3833941e-39
0.0078780968 0.059443802 0.75200009 1.2904824e-39
0.0093228845 0.059522856 0.75300002 1.1990042e-39
0.010757159 0.059522863 0.75300002 1.1082407e-39
0.012191433 0.059522856 0.75300002 1.0153234e-39
0.013625706 0.059522867 0.75300002 1.0146158e-39
0.015060003 0.059522856 0.75300008 7.3840021e-40
0.01647236 0.059443805 0.75200009 4.6253079e-40
0.017928589 0.059522863 0.75300002 1.0153318e-39
0.019362886 0.059522852 0.75300002 1.5688573e-39
0.020852424 0.059680957 0.75500005 1.477382e-39
0.022290505 0.059680965 0.75500005 1.4788155e-39
0.023728587 0.059680957 0.75500005 1.5713657e-39
0.02516667 0.059680946 0.75500011 1.7557513e-39
0.026640017 0.059760015 0.75600004 1.385894e-39
0.028079983 0.059760004 0.7560001 1.0196338e-39
0.029520011 0.059760012 0.7560001 2.1245338e-39
0.031041905 0.059918106 0.75800002 3.230517e-39
0.032571465 0.060076207 0.76000005 3.7819e-39
0.034019049 0.060076192 0.76000011 4.3325486e-39
0.03551336 0.060155228 0.76100004 2.5808513e-39
0.036962841 0.060155239 0.76100004 9.1887064e-40
0.038513318 0.060313344 0.76300001 5.7173005e-39
0.04007142 0.060471434 0.7650001 1.0526897e-38
0.041637126 0.060629524 0.76700008 1.365619e-38
0.043154299 0.060708586 0.76800001 1.6781452e-38
0.044617154 0.060708575 0.76800001 1.6500906e-38
0.046319999 0.061024755 0.77200007 1.6314692e-38
0.04810001 0.061419997 0.77700007 1.6684511e-38
-0.027380016 0.062899992 0.77700007 3.1332431e-39
-0.025833335 0.062738098 0.7750001 3.0399769e-39
-0.024294283 0.06257619 0.77300012 2.9477813e-39
-0.022792377 0.062495235 0.77200007 2.4871674e-39
-0.021321908 0.062495239 0.77200007 1.9347167e-39
-0.019799996 0.062333345 0.77000004 1.4737428e-39
-0.018214259 0.061928585 0.76500005 1.0145765e-39
-0.016713314 0.061766669 0.76300001 9.2131871e-40
-0.015219976 0.061604761 0.76100004 7.3944979e-40
-0.01377047 0.061604749 0.7610001 8.3165382e-40
-0.012304752 0.06152381 0.76000011 8.3200415e-40
-0.01085713 0.061523821 0.76000005 1.106426e-39
-0.0093847653 0.061361909 0.75800002 1.2890362e-39
-0.0079409527 0.06136192 0.75800002 1.2883342e-39
-0.0064971158 0.061361909 0.75800002 1.290474e-39
-0.0050533032 0.061361924 0.75800002 1.1060715e-39
-0.0036000088 0.0612 0.7560001 9.2276625e-40
-0.0021571163 0.06111905 0.75500005 1.1057268e-39
-0.00071903493 0.061119042 0.75500005 1.1986497e-39
0.00071715575 0.060957145 0.75300002 1.2904978e-39
