# .PCD v0.7 - Point Cloud Data file format
VERSION 0.7
FIELDS x y z rgb
SIZE 4 4 4 4
TYPE F F F F
COUNT 1 1 1 1
WIDTH 993
HEIGHT 1
VIEWPOINT 0 0 0 1 0 0 0
POINTS 993
DATA ascii
0.037157223 0.021128587 0.76499999 1.925684e-38
0.038614318 0.021128573 0.76499999 1.9437645e-38
0.040071446 0.021128587 0.76499999 1.952912e-38
-0.062673338 0.024593346 0.833 6.7090191e-39
-0.061379932 0.024711445 0.83699995 9.2607612e-41
-0.059357107 0.024534307 0.83099997 5.5290893e-40
-0.057774276 0.024534307 0.83099997 9.1984174e-40
-0.056191385 0.024534315 0.83099997 5.5173184e-40
-0.054608513 0.0245343 0.83099997 1.8413202e-40
-0.053025682 0.024534293 0.83099997 1.1804652e-38
-0.051442813 0.024534293 0.83099997 2.3325751e-38
-0.049859982 0.024534293 0.83099997 2.3414407e-38
-0.04827711 0.0245343 0.83099997 2.3404972e-38
-0.046694279 0.0245343 0.83099997 1.354008e-38
-0.035933286 0.022733361 0.76999998 1.943671e-39
-0.034242809 0.022585727 0.76499999 1.6627457e-39
-0.032785658 0.022585735 0.76499999 1.3807961e-39
-0.031246638 0.022526681 0.76299995 4.5154124e-39
-0.029793292 0.022526689 0.76299995 7.7380094e-39
-0.028265664 0.022467636 0.76099998 8.312801e-39
-0.026780944 0.022438109 0.75999999 8.9627708e-39
-0.025266649 0.022379063 0.75800002 4.8936145e-39
-0.023822805 0.022379063 0.75799996 8.2701693e-40
-0.02231995 0.022320017 0.75599998 8.2772738e-40
-0.020852361 0.022290491 0.755 8.2807631e-40
-0.0193628 0.022231452 0.75299996 6.4403537e-40
-0.017904753 0.022201926 0.75199997 5.5256562e-40
-0.016472371 0.022201918 0.75199997 2.5801268e-39
-0.014999957 0.022142872 0.75 4.5922498e-39
-0.013571384 0.022142872 0.75 2.296354e-39
-0.012142811 0.022142895 0.75 9.2356779e-41
-0.010714238 0.02214288 0.75 6.64717e-39
-0.00928568 0.022142872 0.75000006 1.3208083e-38
-0.0078361612 0.022083841 0.74799997 1.2461616e-38
-0.0064113978 0.022083826 0.74799997 1.1606637e-38
-0.0049866317 0.022083826 0.74799997 5.8865283e-39
-0.0035618667 0.022083834 0.74799997 9.2299326e-41
-0.0021342759 0.022054292 0.74700004 4.6109306e-40
-0.00071143475 0.022054285 0.74700004 8.2915251e-40
0.00071241404 0.022083834 0.74799997 8.2986997e-40
0.0021285831 0.021995254 0.745 8.3023151e-40
0.0035476394 0.021995239 0.745 6.4620318e-40
0.0049666734 0.021995246 0.745 4.6253639e-40
0.0063857464 0.021995261 0.745 5.5401596e-40
0.0078257406 0.022054292 0.74700004 6.4585566e-40
0.0092485836 0.022054292 0.74700004 6.4765212e-40
0.010714334 0.022142887 0.75 6.4942337e-40
0.012110506 0.022083826 0.74799997 7.4087771e-40
0.013535271 0.022083819 0.74799997 9.2343467e-40
0.014960036 0.022083841 0.74799997 6.4645401e-40
0.01642861 0.02214288 0.75 3.7063924e-40
0.017857183 0.02214288 0.75 9.2493126e-40
0.019285757 0.022142887 0.75 1.4802532e-39
0.020714331 0.022142887 0.75 2.2181686e-39
0.022201901 0.022201918 0.75200003 3.0468264e-39
0.023665754 0.022231437 0.75299996 3.6889434e-39
0.025166711 0.022290498 0.755 4.2410424e-39
0.026604787 0.022290491 0.755 3.6900378e-39
0.028042899 0.022290505 0.755 3.2304582e-39
0.029598154 0.022379078 0.75799996 3.5916569e-39
0.031164816 0.022467628 0.76099998 3.9661875e-39
0.032614294 0.022467636 0.76100004 1.1808808e-38
0.034153365 0.022526681 0.76299989 1.9736129e-38
0.035700064 0.022585727 0.76499999 2.0561624e-38
0.037157197 0.02258572 0.76499999 2.1397109e-38
0.038715266 0.022644773 0.76699996 2.1389571e-38
0.040176205 0.022644773 0.76699996 2.148895e-38
0.04163719 0.022644781 0.76699996 2.1665813e-38
-0.062673368 0.026180007 0.833 5.9696702e-39
-0.061526626 0.026368581 0.83899999 9.296214e-41
-0.059785649 0.026305735 0.83699995 1.8663754e-40
-0.057774261 0.026117153 0.83099997 2.7770793e-40
-0.056191366 0.026117153 0.83099997 2.7586662e-40
-0.054608535 0.026117146 0.83099997 2.8923221e-40
-0.053025663 0.026117161 0.83099997 1.1899699e-38
-0.051442832 0.026117153 0.83099997 2.3407884e-38
-0.049859963 0.026117153 0.83099997 2.3417619e-38
-0.048393354 0.026180014 0.83300006 2.3398869e-38
-0.046806678 0.026180014 0.833 1.3260637e-38
-0.035933286 0.024200022 0.76999998 2.4928974e-39
-0.034242816 0.024042882 0.76499999 1.846079e-39
-0.032785665 0.024042875 0.76499999 1.1139398e-39
-0.031246623 0.023980021 0.76299995 5.9988326e-39
-0.029793277 0.023980014 0.76299995 1.087799e-38
-0.028265689 0.023917153 0.76099998 8.4092313e-39
-0.026780918 0.023885749 0.75999999 5.9059475e-39
-0.02526664 0.023822866 0.75800002 3.0367581e-39
-0.023822818 0.023822881 0.75799996 9.5167784e-41
-0.022319982 0.023760021 0.75599998 8.2807491e-40
-0.020852365 0.023728594 0.755 1.4712597e-39
-0.019362796 0.023665719 0.75299996 9.1879077e-40
-0.01790476 0.0236343 0.75200003 3.7535321e-40
-0.016472377 0.0236343 0.75200003 4.3451281e-39
-0.015039994 0.0236343 0.75200003 8.1946617e-39
-0.013571369 0.023571447 0.75 4.133071e-39
-0.012142833 0.023571439 0.75000006 1.1174655e-40
-0.010714262 0.023571439 0.75 7.8697608e-39
-0.0092856884 0.023571439 0.75 1.5595098e-38
-0.0078571141 0.023571461 0.75 1.4492747e-38
-0.006411422 0.023508593 0.74799997 1.3355815e-38
-0.0049866335 0.023508579 0.74799997 6.704448e-39
-0.0035618686 0.023508593 0.74799997 9.3020995e-41
-0.0021342516 0.023477159 0.74699998 5.5364462e-40
-0.00071140681 0.023477145 0.74699998 9.2170547e-40
0.00071143429 0.023477152 0.74700004 8.2986997e-40
0.0021285925 0.023414306 0.745 6.4692065e-40
0.0035476263 0.023414299 0.745 5.5437189e-40
0.0049666828 0.023414306 0.745 3.707009e-40
0.0063857557 0.023414299 0.745 5.5365583e-40
0.0078257062 0.023477145 0.74700004 6.4656612e-40
0.0092609869 0.023508593 0.74799997 8.3131331e-40
0.01071431 0.023571454 0.75 9.2385085e-40
0.012110481 0.023508586 0.74799997 9.2455431e-40
0.013535245 0.023508593 0.74799997 9.2309696e-40
0.015000054 0.023571447 0.75 5.5357875e-40
0.016428625 0.023571454 0.75 1.8770813e-40
0.0178572 0.023571454 0.75 9.2529699e-40
0.019285772 0.023571454 0.75 1.5710181e-39
0.020714307 0.023571454 0.75 2.2178155e-39
0.022201933 0.0236343 0.75199997 2.8624464e-39
0.023665758 0.023665719 0.75300002 3.4145243e-39
0.025166694 0.023728594 0.755 3.9662604e-39
0.026604807 0.023728587 0.755 3.0489872e-39
0.028080054 0.023760021 0.75599998 2.1234212e-39
0.029598162 0.023822874 0.75799996 3.6738276e-39
0.03116479 0.023917161 0.76099998 5.1726747e-39
0.032700032 0.023980021 0.76299989 1.4309652e-38
0.034242906 0.024042867 0.76500005 2.3319247e-38
0.035793379 0.02410572 0.76699996 2.3416136e-38
0.037254319 0.024105735 0.76699996 2.3416485e-38
0.038765755 0.024137177 0.76799995 2.3417553e-38
0.040228602 0.024137169 0.76799995 2.3417212e-38
-0.061526619 0.027966678 0.83899999 9.2240471e-41
-0.059500016 0.027766682 0.833 5.5361379e-40
-0.057774246 0.027700014 0.83099991 1.0141828e-39
-0.056191411 0.027700014 0.83099997 6.442848e-40
-0.05460852 0.027700014 0.83099997 2.759507e-40
-0.053153355 0.027766682 0.83300006 1.1804977e-38
-0.051566675 0.027766667 0.83300006 2.3417553e-38
-0.04998 0.027766682 0.833 2.3415807e-38
-0.048393361 0.027766675 0.83300006 2.3410703e-38
-0.04691904 0.027833335 0.83500004 1.3632292e-38
-0.045328557 0.02783335 0.83500004 3.9493607e-39
-0.043738067 0.027833335 0.83499998 2.4839108e-39
-0.035933308 0.025666684 0.76999998 2.6780089e-39
-0.034242809 0.025500014 0.76499999 1.7542645e-39
-0.032785654 0.025500014 0.76499999 9.2349352e-40
-0.03124663 0.025433347 0.76299989 6.3723333e-39
-0.029793322 0.025433354 0.76299995 1.1906472e-38
-0.028339978 0.025433347 0.76299995 8.212936e-39
-0.026780954 0.02533336 0.75999999 4.5010884e-39
-0.025266653 0.025266685 0.75800002 2.5742932e-39
-0.023822811 0.025266692 0.75799996 6.4722193e-40
-0.022319991 0.025200009 0.75600004 8.3021469e-40
-0.020852344 0.025166683 0.755 1.0145709e-39
-0.019362818 0.025100015 0.75299996 6.4432544e-40
-0.017904764 0.025066681 0.75200003 2.7598573e-40
-0.016472382 0.025066681 0.75200003 4.9890892e-39
-0.015039999 0.025066681 0.75200003 9.6984904e-39
-0.013571415 0.025000021 0.75 7.1909116e-39
-0.012142819 0.025000013 0.75 4.6988775e-39
-0.010714246 0.025000028 0.75 9.1432917e-39
-0.0092856744 0.025000013 0.75 1.3494012e-38
-0.0078571001 0.025000028 0.75 1.3203093e-38
-0.0064285267 0.025000028 0.75 1.2997441e-38
-0.0049866596 0.024933346 0.74799997 6.5329838e-39
-0.0035618723 0.024933353 0.74799997 9.2307734e-41
-0.0021342833 0.024900004 0.74700004 4.6180772e-40
-0.00071141799 0.024900004 0.74700004 9.2278026e-40
0.00071146223 0.024900012 0.74699998 8.3094617e-40
0.002122876 0.024766676 0.74299997 7.4055261e-40
0.0035476338 0.024833344 0.745 6.4692905e-40
0.0049867053 0.024933361 0.74799997 5.5437329e-40
0.0064114695 0.024933361 0.74799997 5.5401176e-40
0.0078257332 0.024900004 0.74699998 6.4656051e-40
0.0092609841 0.024933353 0.74799997 8.3094336e-40
0.010714325 0.025000013 0.75 1.0149675e-39
0.012142899 0.025000028 0.75 1.0156779e-39
0.013571471 0.025000021 0.75 1.0153122e-39
0.014960008 0.024933361 0.74799997 7.3800365e-40
0.016428618 0.025000021 0.75 3.6996522e-40
0.017857175 0.025000021 0.75000006 1.0157046e-39
0.019285748 0.025000013 0.75 1.5688727e-39
0.020714322 0.025000021 0.75 2.3075042e-39
0.022231471 0.025100008 0.75299996 2.9539316e-39
0.023665737 0.025100008 0.75299996 3.5063697e-39
0.025166715 0.025166683 0.755 4.0584616e-39
0.026604827 0.025166668 0.755 3.2301499e-39
0.028080024 0.025200017 0.75600004 2.3971466e-39
0.029598149 0.025266692 0.75799996 3.682817e-39
0.031246699 0.025433362 0.76299989 5.0776807e-39
0.032785784 0.025500007 0.76499999 1.4208967e-38
0.034242913 0.025500014 0.76499999 2.3325803e-38
0.035840027 0.025600024 0.76799995 2.3324378e-38
0.037302911 0.025600016 0.76799995 2.3414764e-38
0.038765714 0.025600024 0.76799995 2.3231436e-38
0.040228598 0.025600016 0.76799995 2.3140705e-38
-0.061526611 0.029564776 0.83899999 9.2953732e-41
-0.059928507 0.029564776 0.83899999 9.2094877e-40
-0.057913341 0.02935335 0.833 1.6555921e-39
-0.056326702 0.029353343 0.833 9.1907383e-40
-0.054740023 0.02935335 0.833 1.9810717e-40
-0.053153321 0.02935335 0.833 1.1810719e-38
-0.051566683 0.029353343 0.83300006 2.3408575e-38
-0.049980003 0.029353343 0.833 2.3417578e-38
-0.048393324 0.02935335 0.833 2.340315e-38
-0.046919025 0.029423818 0.83500004 1.4091455e-38
-0.045328539 0.029423818 0.83499998 4.6944283e-39
-0.043738056 0.029423825 0.83499998 2.940196e-39
-0.035839956 0.027062878 0.76799989 2.7669899e-39
-0.034242816 0.026957154 0.76499999 1.7535751e-39
-0.032785662 0.026957147 0.76499999 7.5417323e-40
-0.031246657 0.026886679 0.76299995 6.8433237e-39
-0.029793309 0.026886672 0.76299995 1.281693e-38
-0.028339988 0.026886687 0.76299995 8.0343055e-39
-0.026816182 0.026816197 0.76100004 3.1339816e-39
-0.025333311 0.026780978 0.75999999 2.1126312e-39
-0.023822801 0.026710488 0.75799996 1.1042596e-39
-0.022319961 0.02664002 0.75599998 8.3021329e-40
-0.020852324 0.026604787 0.755 5.5325646e-40
-0.019362815 0.026534297 0.75299996 3.6777779e-40
-0.017904755 0.026499063 0.75199997 1.0346627e-40
-0.016472373 0.02649907 0.75199997 5.6362719e-39
-0.015039989 0.02649907 0.75199997 1.1062788e-38
-0.013607608 0.026499055 0.75199997 1.0232653e-38
-0.012142828 0.026428595 0.75 9.314714e-39
-0.010714254 0.026428595 0.75 1.0327114e-38
-0.0092856577 0.026428595 0.75 1.135812e-38
-0.0078570843 0.026428588 0.75 1.2011738e-38
-0.0064285127 0.026428603 0.75 1.2530725e-38
-0.0049999775 0.02642858 0.75 6.3371103e-39
-0.0035714034 0.026428595 0.75 9.3019593e-41
-0.0021342572 0.026322871 0.74699998 4.6180211e-40
-0.00071141426 0.026322864 0.74699998 8.302245e-40
0.00071144919 0.026322864 0.74700004 8.3094617e-40
0.0021285887 0.026252404 0.745 8.3059164e-40
0.0035571705 0.026322864 0.74699998 7.3840021e-40
0.0049867025 0.02635812 0.74799997 6.4620458e-40
0.006402879 0.026322871 0.74700004 6.4548432e-40
0.007825722 0.026322857 0.74700004 6.4619758e-40
0.009260959 0.026358113 0.74799997 9.2277606e-40
0.010685725 0.026358113 0.74799997 1.1071589e-39
0.012110513 0.02635812 0.74799997 1.1071533e-39
0.013571487 0.026428595 0.75 1.1064246e-39
0.01500006 0.026428588 0.75 8.2911467e-40
0.016428595 0.026428595 0.75 5.5399494e-40
0.017904755 0.026499063 0.75200003 1.1064709e-39
0.01928574 0.026428603 0.75 1.5688797e-39
0.020714315 0.026428595 0.75 2.306079e-39
0.022231475 0.026534289 0.75299996 3.0446951e-39
0.023728598 0.026604779 0.755 3.5978478e-39
0.025166711 0.026604787 0.755 4.1502985e-39
0.026604787 0.026604772 0.755 3.4163362e-39
0.028080052 0.026640028 0.75599998 2.5804701e-39
0.029598156 0.026710503 0.75799996 3.7657024e-39
0.031164823 0.026816204 0.76099998 4.9015515e-39
0.032700025 0.026886679 0.76299995 1.4122872e-38
0.034242883 0.026957154 0.76499999 2.3320419e-38
0.035793353 0.027027622 0.76699996 2.3323656e-38
0.037302908 0.027062885 0.76799995 2.3321843e-38
0.038765758 0.027062878 0.76799995 2.3135641e-38
0.040228594 0.027062893 0.76799989 2.2861234e-38
-0.059642829 0.031014301 0.83499998 5.5359977e-40
-0.057913341 0.030940019 0.833 1.0134583e-39
-0.056461893 0.031014293 0.83500004 6.442848e-40
-0.054740027 0.030940019 0.833 1.8411801e-40
-0.05328092 0.031014308 0.83499998 1.1710995e-38
-0.051566709 0.030940019 0.83300006 2.3142027e-38
-0.049980007 0.030940004 0.83300006 2.332572e-38
-0.048393328 0.030940011 0.833 2.3417121e-38
-0.046919014 0.031014293 0.83499998 1.4648908e-38
-0.045328524 0.031014293 0.83499998 5.9697024e-39
-0.043738078 0.031014286 0.83500004 3.4929788e-39
-0.038967617 0.028674304 0.77200001 1.1128314e-39
-0.03749714 0.028674304 0.77199996 1.9397516e-39
-0.035933297 0.02860003 0.76999998 2.7666466e-39
-0.03433238 0.028488576 0.76700002 3.8729942e-39
-0.032871418 0.028488584 0.76700002 4.9753789e-39
-0.031328537 0.028414294 0.76499999 8.8575796e-39
-0.029871406 0.028414287 0.76499999 1.2728678e-38
-0.028339971 0.028340012 0.76299995 7.6587295e-39
-0.026816171 0.02826573 0.76099998 2.5718703e-39
-0.025333308 0.028228596 0.75999999 1.5616448e-39
-0.023822814 0.028154306 0.75799996 6.4330109e-40
-0.022319993 0.028080024 0.75600004 9.1953485e-40
-0.020852363 0.028042875 0.755 1.1943281e-39
-0.01941425 0.028042883 0.755 3.9522656e-39
-0.017928507 0.027968578 0.75299996 6.807131e-39
-0.016494239 0.027968578 0.75299996 1.0050502e-38
-0.015039995 0.027931437 0.75200003 1.3264726e-38
-0.013607614 0.027931444 0.75200003 1.2995299e-38
-0.012142812 0.02785717 0.75 1.2735254e-38
-0.010714239 0.02785717 0.75 1.4017757e-38
-0.0092856642 0.02785717 0.75 1.520122e-38
-0.0078571308 0.027857162 0.75 1.4111036e-38
-0.0064285332 0.027857147 0.75000006 1.2990255e-38
-0.0049999617 0.02785717 0.75 6.5311775e-39
-0.0035713885 0.027857155 0.75 9.2295122e-41
-0.002137135 0.027782872 0.74799997 4.6107764e-40
-0.0007114273 0.027745716 0.74700004 7.3766873e-40
0.00071145291 0.027745724 0.74699998 7.3767574e-40
0.0021343182 0.027745716 0.74700004 8.2843644e-40
0.0035571593 0.027745716 0.74700004 8.2987137e-40
0.0049866773 0.02778288 0.74799997 9.220642e-40
0.0064114416 0.02778288 0.74799997 8.2950984e-40
0.0078362292 0.027782887 0.74799997 7.3767014e-40
0.0092609953 0.027782887 0.74799997 1.0146074e-39
0.010714331 0.02785717 0.75 1.2919033e-39
0.012142905 0.02785717 0.75 1.1993461e-39
0.013571439 0.02785717 0.75 1.1071379e-39
0.015000037 0.027857155 0.75000006 7.3834696e-40
0.016428608 0.02785717 0.75 3.6960508e-40
0.017857183 0.027857162 0.75 9.2316422e-40
0.019337168 0.027931452 0.75200003 1.4774114e-39
0.02076955 0.027931437 0.75199997 2.3075224e-39
0.022201931 0.027931459 0.75199997 3.2294479e-39
0.023665782 0.027968593 0.75299996 3.5978492e-39
0.025166694 0.028042868 0.755 4.0584658e-39
0.026604807 0.028042875 0.755 3.2294394e-39
0.02808002 0.028080016 0.75599998 2.3953754e-39
0.029676212 0.028228611 0.75999999 3.8686768e-39
0.031164797 0.02826573 0.76099998 5.3643261e-39
0.032700017 0.028340004 0.76299995 1.4305465e-38
0.034242939 0.028414302 0.76499999 2.3325797e-38
0.035793349 0.028488569 0.76700002 2.3324368e-38
0.037254326 0.028488591 0.76699996 2.3413668e-38
0.038765755 0.02852574 0.76799995 2.3229615e-38
0.040228639 0.02852574 0.76799995 2.3134929e-38
-0.059642836 0.032604776 0.83499998 2.7953522e-40
-0.057913348 0.032526672 0.833 3.7097976e-40
-0.056326669 0.032526679 0.833 2.766023e-40
-0.05474003 0.032526672 0.83300006 1.9524712e-40
-0.053153351 0.032526679 0.833 1.1523378e-38
-0.051566675 0.032526679 0.833 2.2853244e-38
-0.049980037 0.032526679 0.83300006 2.3142046e-38
-0.048393335 0.032526679 0.83300006 2.340851e-38
-0.046806656 0.032526687 0.833 1.5300366e-38
-0.045328576 0.032604776 0.83500004 7.177553e-39
-0.043842819 0.032682866 0.83700001 4.1329575e-39
-0.042248525 0.032682866 0.83700001 1.1074308e-39
-0.037545688 0.030183814 0.773 1.9379187e-39
-0.035933293 0.030066691 0.76999998 2.6780439e-39
-0.034377091 0.029988594 0.76799995 5.9045434e-39
-0.032871425 0.029949531 0.76700002 9.1287911e-39
-0.031328529 0.029871434 0.76499999 1.0882236e-38
-0.029871376 0.029871449 0.76499999 1.2542116e-38
-0.028339982 0.029793352 0.76299995 7.2999859e-39
-0.026816173 0.029715262 0.76099998 1.9401257e-39
-0.025333321 0.029676214 0.75999999 1.1024463e-39
-0.023822807 0.029598102 0.75799996 1.8520822e-40
-0.022379002 0.029598109 0.75799996 1.0106935e-39
-0.020852342 0.029480971 0.755 1.7590247e-39
-0.019414268 0.029480964 0.755 7.6228815e-39
-0.017928528 0.029402867 0.75299996 1.3452706e-38
-0.016472384 0.029363811 0.75200003 1.4493095e-38
-0.015040002 0.029363818 0.75200003 1.5489269e-38
-0.01360762 0.029363818 0.75200003 1.5840443e-38
-0.012142798 0.029285729 0.75 1.6140017e-38
-0.010714224 0.029285736 0.75 1.7623766e-38
-0.0092856884 0.029285736 0.75 1.90813e-38
-0.007857115 0.029285736 0.75 1.6240501e-38
-0.0064285416 0.029285736 0.75 1.3359767e-38
-0.0049999692 0.029285744 0.75 6.704448e-39
-0.003571396 0.029285736 0.75 9.2658058e-41
-0.0021370978 0.029207639 0.74799997 3.6888902e-40
-0.00071237166 0.029207639 0.74799997 6.4583464e-40
0.0007114436 0.029168576 0.74700004 7.3731561e-40
0.0021342847 0.029168569 0.74700004 7.3695688e-40
0.0035619463 0.029207647 0.74799997 9.2170547e-40
0.0049867118 0.029207632 0.74799997 1.1046548e-39
0.0064114397 0.029207639 0.74799997 1.012099e-39
0.007836204 0.029207632 0.74799997 8.2878396e-40
0.0092857722 0.029285744 0.75 1.1972007e-39
0.010714347 0.029285729 0.75 1.475217e-39
0.012142882 0.029285736 0.75 1.2911872e-39
0.013571456 0.029285729 0.75 1.1071491e-39
0.015000029 0.029285736 0.75 6.4688842e-40
0.016472377 0.029363826 0.75200003 1.8701729e-40
0.017857196 0.029285744 0.75 7.3841282e-40
0.01933714 0.029363826 0.75200003 1.2940907e-39
0.020769523 0.029363826 0.75200003 2.3089475e-39
0.022201901 0.029363833 0.75199997 3.3205617e-39
0.023665762 0.02940286 0.75299996 3.5974933e-39
0.025166692 0.029480971 0.755 3.8740802e-39
0.026604827 0.029480971 0.755 3.0472076e-39
0.02808005 0.029520035 0.75599998 2.2145701e-39
0.029676238 0.029676221 0.75999999 4.0412159e-39
0.031164771 0.029715255 0.76099998 5.8242154e-39
0.032700006 0.029793352 0.76299995 1.4592811e-38
0.034242909 0.029871434 0.76499999 2.3231819e-38
0.035793338 0.029949524 0.76700002 2.3325822e-38
0.037254315 0.029949546 0.76699996 2.3415489e-38
0.038765751 0.029988594 0.76799995 2.3417624e-38
0.040228598 0.029988587 0.76799995 2.3413331e-38
0.041800015 0.030066699 0.76999998 2.3417648e-38
-0.059642859 0.034195237 0.83500004 2.7846463e-40
-0.057913352 0.034113348 0.83300006 4.6498026e-40
-0.056326672 0.034113348 0.833 2.7984771e-40
-0.054740034 0.03411334 0.83300006 1.8413622e-40
-0.053153358 0.034113348 0.83300006 1.004253e-38
-0.051566679 0.034113355 0.833 1.9921682e-38
-0.04998 0.034113355 0.833 2.1671239e-38
-0.048393361 0.03411334 0.833 2.3417476e-38
-0.046806682 0.034113355 0.833 1.5480089e-38
-0.045328565 0.034195259 0.83499998 7.6227399e-39
-0.043738075 0.034195259 0.83499998 4.1333162e-39
-0.042147592 0.034195244 0.83499998 6.4428761e-40
-0.037497129 0.031615257 0.77199996 2.4863813e-39
-0.036026649 0.031615257 0.77199996 4.419694e-39
-0.034377132 0.031451456 0.76799995 6.4649297e-39
-0.032914247 0.031451449 0.76799995 8.4159982e-39
-0.031410478 0.031410486 0.76700002 8.4966345e-39
-0.029871402 0.031328581 0.76499999 8.6039319e-39
-0.028339967 0.031246677 0.76299995 4.8946739e-39
-0.026816174 0.031164758 0.76100004 1.2861398e-39
-0.025333317 0.031123839 0.75999999 4.6014998e-39
-0.02382282 0.03104192 0.75799996 7.9019108e-39
-0.022379017 0.031041928 0.75799996 9.401125e-39
-0.020879975 0.030960016 0.75600004 1.089097e-38
-0.019414248 0.030919068 0.755 1.4109188e-38
-0.017928524 0.030837148 0.75299996 1.7448327e-38
-0.016494257 0.030837156 0.75300002 1.7441208e-38
-0.015039993 0.030796207 0.75199997 1.7532653e-38
-0.01360761 0.030796215 0.75199997 1.7432175e-38
-0.012175229 0.030796207 0.75199997 1.7442249e-38
-0.010714271 0.030714318 0.75 1.651639e-38
-0.0092856744 0.030714303 0.75 1.5687721e-38
-0.007857101 0.030714303 0.75 1.4856182e-38
-0.0064285276 0.030714303 0.75 1.4013392e-38
-0.0049999533 0.030714311 0.75 7.0854247e-39
-0.003571383 0.030714311 0.75 9.230353e-41
-0.0021371015 0.030632392 0.74799997 2.7813532e-40
-0.00071233627 0.030632414 0.74799997 5.5579421e-40
0.00071238982 0.030632399 0.74799997 7.3731281e-40
0.002137155 0.030632414 0.74799997 9.19909e-40
0.0035619203 0.030632399 0.74799997 9.2026914e-40
0.004986709 0.030632399 0.74799997 9.2026353e-40
0.0064114733 0.030632399 0.74799997 7.362268e-40
0.0078362012 0.030632399 0.74799997 5.5219707e-40
0.0092609655 0.030632406 0.74799997 9.2240892e-40
0.010714323 0.030714303 0.75000006 1.293341e-39
0.012142895 0.030714311 0.75 1.1078792e-39
0.013571469 0.030714311 0.75 9.2456692e-40
0.015040028 0.0307962 0.75199997 6.4726537e-40
0.016472409 0.030796215 0.75199997 3.7069529e-40
0.01790479 0.030796207 0.75199997 8.3132031e-40
0.019337172 0.030796215 0.75199997 1.2940837e-39
0.020769516 0.0307962 0.75200003 2.2153071e-39
0.02223146 0.030837148 0.75300002 3.1354516e-39
0.023665765 0.030837148 0.75299996 3.4131062e-39
0.025166713 0.03091906 0.755 3.7822475e-39
0.026640043 0.030960016 0.75599998 3.2319576e-39
0.028154315 0.031041913 0.75800002 2.680918e-39
0.029676227 0.031123817 0.75999999 3.6878518e-39
0.031164806 0.031164765 0.76099998 4.7160854e-39
0.032700043 0.031246677 0.76299995 1.2925423e-38
0.034153365 0.031246684 0.76299995 2.12136e-38
0.035700049 0.031328596 0.76499999 2.0933454e-38
0.037254304 0.031410493 0.76699996 2.065758e-38
0.038765751 0.031451456 0.76799989 2.0562148e-38
0.040228598 0.031451456 0.76799995 2.0468164e-38
0.041800074 0.03153336 0.76999998 2.0469602e-38
-0.059642848 0.035785727 0.83499998 2.762716e-40
-0.058052365 0.03578572 0.83499998 4.6531937e-40
-0.056461874 0.035785735 0.83499998 2.8559163e-40
-0.054740001 0.035700008 0.833 9.4800644e-41
-0.053280942 0.03578572 0.83499998 8.5412112e-39
-0.051690456 0.03578572 0.83499998 1.6956039e-38
-0.049980003 0.035700016 0.833 2.0203327e-38
-0.048277132 0.035614304 0.83099997 2.3409624e-38
-0.046694241 0.035614304 0.83099997 1.5762831e-38
-0.045111373 0.035614312 0.83099997 8.0087668e-39
-0.043633368 0.035700016 0.83300006 4.0411248e-39
-0.042046692 0.035700016 0.833 9.3640369e-41
-0.037497111 0.033085741 0.77199996 3.1278075e-39
-0.036026634 0.033085734 0.77199996 6.1774856e-39
-0.034377113 0.032914296 0.76799995 6.9352223e-39
-0.032914251 0.032914303 0.76799995 7.6583525e-39
-0.031410467 0.032871433 0.76700002 6.0841605e-39
-0.029871371 0.032785721 0.76499999 4.5219075e-39
-0.028339973 0.032700017 0.76299995 2.5718647e-39
-0.026816163 0.032614298 0.76099998 5.7088339e-40
-0.025366627 0.032614306 0.76099998 8.1161315e-39
-0.023885675 0.03257145 0.75999999 1.5571e-38
-0.022379005 0.032485738 0.75799996 1.7800572e-38
-0.020879967 0.032400019 0.75599998 1.9912085e-38
-0.019439969 0.032400019 0.75599998 2.0658623e-38
-0.017976174 0.032357164 0.755 2.139225e-38
-0.016494254 0.032271437 0.75300002 2.0474275e-38
-0.015039998 0.032228589 0.75200003 1.9457978e-38
-0.013607617 0.032228582 0.75200003 1.9097443e-38
-0.012175235 0.032228589 0.75200003 1.8624986e-38
-0.010742853 0.032228589 0.75199997 1.5495756e-38
-0.0093104728 0.032228574 0.75199997 1.2274713e-38
-0.0078571094 0.032142878 0.75 1.3482939e-38
-0.0064285137 0.03214287 0.75 1.4645824e-38
-0.0049999394 0.032142878 0.75 7.3472867e-39
-0.0035713662 0.032142892 0.75 9.3016791e-41
-0.0021371294 0.032057166 0.74799997 2.7849966e-40
-0.00071236235 0.032057159 0.74799997 3.7069389e-40
0.00071242522 0.032057166 0.74799997 7.3624221e-40
0.0021371513 0.032057166 0.74799997 1.1035828e-39
0.0035619165 0.032057166 0.74799997 9.1955027e-40
0.004986682 0.032057151 0.74799997 6.443857e-40
0.0064114714 0.032057174 0.74799997 4.6033916e-40
0.0078362357 0.032057159 0.74799997 1.8556275e-40
0.0092609627 0.032057166 0.74799997 6.4618637e-40
0.01068573 0.032057159 0.74799997 1.106803e-39
0.012142888 0.032142878 0.75 9.2277606e-40
0.013571463 0.032142885 0.75 7.3910507e-40
0.015000057 0.032142885 0.75 6.4727097e-40
0.016472381 0.032228589 0.75199997 5.5472642e-40
0.017857166 0.032142878 0.75000006 9.2207821e-40
0.019337168 0.032228589 0.75200003 1.2926502e-39
0.020769548 0.032228582 0.75200003 2.1220409e-39
0.022231478 0.032271437 0.75299996 2.9525036e-39
0.023665745 0.032271437 0.75299996 3.3209204e-39
0.025166696 0.032357149 0.755 3.5985793e-39
0.026640011 0.032400019 0.75600004 3.3252252e-39
0.028154301 0.032485731 0.75799996 3.0460964e-39
0.029676231 0.032571457 0.75999999 3.3133184e-39
0.03116478 0.032614298 0.76099998 3.5207778e-39
0.032700036 0.032700017 0.76299995 1.1362063e-38
0.034153357 0.032700017 0.76299995 1.9088823e-38
0.035700068 0.032785721 0.76499999 1.8445279e-38
0.037254341 0.032871425 0.76699996 1.7802424e-38
0.038715281 0.032871433 0.76699996 1.7613725e-38
0.04022859 0.032914318 0.76799995 1.7431489e-38
0.041800052 0.033000022 0.76999998 1.7611212e-38
-0.059357114 0.037197158 0.83099997 7.3684337e-40
-0.057913322 0.037286684 0.833 4.6637735e-40
-0.056326684 0.037286676 0.83300006 3.7240768e-40
-0.054740004 0.037286684 0.833 1.841152e-40
-0.053153329 0.037286684 0.833 4.9739509e-39
-0.05156669 0.037286684 0.83300006 9.7910756e-39
-0.049859989 0.037197158 0.83099997 1.6613154e-38
-0.048277117 0.037197165 0.83099997 2.3417557e-38
-0.046694245 0.037197165 0.83099991 1.6681605e-38
-0.045111392 0.037197158 0.83099997 9.9351921e-39
-0.043528523 0.037197165 0.83099997 5.0556214e-39
-0.041945688 0.037197158 0.83099997 9.2212445e-41
-0.04036282 0.037197165 0.83099997 3.411576e-39
-0.036026679 0.03455621 0.77200001 6.7374696e-39
-0.034377113 0.034377165 0.76799995 5.7244934e-39
-0.032914229 0.034377165 0.76799995 4.605537e-39
-0.031410478 0.034332387 0.76700002 5.7074914e-39
-0.029949518 0.03433238 0.76700002 6.8884567e-39
-0.028414246 0.034242876 0.76499999 7.4631629e-39
-0.026816169 0.034063816 0.76099998 8.1247691e-39
-0.02536663 0.034063831 0.76099998 1.2921124e-38
-0.023885712 0.034019068 0.75999999 1.762808e-38
-0.022379018 0.033929542 0.75799996 1.762165e-38
-0.020879976 0.033840016 0.75600004 1.7716356e-38
-0.019439979 0.033840016 0.75600004 1.7986481e-38
-0.017976156 0.033795252 0.755 1.8355243e-38
-0.016494237 0.033705726 0.75299996 1.8536387e-38
-0.015039966 0.033660971 0.75199997 1.8707518e-38
-0.013607623 0.033660971 0.75200003 1.6963377e-38
-0.012175241 0.033660963 0.75200003 1.5300608e-38
-0.01074286 0.033660956 0.75200003 1.4838516e-38
-0.0093104783 0.033660963 0.75200003 1.4442862e-38
-0.0078780968 0.033660971 0.75200003 1.465813e-38
-0.0064285193 0.033571444 0.75 1.4923469e-38
-0.004999985 0.033571459 0.75 7.5438595e-39
-0.0035714109 0.033571444 0.75 9.2296523e-41
-0.0021371313 0.033481918 0.74799997 4.6145739e-40
-0.00071236421 0.033481918 0.74799997 7.3804148e-40
0.000712401 0.033481926 0.74799997 1.0124718e-39
0.0021371867 0.033481933 0.74799997 1.1957784e-39
0.0035619147 0.033481918 0.74800003 1.0121018e-39
0.004986682 0.033481926 0.74799997 9.1952224e-40
0.0064114463 0.033481926 0.74799997 7.3582322e-40
0.0078362105 0.033481926 0.74799997 5.5253479e-40
0.009261 0.033481926 0.74799997 1.1050065e-39
0.010685727 0.033481918 0.74799997 1.6563824e-39
0.012110492 0.033481926 0.74799997 1.2894034e-39
0.013571476 0.033571467 0.75 1.0131808e-39
0.01500005 0.033571452 0.75 8.2986997e-40
0.016472373 0.033660971 0.75200003 5.5365302e-40
0.017904755 0.033660963 0.75200003 8.3024131e-40
0.019337138 0.033660963 0.75200003 1.1082631e-39
0.020797176 0.033705726 0.75299996 1.9390902e-39
0.022231482 0.033705734 0.75299996 2.8635436e-39
0.023728579 0.033795252 0.755 3.2308856e-39
0.025166692 0.03379526 0.755 3.5985807e-39
0.026640041 0.033840016 0.75599998 3.5996513e-39
0.02815431 0.033929549 0.75800002 3.5992519e-39
0.029676219 0.034019068 0.75999999 3.0417411e-39
0.031164778 0.034063824 0.76100004 2.4051088e-39
0.032614294 0.034063824 0.76099998 1.0433299e-38
0.034153394 0.03415335 0.76299995 1.8445967e-38
0.035700075 0.034242868 0.76499999 1.7893181e-38
0.037302904 0.034377173 0.76799989 1.7431131e-38
0.038715269 0.034332395 0.76699996 1.724674e-38
0.040228635 0.034377158 0.76799995 1.7063065e-38
0.041908611 0.03455621 0.77199996 1.6783607e-38
-0.059357099 0.038780019 0.83099991 1.1024085e-39
-0.057913326 0.038873352 0.833 4.6172504e-40
-0.056326687 0.038873348 0.83300006 3.6918469e-40
-0.054740012 0.038873341 0.83300006 2.7664434e-40
-0.053153332 0.03887336 0.833 1.3786815e-39
-0.051566694 0.038873333 0.83300006 2.5169969e-39
-0.049980015 0.038873341 0.833 1.3040111e-38
-0.048277102 0.038780026 0.83099997 2.3412134e-38
-0.046694271 0.038780019 0.83099997 1.7702185e-38
-0.045111399 0.038780011 0.83099997 1.187307e-38
-0.043528546 0.038780019 0.83099997 5.9696982e-39
-0.041945677 0.038780008 0.83099997 9.6200541e-41
-0.037497163 0.036026686 0.77200001 3.6892924e-39
-0.03602666 0.036026679 0.77200001 7.2838289e-39
-0.034466635 0.03593336 0.76999998 4.4362475e-39
-0.032999963 0.03593336 0.76999998 1.5807305e-39
-0.031451385 0.03584002 0.76799995 5.4349445e-39
-0.029949529 0.035793327 0.76700002 9.2163624e-39
-0.028414216 0.035700016 0.76499999 1.2451791e-38
-0.026886621 0.03560669 0.76299989 1.5677583e-38
-0.025366656 0.035513341 0.76099998 1.7723144e-38
-0.023885684 0.035466693 0.75999999 1.9642005e-38
-0.022379011 0.03537336 0.75799996 1.7524768e-38
-0.020935204 0.035373352 0.75799996 1.5406458e-38
-0.019439973 0.035280019 0.75599998 1.5307096e-38
-0.017976157 0.035233356 0.755 1.5223143e-38
-0.016494235 0.035140023 0.75299996 1.6607842e-38
-0.015039996 0.035093345 0.75199997 1.7884212e-38
-0.013607615 0.035093352 0.75199997 1.4931845e-38
-0.012175232 0.035093345 0.75199997 1.1908442e-38
-0.010742828 0.035093345 0.75200003 1.4298669e-38
-0.0093104467 0.03509336 0.75199997 1.6593853e-38
-0.0078780651 0.035093345 0.75199997 1.5966802e-38
-0.0064285435 0.035000019 0.75 1.5201496e-38
-0.0049999701 0.035000026 0.75 7.6281658e-39
-0.003571396 0.035000026 0.75 9.4094389e-41
-0.002137094 0.034906693 0.74799997 6.4441793e-40
-0.00071236794 0.034906685 0.74799997 1.1050275e-39
0.00071239728 0.034906685 0.74799997 1.195784e-39
0.0021371625 0.034906693 0.74799997 1.2879755e-39
0.0035619501 0.034906693 0.74799997 1.1964945e-39
0.0049867155 0.034906685 0.74799997 1.1039261e-39
0.0064114425 0.034906693 0.74799997 1.0113577e-39
0.0078362077 0.034906693 0.74799997 9.2025512e-40
0.0092609739 0.034906693 0.74799997 1.5645525e-39
0.010685761 0.034906685 0.74799997 2.1155739e-39
0.012142918 0.035000026 0.75 1.7482389e-39
0.013571492 0.035000019 0.75 1.2890545e-39
0.015000027 0.035000034 0.75 9.2170687e-40
0.016472409 0.035093345 0.75199997 5.5365302e-40
0.01790479 0.035093352 0.75199997 7.3733102e-40
0.01933717 0.035093352 0.75199997 9.2387468e-40
0.020797178 0.035140008 0.75300002 1.8461799e-39
0.022290524 0.035233364 0.755 2.6780818e-39
0.0237286 0.035233349 0.755 3.1397732e-39
0.025200034 0.035280019 0.75600004 3.5989408e-39
0.026640009 0.035280019 0.75600004 3.8747976e-39
0.028154319 0.035373345 0.75800002 4.146665e-39
0.029715274 0.035513349 0.76099998 2.7576012e-39
0.031164812 0.035513341 0.76099998 1.3095302e-39
0.032614313 0.035513334 0.76100004 9.5192545e-39
0.034153387 0.035606675 0.76299995 1.7705548e-38
0.035700046 0.035700023 0.76499999 1.7341455e-38
0.037302863 0.03584002 0.76799995 1.6970166e-38
0.038866702 0.03593336 0.76999998 1.687833e-38
0.040333398 0.035933353 0.76999998 1.6692138e-38
0.041908607 0.036026694 0.77199996 1.6046053e-38
-0.057913333 0.040460009 0.83300006 5.5105361e-39
-0.056461871 0.040557161 0.83499998 2.8519773e-39
-0.054740015 0.040460005 0.83300006 1.8406756e-40
-0.053153336 0.040460013 0.833 7.3542105e-40
-0.051566657 0.040460013 0.833 1.2861243e-39
-0.049859952 0.04036288 0.83099997 1.236383e-38
-0.048277121 0.04036288 0.83099997 2.3325637e-38
-0.046694253 0.040362883 0.83099997 1.8339278e-38
-0.045111384 0.040362876 0.83099991 1.3334193e-38
-0.043528549 0.040362883 0.83099997 6.8005477e-39
-0.041945659 0.040362868 0.83099997 2.7596752e-40
-0.037545703 0.037545718 0.773 3.7854901e-39
-0.036073301 0.037545733 0.773 7.292807e-39
-0.034556162 0.037497163 0.77199996 6.8278786e-39
-0.032999963 0.037400022 0.76999998 6.4476783e-39
-0.031451389 0.037302881 0.76799995 7.2886031e-39
-0.029949518 0.037254281 0.76700002 8.1409752e-39
-0.028414244 0.037157163 0.76499999 1.2548744e-38
-0.026886648 0.037060007 0.76299995 1.6880116e-38
-0.025366619 0.036962874 0.76099998 1.789357e-38
-0.023917144 0.036962867 0.76099998 1.8896202e-38
-0.022438066 0.036914311 0.75999999 1.7150584e-38
-0.020935219 0.036817171 0.75799996 1.5485361e-38
-0.01943998 0.036720015 0.75600004 1.5486807e-38
-0.017976174 0.036671452 0.755 1.5580794e-38
-0.016538063 0.036671452 0.755 1.6970162e-38
-0.015059964 0.036574289 0.75300002 1.8443103e-38
-0.013625658 0.036574304 0.75299996 1.6598844e-38
-0.012191391 0.036574289 0.75300002 1.485687e-38
-0.010742854 0.036525719 0.75200003 1.5963948e-38
-0.0093104728 0.036525734 0.75200003 1.707566e-38
-0.0078780921 0.036525726 0.75199997 1.5777766e-38
-0.0064457105 0.036525734 0.75199997 1.4480812e-38
-0.005013329 0.036525734 0.75199997 7.2726648e-39
-0.0035809234 0.036525719 0.75200003 9.2306332e-41
-0.0021428086 0.036428593 0.75 7.3733663e-40
-0.00071423617 0.036428586 0.75 1.3819732e-39
0.00071239355 0.036331438 0.74800003 1.197219e-39
0.0021371588 0.03633146 0.74799997 1.1043059e-39
0.003561924 0.03633146 0.74799997 1.1046632e-39
0.0049866894 0.036331452 0.74799997 1.0128249e-39
0.0064114779 0.03633146 0.74799997 1.0121032e-39
0.007836205 0.036331445 0.74799997 1.0117501e-39
0.0092609702 0.036331445 0.74799997 1.2883384e-39
0.010685736 0.036331452 0.74799997 1.5642148e-39
0.012142872 0.036428601 0.75 1.3812725e-39
0.013571468 0.036428586 0.75000006 1.1972288e-39
0.015000041 0.036428586 0.75 8.2915391e-40
0.016472379 0.036525719 0.75199997 3.685485e-40
0.01790476 0.036525726 0.75199997 7.3768975e-40
0.019362895 0.036574289 0.75299996 1.1979476e-39
0.020797197 0.036574304 0.75299996 1.9380168e-39
0.022290507 0.036671437 0.755 2.7702802e-39
0.02372862 0.036671445 0.755 3.2305367e-39
0.025200041 0.03672003 0.75599998 3.6900603e-39
0.026640037 0.036720015 0.75599998 3.9666303e-39
0.028154304 0.036817163 0.75799996 4.2420752e-39
0.029598149 0.036817163 0.75799996 2.6747102e-39
0.031164786 0.036962867 0.76099998 1.1172413e-39
0.032614324 0.036962874 0.76099998 9.1429484e-39
0.034153379 0.037060022 0.76299989 1.7250322e-38
0.035793327 0.037254304 0.76700002 1.7155277e-38
0.037302904 0.037302889 0.76799995 1.7056269e-38
0.038765747 0.037302889 0.76799989 1.7242809e-38
0.040333372 0.037400015 0.76999998 1.7423239e-38
0.041800067 0.037400007 0.76999998 1.6598142e-38
0.043266714 0.03740003 0.76999998 1.5861292e-38
-0.059357103 0.041945741 0.83099997 9.8416162e-39
-0.057774272 0.041945733 0.83099997 1.0493737e-38
-0.05632668 0.042046677 0.833 5.3433626e-39
-0.054608531 0.041945729 0.83099991 9.6525642e-41
-0.0530257 0.041945744 0.83099997 9.2205439e-41
-0.051566664 0.042046688 0.833 1.0442616e-40
-0.049859978 0.041945737 0.83099997 1.1711956e-38
-0.048277106 0.041945729 0.83099997 2.3212617e-38
-0.046806667 0.042046677 0.833 1.89947e-38
-0.045111407 0.041945733 0.83099997 1.4726097e-38
-0.043633346 0.042046674 0.83300006 7.5309549e-39
-0.042046674 0.042046677 0.833 3.7498186e-40
-0.037545677 0.039018113 0.773 3.7912116e-39
-0.036073316 0.039018106 0.773 7.1973982e-39
-0.034466621 0.038866691 0.76999998 9.3182466e-39
-0.032999948 0.038866691 0.76999998 1.133506e-38
-0.031451404 0.038765736 0.76799995 9.2217868e-39
-0.029949529 0.038715236 0.76700002 7.0210182e-39
-0.028488528 0.038715251 0.76699996 1.2538377e-38
-0.026957119 0.038614295 0.76499999 1.80722e-38
-0.025433309 0.038513355 0.76299995 1.8166924e-38
-0.023917109 0.038412388 0.76099998 1.816727e-38
-0.022438077 0.038361929 0.75999999 1.6879408e-38
-0.020935211 0.038260981 0.75799996 1.5492913e-38
-0.019439973 0.038160019 0.75599998 1.5665829e-38
-0.017999975 0.038160015 0.75599998 1.5865996e-38
-0.016538041 0.038109533 0.755 1.7432575e-38
-0.015099965 0.038109537 0.755 1.8903012e-38
-0.013625678 0.038008578 0.75299996 1.8346612e-38
-0.012191412 0.038008574 0.75300002 1.7704858e-38
-0.010757107 0.038008582 0.75299996 1.7624879e-38
-0.0093228398 0.038008586 0.75299996 1.7434744e-38
-0.0078780977 0.037958108 0.75200003 1.5586905e-38
-0.0064457161 0.037958104 0.75200003 1.3732134e-38
-0.0050133355 0.0379581 0.75200003 6.8888309e-39
-0.0035809532 0.037958112 0.75200003 9.3388135e-41
-0.0021427956 0.037857167 0.75 8.3060986e-40
-0.00071426039 0.037857156 0.75000006 1.5660071e-39
0.00071431394 0.037857167 0.75 1.2908537e-39
0.0021371569 0.037756216 0.74800003 9.2207121e-40
0.0035619221 0.037756212 0.74799997 9.209894e-40
0.0049866876 0.037756208 0.74799997 9.2169986e-40
0.0064114518 0.03775622 0.74799997 1.0124522e-39
0.0078362413 0.037756208 0.74799997 1.0128179e-39
0.0092857778 0.037857164 0.75 1.0124676e-39
0.010714312 0.037857167 0.75 1.0142682e-39
0.012142886 0.037857156 0.75 1.1068296e-39
0.013571459 0.037857167 0.75 1.1064597e-39
0.015039992 0.0379581 0.75200003 6.4547871e-40
0.016494324 0.038008582 0.75299996 1.870257e-40
0.01792863 0.038008586 0.75299996 8.3023991e-40
0.019362897 0.038008574 0.75299996 1.3837668e-39
0.020797201 0.038008574 0.75299996 2.1216822e-39
0.022290505 0.038109537 0.755 2.7684781e-39
0.023760034 0.038160019 0.75599998 3.3220036e-39
0.025200032 0.038160007 0.75600004 3.782609e-39
0.026710507 0.038260974 0.75799996 4.0591847e-39
0.028154314 0.03826097 0.75800002 4.3324926e-39
0.029715283 0.0384124 0.76099998 2.5821909e-39
0.031164782 0.038412385 0.76100004 8.4892202e-40
0.032700047 0.038513355 0.76299995 8.8685125e-39
0.034153331 0.038513344 0.76299995 1.6785405e-38
0.035793316 0.038715258 0.76700002 1.6972691e-38
0.037302904 0.038765743 0.76799995 1.7153126e-38
0.038765751 0.038765743 0.76799995 1.7704851e-38
0.040333387 0.038866691 0.76999998 1.816367e-38
0.041800044 0.038866673 0.76999998 1.7245674e-38
-0.059357125 0.043528594 0.83099997 1.3811818e-38
-0.057774257 0.043528583 0.83099997 1.1912215e-38
-0.056326687 0.043633342 0.833 9.0390113e-39
-0.054608554 0.043528583 0.83099997 6.0615183e-39
-0.053025682 0.04352859 0.83099997 3.122767e-39
-0.05144285 0.043528587 0.83099997 9.219563e-41
-0.04985996 0.043528587 0.83099997 6.7330499e-39
-0.048277088 0.043528594 0.83099997 1.3287548e-38
-0.046694256 0.043528587 0.83099997 1.3281905e-38
-0.045111388 0.043528594 0.83099997 1.3350739e-38
-0.043528557 0.043528587 0.83099997 6.9910892e-39
-0.041945688 0.043528594 0.83099997 7.3766453e-40
-0.037545674 0.040490493 0.773 4.6091033e-39
-0.036073308 0.040490489 0.773 8.3876864e-39
-0.034556177 0.040438123 0.77199996 9.5963105e-39
-0.032999951 0.040333357 0.76999998 1.0801276e-38
-0.031533279 0.040333368 0.76999998 1.0785116e-38
-0.02998855 0.040228594 0.76799989 1.0672201e-38
-0.028488541 0.040176209 0.76699996 1.4754661e-38
-0.026957085 0.040071454 0.76499999 1.8825915e-38
-0.025433293 0.039966673 0.76299995 1.7806396e-38
-0.023979971 0.039966676 0.76299995 1.6890195e-38
-0.022467598 0.039861914 0.76099998 1.5042006e-38
-0.020990461 0.039809547 0.75999999 1.3114895e-38
-0.019491395 0.039704785 0.75800002 1.5777766e-38
-0.017999986 0.039600022 0.75600004 1.8457489e-38
-0.016559986 0.039600011 0.75600004 1.8359188e-38
-0.015099967 0.039547648 0.755 1.8266636e-38
-0.013625675 0.039442863 0.75299996 1.5770577e-38
-0.012191371 0.039442874 0.75299996 1.3379274e-38
-0.010757104 0.039442871 0.75299996 1.4122216e-38
-0.0093227969 0.039442886 0.75299996 1.4951949e-38
-0.007878066 0.039390493 0.75199997 1.476324e-38
-0.0064456845 0.039390482 0.75199997 1.4481523e-38
-0.0050133029 0.039390493 0.75199997 7.2769878e-39
-0.0035809216 0.039390504 0.75199997 9.2318944e-41
-0.0021428422 0.039285723 0.75 9.2173069e-40
-0.00071426784 0.039285734 0.75 1.842594e-39
0.00071432884 0.039285723 0.75 1.3830536e-39
0.0021371699 0.039180987 0.74799997 9.231488e-40
0.0035619575 0.039180979 0.74799997 7.39468e-40
0.0049866857 0.039180964 0.74799997 5.5614593e-40
0.00641145 0.039180975 0.74799997 6.4617656e-40
0.0078362143 0.039180972 0.74799997 7.3909806e-40
0.0092609804 0.039180987 0.74799997 8.3094196e-40
0.010685731 0.039180972 0.74800003 9.2421659e-40
0.012142901 0.039285742 0.75 1.0160563e-39
0.013607643 0.039390489 0.75200003 1.1082449e-39
0.015000047 0.039285742 0.75 8.3165663e-40
0.016494326 0.039442863 0.75300002 5.5615714e-40
0.017928632 0.039442863 0.75299996 9.242236e-40
0.0193629 0.039442867 0.75300002 1.2933606e-39
0.020797202 0.039442863 0.75299996 2.0305571e-39
0.022290526 0.039547633 0.755 2.768111e-39
0.023760024 0.039600007 0.75600004 3.3219924e-39
0.025200037 0.039600033 0.75599998 3.8751564e-39
0.026640037 0.039600026 0.75599998 3.600366e-39
0.028154299 0.039704774 0.75799996 3.4163068e-39
0.029793391 0.039966688 0.76299995 2.1234044e-39
0.031246714 0.039966676 0.76299995 8.3817406e-40
0.032785736 0.040071443 0.76499999 8.9585473e-39
0.034153368 0.03996668 0.76299995 1.7070957e-38
0.035793349 0.040176198 0.76700002 1.6880864e-38
0.0373029 0.040228602 0.76799989 1.6787221e-38
0.038765747 0.040228598 0.76799995 1.7063072e-38
0.040333364 0.04033336 0.76999998 1.7249984e-38
0.041800059 0.040333353 0.76999998 1.6786873e-38
-0.057774238 0.045111444 0.83099997 1.3275089e-38
-0.056326691 0.045220017 0.83300006 1.2747747e-38
-0.054608539 0.045111448 0.83099997 1.2059604e-38
-0.053025708 0.045111444 0.83099997 6.0615029e-39
-0.051442835 0.045111448 0.83099997 9.9022756e-41
-0.049859967 0.045111451 0.83099991 1.7492044e-39
-0.048277114 0.045111448 0.83099997 3.3377486e-39
-0.046694241 0.045111448 0.83099997 7.677413e-39
-0.04511141 0.045111444 0.83099997 1.1879588e-38
-0.043528542 0.045111451 0.83099997 6.5280021e-39
-0.04194567 0.045111455 0.83099997 1.1097051e-39
-0.037545685 0.041962866 0.773 5.3362875e-39
-0.036073282 0.041962866 0.773 9.5880246e-39
-0.034556158 0.041908599 0.77199996 9.9697565e-39
-0.03299997 0.041800026 0.76999998 1.024528e-38
-0.031451389 0.041691445 0.76799995 1.2353207e-38
-0.029988527 0.04169146 0.76799989 1.4383679e-38
-0.028488528 0.041637152 0.76699996 1.6982025e-38
-0.026957115 0.041528586 0.76499999 1.9454399e-38
-0.025433304 0.041420016 0.76299995 1.7525845e-38
-0.023979956 0.041420016 0.76299995 1.5585443e-38
-0.0224676 0.041311439 0.76100004 1.3190888e-38
-0.020990433 0.041257169 0.75999999 1.0714216e-38
-0.019542819 0.041257173 0.75999999 1.5872447e-38
-0.017999955 0.041040011 0.75599998 2.0928777e-38
-0.016559957 0.041040018 0.75600004 1.9280038e-38
-0.015099946 0.04098573 0.755 1.7610139e-38
-0.01362567 0.040877145 0.75300002 1.3272705e-38
-0.012191366 0.04087716 0.75299996 8.9585796e-39
-0.0107571 0.040877156 0.75300002 1.0715641e-38
-0.0093227942 0.040877152 0.75299996 1.246125e-38
-0.0078780949 0.040822878 0.75200003 1.3848126e-38
-0.0064457133 0.040822871 0.75199997 1.5211905e-38
-0.0050133318 0.040822875 0.75199997 7.6450388e-39
-0.003580929 0.040822867 0.75200003 9.8771924e-41
-0.0021428254 0.040714309 0.75 1.1054017e-39
-0.00071425294 0.040714312 0.75 2.0262608e-39
0.00071432139 0.040714309 0.75 1.4755995e-39
0.0021371644 0.040605746 0.74799997 8.3202937e-40
0.0035619314 0.040605742 0.74799997 5.5723614e-40
0.0049867192 0.040605731 0.74799997 1.8773196e-40
0.0064114472 0.040605731 0.74799997 2.7740665e-40
0.0078571727 0.04071432 0.75 3.7104141e-40
0.0092857452 0.040714309 0.75 5.5615294e-40
0.01071432 0.040714309 0.75 7.4090714e-40
0.012142893 0.040714312 0.75 9.2458513e-40
0.013571489 0.040714309 0.75 1.1082435e-39
0.015000062 0.040714305 0.75 1.0160353e-39
0.016494308 0.040877156 0.75300002 8.3201816e-40
0.017928613 0.040877145 0.75299996 1.0167794e-39
0.01936288 0.040877149 0.75300002 1.110047e-39
0.020797184 0.040877156 0.75299996 1.9383587e-39
0.022290507 0.04098573 0.755 2.767748e-39
0.02372862 0.04098573 0.755 3.321991e-39
0.02520003 0.041040007 0.75599998 3.8755151e-39
0.026640026 0.041040018 0.75600004 3.1426248e-39
0.028080026 0.041040018 0.75600004 2.4032507e-39
0.029793384 0.041420024 0.76299995 1.6574194e-39
0.03124669 0.041420013 0.76299995 8.4785564e-40
0.032785792 0.041528586 0.76499999 9.0564659e-39
0.034153361 0.041420024 0.76299995 1.7244924e-38
0.035793338 0.041637149 0.76700002 1.6876539e-38
0.037302859 0.041691456 0.76799995 1.6417714e-38
0.038866732 0.041800022 0.76999998 1.6417705e-38
0.040333387 0.041800022 0.77000004 1.6326237e-38
0.041908592 0.041908596 0.77200001 1.6323734e-38
-0.056326691 0.046806671 0.83300006 9.4070315e-39
-0.05460852 0.046694309 0.83099991 8.1225957e-39
-0.053025689 0.046694301 0.83099997 5.8989971e-39
-0.051442821 0.046694309 0.83099997 3.6964039e-39
-0.049859986 0.046694305 0.83099997 3.31617e-39
-0.048277117 0.046694312 0.83099997 3.0342652e-39
-0.046694227 0.046694312 0.83099997 6.641377e-39
-0.045111395 0.046694305 0.83099997 1.013544e-38
-0.043633327 0.046806682 0.833 7.0923233e-39
-0.042046685 0.046806678 0.83300006 3.9595089e-39
-0.037545681 0.043435261 0.773 7.5593844e-39
-0.03607332 0.043435253 0.773 1.116826e-38
-0.03455618 0.043379053 0.77200001 1.1535629e-38
-0.032999933 0.043266695 0.76999998 1.1897639e-38
-0.031533305 0.043266688 0.76999998 1.190271e-38
-0.029988544 0.043154303 0.76799995 1.2017154e-38
-0.028488539 0.043098111 0.76699996 1.2367284e-38
-0.026957083 0.042985726 0.76499999 1.2728152e-38
-0.025433289 0.042873345 0.76299995 1.1986636e-38
-0.023979966 0.042873356 0.76299995 1.1244741e-38
-0.022467587 0.042760972 0.76099998 1.2263504e-38
-0.020990469 0.042704791 0.75999999 1.3259739e-38
-0.019542815 0.042704791 0.75999999 1.4573452e-38
-0.018047554 0.042592395 0.75799996 1.5778076e-38
-0.01655999 0.042480022 0.75600004 1.2452985e-38
-0.015119953 0.042480022 0.75599998 9.059375e-39
-0.013625692 0.042311437 0.75299996 7.7485653e-39
-0.012191386 0.042311441 0.75299996 6.4567447e-39
-0.010757119 0.042311445 0.75299996 1.0976029e-38
-0.0093228156 0.042311441 0.75299996 1.5471713e-38
-0.0078781005 0.042255249 0.75200003 1.6601769e-38
-0.0064457189 0.042255256 0.75200003 1.7801954e-38
-0.0050133383 0.042255249 0.75200003 8.9382607e-39
-0.003580957 0.042255241 0.75200003 9.2310536e-41
-0.0021428124 0.042142879 0.75 1.1975959e-39
-0.00071423803 0.042142887 0.75 2.2113639e-39
0.00071433629 0.042142879 0.75 1.658546e-39
0.0021371644 0.042030506 0.74799997 1.0146228e-39
0.0035714831 0.042142887 0.75 7.3947641e-40
0.0050000185 0.042142875 0.75 4.6252658e-40
0.0064286152 0.042142879 0.75 4.6180071e-40
0.0078571867 0.042142875 0.75 5.5363901e-40
0.009285761 0.042142883 0.75 7.3982393e-40
0.010714335 0.042142887 0.75 9.252984e-40
0.012142908 0.042142883 0.75 1.1086205e-39
0.013607645 0.042255264 0.75199997 1.1997175e-39
0.015040028 0.04225526 0.75199997 8.3199574e-40
0.016472369 0.042255249 0.75200003 5.5543267e-40
0.017928615 0.042311437 0.75299996 8.3203357e-40
0.019362921 0.042311449 0.75299996 1.2015223e-39
0.020797186 0.042311445 0.75299996 2.0301886e-39
0.022290505 0.042423822 0.755 2.9510575e-39
0.023728618 0.042423818 0.755 3.7811657e-39
0.025166694 0.042423829 0.755 4.6112739e-39
0.026640056 0.042480025 0.75599998 4.0602623e-39
0.028080055 0.042480014 0.75599998 3.5088682e-39
0.02971529 0.042760964 0.76099998 2.1230611e-39
0.031246683 0.042873356 0.76299995 8.3888312e-40
0.032785762 0.042985737 0.76499999 9.0499919e-39
0.034332387 0.043098092 0.76700002 1.7342482e-38
0.035793327 0.043098107 0.76700002 1.6878672e-38
0.037302904 0.043154299 0.76799995 1.6415906e-38
0.038866706 0.043266684 0.76999998 1.6324069e-38
