# .PCD v0.7 - Point Cloud Data file format
VERSION 0.7
FIELDS x y z rgb
SIZE 4 4 4 4
TYPE F F F F
COUNT 1 1 1 1
WIDTH 973
HEIGHT 1
VIEWPOINT 0 0 0 1 0 0 0
POINTS 973
DATA ascii
-0.0062485915 0.014580026 0.72899997 2.8617233e-39
-0.0048600044 0.014580004 0.72900003 2.5851294e-39
-0.0034714208 0.014580026 0.72899997 2.3063915e-39
-0.0020799895 0.014560021 0.72800004 2.8563255e-39
-0.0006932969 0.014560014 0.72800004 3.4048105e-39
0.00069336232 0.014560021 0.72800004 2.2091386e-39
0.0020800254 0.014560021 0.72800004 9.2201936e-40
0.0034666883 0.014560014 0.72800004 9.2095577e-40
0.004853351 0.014560014 0.72800004 8.2911187e-40
0.0062400103 0.014560029 0.72800004 8.2874333e-40
0.007626703 0.014560014 0.72800004 8.2908945e-40
0.0089885797 0.014520019 0.72599995 4.5994119e-40
0.010399999 0.014560014 0.72800004 1.0163338e-40
0.01178669 0.014560029 0.72800004 6.7418361e-39
0.013173353 0.014560014 0.72800004 1.3276878e-38
0.014580028 0.014580011 0.72900003 9.3265325e-39
0.015968587 0.014580011 0.72900003 5.3398552e-39
0.017404754 0.014620021 0.73099995 2.7554629e-39
0.018797161 0.014620006 0.73099995 9.3337688e-41
0.020217136 0.014640033 0.73199999 1.8555994e-40
0.021670481 0.014680021 0.73400003 2.8642541e-40
0.023068568 0.014680028 0.73400003 6.7390069e-39
0.024533318 0.014720023 0.736 1.3096116e-38
0.025935257 0.014720015 0.73600006 1.264843e-38
0.027374269 0.01474002 0.73700005 1.2166248e-38
0.028778076 0.014740027 0.73700005 9.9413452e-39
0.030304786 0.014800012 0.74000001 7.6518785e-39
0.031800002 0.014840029 0.74199998 8.3886785e-39
0.03325808 0.014860019 0.74299997 9.0340171e-39
0.034766708 0.014900014 0.74500006 8.6645031e-39
0.036185734 0.014900006 0.74500006 8.2986086e-39
0.037705701 0.014940023 0.74699998 8.5744878e-39
0.039128572 0.014940031 0.74699998 8.8496244e-39
0.04055142 0.014940016 0.74699998 8.9421675e-39
-0.036185719 0.016319066 0.74500006 2.4900093e-39
-0.034766667 0.016319066 0.74500006 2.3985381e-39
-0.033347614 0.016319066 0.74500006 2.2137951e-39
-0.031928558 0.016319074 0.74500006 1.9372251e-39
-0.030509531 0.016319074 0.74500006 1.844326e-39
-0.029012378 0.016275264 0.74299997 1.8425407e-39
-0.027559984 0.01625336 0.74200004 3.2258213e-39
-0.026146645 0.01625336 0.74200004 4.5954742e-39
-0.024733333 0.016253352 0.74200004 3.4984817e-39
-0.02259716 0.015749551 0.71899998 2.395395e-39
-0.021227615 0.015749544 0.71899998 1.751127e-39
-0.019858068 0.015749536 0.71900004 1.1976169e-39
-0.018514307 0.015771456 0.71999997 2.8603542e-39
-0.017142864 0.015771456 0.72000003 4.6080761e-39
-0.015815234 0.015815251 0.722 2.9489163e-39
-0.014439999 0.015815251 0.72200006 1.2940767e-39
-0.013137151 0.015902877 0.72600001 1.4766645e-39
-0.011754283 0.015902884 0.72599995 1.6592523e-39
-0.010399999 0.015946694 0.72800004 1.5677685e-39
-0.0090257097 0.015968584 0.72900003 1.4780868e-39
-0.0076371543 0.015968591 0.72900003 1.8475812e-39
-0.0062485654 0.015968576 0.72900003 2.2152791e-39
-0.0048599839 0.015968569 0.72900003 2.0312466e-39
-0.0034714246 0.015968584 0.72899997 1.9372573e-39
-0.0020799709 0.015946679 0.72800004 2.4879101e-39
-0.00069428037 0.015968584 0.72900003 3.128574e-39
0.00069335115 0.015946686 0.72800004 2.1172737e-39
0.0020800179 0.015946679 0.72800004 1.1060253e-39
0.0034666809 0.015946686 0.72800004 8.3017826e-40
0.0048533399 0.015946686 0.72800004 6.4614012e-40
0.0062485933 0.015968576 0.72900003 7.3796581e-40
0.0076371487 0.015968584 0.72900003 9.227088e-40
0.0090133585 0.015946686 0.72800004 4.6101458e-40
0.01040002 0.015946679 0.72800004 9.2300727e-41
0.011786679 0.015946694 0.72800004 6.4605815e-39
0.013191435 0.015968598 0.72899997 1.2733762e-38
0.014580024 0.015968576 0.72900003 9.0417144e-39
0.01601238 0.016012408 0.73099995 5.4198553e-39
0.017404761 0.016012393 0.73100001 2.7558118e-39
0.018797139 0.0160124 0.73100001 9.2250281e-41
0.020217147 0.016034313 0.73200005 1.1950203e-39
0.021670466 0.016078122 0.73400003 2.205655e-39
0.023068557 0.016078122 0.73400003 8.7705435e-39
0.024533339 0.016121916 0.73600006 1.5224837e-38
0.025935249 0.016121916 0.73600006 1.2082681e-38
0.027374266 0.016143844 0.73699999 8.8425871e-39
0.028778074 0.016143821 0.73700005 8.9419321e-39
0.030304769 0.016209535 0.74000001 9.0509475e-39
0.031799998 0.01625336 0.74199998 8.9522569e-39
0.03325811 0.016275257 0.74300003 8.8560816e-39
0.034766685 0.016319066 0.74500006 8.206022e-39
0.036331408 0.016384788 0.74799997 7.6561189e-39
0.037756175 0.01638478 0.74799997 7.7469104e-39
0.039285742 0.016428575 0.75000006 7.9280647e-39
0.040714305 0.016428597 0.75000006 8.0209694e-39
0.04214289 0.01642859 0.75000006 8.2082487e-39
-0.03642856 0.017857157 0.75000006 2.4903456e-39
-0.034766659 0.017738111 0.74500006 2.0304703e-39
-0.033437129 0.017785735 0.74700004 2.213442e-39
-0.03192855 0.017738119 0.74500006 2.3956893e-39
-0.030509522 0.017738119 0.74500006 2.7612502e-39
-0.029090468 0.017738111 0.74500006 3.1357977e-39
-0.027671413 0.017738111 0.74500006 5.2663403e-39
-0.026252359 0.017738104 0.74500006 7.2777627e-39
-0.024833333 0.017738119 0.74500006 5.2566755e-39
-0.022597153 0.017119072 0.71899998 3.135481e-39
-0.021227608 0.017119065 0.71899998 2.0291404e-39
-0.019858086 0.017119057 0.71900004 8.3062107e-40
-0.018488573 0.017119072 0.71899998 4.5969736e-40
-0.017119026 0.017119057 0.71900004 9.7003485e-41
-0.015771437 0.017142877 0.72000003 5.5257963e-40
-0.014400026 0.017142884 0.71999997 1.0160563e-39
-0.013119058 0.01726193 0.72499996 1.3848276e-39
-0.011738107 0.01726193 0.72500002 1.6596082e-39
-0.01039998 0.017333359 0.72800004 1.3823011e-39
-0.0090257172 0.017357148 0.72900003 1.108947e-39
-0.007637132 0.017357156 0.72899997 1.3858884e-39
-0.0062485766 0.017357171 0.72899997 1.5699195e-39
-0.0048599876 0.017357148 0.72900003 1.5702796e-39
-0.0034714302 0.017357148 0.72899997 1.477368e-39
-0.0020828431 0.017357156 0.72900003 2.1216514e-39
-0.0006942841 0.017357148 0.72900003 2.7655578e-39
0.0006933735 0.017333359 0.72800004 2.0254746e-39
0.0020800086 0.017333351 0.72800004 1.2904361e-39
0.0034666697 0.017333359 0.72800004 8.3162299e-40
0.0048533604 0.017333351 0.72800004 3.7135951e-40
0.0062485877 0.017357156 0.72900003 6.4649886e-40
0.0076371469 0.017357141 0.72900003 9.2128227e-40
0.0090133473 0.017333351 0.72800004 5.5249975e-40
0.010414291 0.017357148 0.72900003 9.9846719e-41
0.011802875 0.017357163 0.72900003 6.1818632e-39
0.013191432 0.017357163 0.72899997 1.2171987e-38
0.01461998 0.01740478 0.73099995 8.869506e-39
0.016012358 0.01740478 0.73099995 5.4338543e-39
0.017404765 0.01740478 0.73100001 2.7554867e-39
0.018822825 0.017428614 0.73199999 9.2268497e-41
0.020217121 0.017428607 0.73199999 2.1126606e-39
0.021670485 0.017476216 0.73400003 4.1607634e-39
0.023131428 0.017523833 0.73600006 1.0820014e-38
0.024533339 0.017523818 0.73600006 1.7329543e-38
0.025935249 0.017523825 0.73600006 1.1430878e-38
0.027374273 0.017547645 0.73699999 5.5365302e-39
0.028778074 0.01754766 0.73699999 7.9332074e-39
0.030304784 0.017619066 0.74000001 1.0330559e-38
0.031800017 0.017666683 0.74200004 9.5133088e-39
0.033258107 0.017690495 0.74299997 8.6720448e-39
0.034860011 0.017785735 0.74700004 7.831497e-39
0.036331426 0.017809533 0.74800003 6.9188986e-39
0.037756193 0.01780954 0.74800003 6.9210678e-39
0.039285716 0.017857172 0.75000006 6.917835e-39
0.040714305 0.017857149 0.75000006 7.1893926e-39
0.042142864 0.017857164 0.75000006 7.4695738e-39
0.043571454 0.017857164 0.75000006 7.1930009e-39
-0.036525719 0.01933717 0.75199997 2.2137405e-39
-0.035093337 0.01933717 0.75199997 1.3868959e-39
-0.033660956 0.01933717 0.75200003 1.7531939e-39
-0.032142852 0.019285724 0.75000006 2.2113064e-39
-0.030714264 0.019285724 0.75000006 2.2109575e-39
-0.029285705 0.019285724 0.75000006 2.305e-39
-0.026594283 0.018411443 0.71600008 4.1553951e-39
-0.025230484 0.018411443 0.71600002 6.0939934e-39
-0.023866652 0.01841145 0.71600002 4.3369305e-39
-0.022502877 0.018411435 0.71600002 2.5855638e-39
-0.021168584 0.018437177 0.71700001 1.7532696e-39
-0.019802855 0.018437169 0.71700001 8.3024972e-40
-0.018437127 0.018437162 0.71700001 5.5294817e-40
-0.01707143 0.018437162 0.71700001 1.8559918e-40
-0.015749527 0.018488586 0.71899998 7.3803868e-40
-0.01437998 0.018488601 0.71900004 1.2915586e-39
-0.013028571 0.018514313 0.72000003 1.4766603e-39
-0.011705704 0.018591434 0.72300005 1.6613991e-39
-0.010399992 0.018720016 0.72800004 1.3840905e-39
-0.0090256948 0.018745728 0.72900003 1.1989846e-39
-0.0076371375 0.01874572 0.72899997 1.1993419e-39
-0.0062485505 0.018745728 0.72900003 1.2911844e-39
-0.0048599914 0.01874572 0.72900003 1.1078778e-39
-0.0034809744 0.018797174 0.73099995 9.2313199e-40
-0.002082845 0.01874572 0.72900003 2.399676e-39
-0.00069428969 0.018745728 0.72900003 3.8780094e-39
0.00069333438 0.018720023 0.72800004 2.5804701e-39
0.0020800272 0.018720008 0.72800004 1.3819367e-39
0.0034666865 0.018720023 0.72800004 9.223907e-40
0.0048533492 0.018720016 0.72800004 5.5432284e-40
0.006248584 0.01874572 0.72900003 7.3762529e-40
0.0076371431 0.018745735 0.72900003 1.0124087e-39
0.0090133362 0.018720016 0.72800004 5.5214803e-40
0.010414314 0.018745735 0.72900003 9.2325951e-41
0.011802869 0.018745728 0.72900003 5.9049386e-39
0.013191428 0.018745735 0.72899997 1.1719266e-38
0.014580015 0.018745713 0.72900003 9.1349512e-39
0.016012387 0.018797152 0.73100001 6.6191146e-39
0.017404763 0.018797159 0.73099995 3.400161e-39
0.018822832 0.018822879 0.73199999 9.2286714e-41
0.02027238 0.01887431 0.73400003 3.6828352e-39
0.02172954 0.018925726 0.73600006 7.2907219e-39
0.023131425 0.018925734 0.73600006 1.1818397e-38
0.024533333 0.018925734 0.73600006 1.6230769e-38
0.025970465 0.018951446 0.73700005 9.4923019e-39
0.027374271 0.018951461 0.73699999 2.8474945e-39
0.028778078 0.018951453 0.73699999 4.3355095e-39
0.030304773 0.019028589 0.73999995 5.825251e-39
0.031842843 0.019105725 0.74299997 9.3185115e-39
0.033347618 0.019157171 0.74500006 1.2711365e-38
0.034906648 0.019234315 0.74800003 1.2898225e-38
0.036331415 0.019234307 0.74799997 1.2981451e-38
0.037756186 0.019234307 0.74799997 1.3079026e-38
0.039285742 0.019285731 0.75000006 1.3071852e-38
0.040714301 0.019285738 0.75000006 1.3354533e-38
0.04214289 0.019285731 0.75000006 1.3624299e-38
0.04357145 0.019285731 0.75000006 1.3077233e-38
-0.036525708 0.020769551 0.75200003 1.9368313e-39
-0.035093326 0.020769551 0.75200003 6.5152251e-40
-0.033660948 0.020769551 0.75200003 1.2929641e-39
-0.032142822 0.02071429 0.75000006 1.9336672e-39
-0.030714294 0.020714298 0.75000006 1.7492857e-39
-0.029285705 0.020714298 0.75000006 1.4777659e-39
-0.026594291 0.019775257 0.71600002 3.1390949e-39
-0.025230488 0.019775264 0.71600002 4.7928541e-39
-0.023866657 0.019775249 0.71600002 3.4110183e-39
-0.022502853 0.019775242 0.71600008 2.0320201e-39
-0.02113905 0.019775257 0.71600002 1.4755953e-39
-0.019775245 0.019775234 0.71600002 8.2986577e-40
-0.018411445 0.019775257 0.71600002 5.5291454e-40
-0.01704761 0.019775257 0.71600002 2.7812271e-40
-0.015705701 0.019802883 0.71700001 9.2204598e-40
-0.014379997 0.019858107 0.71900004 1.4748512e-39
-0.013010481 0.019858114 0.71899998 1.5688391e-39
-0.011689527 0.019940972 0.72200006 1.5699153e-39
-0.010399973 0.020106688 0.72800004 1.4770022e-39
-0.0090133119 0.020106681 0.72800004 1.2915348e-39
-0.0076371413 0.0201343 0.72899997 1.1053484e-39
-0.006248584 0.0201343 0.72899997 9.2274243e-40
-0.0048733503 0.020189539 0.73099995 6.4650586e-40
-0.0034809427 0.020189546 0.73100001 3.7498046e-40
-0.0020828506 0.0201343 0.72900003 2.6762839e-39
-0.00069426734 0.020134293 0.72900003 4.879963e-39
0.00069335487 0.020106681 0.72800004 3.2193767e-39
0.0020800161 0.020106673 0.72800004 1.4741324e-39
0.0034666772 0.020106688 0.72800004 1.1057044e-39
0.0048599914 0.020134293 0.72899997 6.4579821e-40
0.0062485784 0.0201343 0.72900003 9.2021729e-40
0.0076371357 0.0201343 0.72900003 1.1038897e-39
0.009025719 0.020134293 0.72899997 6.436374e-40
0.010414306 0.020134293 0.72900003 9.8064268e-41
0.011802865 0.0201343 0.72900003 5.625472e-39
0.013191424 0.0201343 0.72899997 1.1161082e-38
0.014580008 0.020134285 0.72900003 9.5148684e-39
0.016012389 0.020189539 0.73099995 7.8244583e-39
0.017404741 0.020189546 0.73099995 3.9493677e-39
0.018822839 0.020217158 0.73200005 9.2320345e-41
0.020217111 0.020217165 0.73199999 5.2351516e-39
0.021670487 0.020272404 0.73400003 1.041999e-38
0.023131421 0.020327643 0.73600006 1.2839719e-38
0.02453333 0.020327635 0.73600006 1.5115441e-38
0.02593524 0.020327643 0.736 7.6436838e-39
0.027374273 0.020355269 0.73700005 9.7746173e-41
0.028856194 0.0204105 0.73900002 7.3521086e-40
0.030304784 0.02043812 0.74000001 1.3113085e-39
0.031842869 0.02052097 0.74300003 9.0408876e-39
0.03343714 0.020631462 0.74699998 1.6772279e-38
0.034906637 0.020659067 0.74799997 1.7976176e-38
0.036331404 0.020659074 0.74799997 1.9071745e-38
0.037857182 0.02071429 0.75000006 1.9157841e-38
0.039390478 0.020769544 0.75200003 1.9254326e-38
0.040714301 0.020714313 0.75000006 1.9532689e-38
0.042255234 0.020769544 0.75199997 1.9806411e-38
-0.02651999 0.02108001 0.71400005 5.3406245e-39
-0.025160007 0.021080025 0.71399999 4.4143732e-39
-0.023799995 0.021080025 0.71399999 2.8571116e-39
-0.022439981 0.021080025 0.71400005 1.3902282e-39
-0.021139055 0.021139078 0.71600002 1.016401e-39
-0.019775251 0.021139063 0.71600002 7.3657152e-40
-0.018411418 0.021139063 0.71600002 4.6140414e-40
-0.017047616 0.02113907 0.71600002 1.8590046e-40
-0.015683809 0.021139055 0.71600002 7.3835117e-40
-0.014340002 0.02116859 0.71700001 1.2904445e-39
-0.013010476 0.021227643 0.71899998 1.5691824e-39
-0.011689508 0.021316215 0.72200006 1.847207e-39
-0.010414291 0.021522872 0.72899997 1.9372559e-39
-0.0090257041 0.021522872 0.72900003 2.0280096e-39
-0.0076580979 0.021581925 0.73099995 1.8432554e-39
-0.0062657241 0.021581925 0.73099995 1.7499555e-39
-0.0048733465 0.021581933 0.73099995 1.3836589e-39
-0.003480939 0.021581925 0.73099995 1.1114497e-39
-0.0020828319 0.021522865 0.72900003 2.4926381e-39
-0.00069427292 0.021522872 0.72900003 3.9598284e-39
0.00069428433 0.021522872 0.72899997 2.7623544e-39
0.0020828715 0.021522872 0.72900003 1.5663294e-39
0.0034714288 0.021522865 0.72900003 1.1971811e-39
0.0048599858 0.021522872 0.72900003 8.2910906e-40
0.0062486008 0.021522865 0.72900003 9.2093055e-40
0.0076371562 0.02152288 0.72900003 1.0127759e-39
0.0090257153 0.021522872 0.72899997 5.5217325e-40
0.010414302 0.021522857 0.72900003 9.2324549e-41
0.011835232 0.021581933 0.73099995 5.5354162e-39
0.01322761 0.021581925 0.73099995 1.1080011e-38
0.014619991 0.021581925 0.73100001 9.5062771e-39
0.016012367 0.021581918 0.73099995 7.9087632e-39
0.017404741 0.021581933 0.73099995 3.9518663e-39
0.018822849 0.021611452 0.73200005 9.2353977e-41
0.020272383 0.021670491 0.73400003 6.1740342e-39
0.021729531 0.021729536 0.73600006 1.2273965e-38
0.023131415 0.021729536 0.73600006 1.3197746e-38
0.024533326 0.021729551 0.736 1.4104145e-38
0.025935238 0.021729536 0.73600006 7.3659548e-39
0.027374273 0.021759063 0.73700005 7.3550653e-40
0.028856173 0.021818116 0.73900002 9.2420258e-40
0.030386684 0.021906704 0.74199998 1.1236788e-39
0.031928577 0.021995261 0.745 1.0246981e-38
0.033437155 0.0220543 0.74699998 1.9370642e-38
0.034906656 0.022083826 0.74800003 2.0287582e-38
0.036331426 0.022083819 0.74800003 2.1304588e-38
0.037857156 0.02214288 0.75000006 2.1296337e-38
0.039285716 0.02214288 0.75000006 2.1397116e-38
0.040822864 0.022201926 0.75199997 2.1482109e-38
0.042255245 0.022201926 0.75199997 2.1672614e-38
0.043687623 0.022201926 0.75200003 2.1205561e-38
-0.027840959 0.022408597 0.71300006 1.1052358e-38
-0.026520001 0.022440009 0.71400005 7.5615831e-39
-0.025160018 0.022440024 0.71399999 4.0631714e-39
-0.023800006 0.022440024 0.71399999 2.3964474e-39
-0.022439994 0.022440016 0.71400005 6.4940795e-40
-0.021080012 0.022440031 0.71399999 6.4688421e-40
-0.019719997 0.022440016 0.71399999 6.4578559e-40
-0.018359987 0.022440016 0.71400005 3.6989795e-40
-0.017000005 0.022440031 0.71399999 9.5125745e-41
-0.015639992 0.022440024 0.71399999 6.4723173e-40
-0.014319982 0.022502869 0.71600002 1.1082071e-39
-0.012956208 0.022502862 0.71600002 1.6620955e-39
-0.011802854 0.022911444 0.72899997 2.122352e-39
-0.010414295 0.022911437 0.72899997 2.3971452e-39
-0.0090504717 0.022974305 0.73099995 2.6733636e-39
-0.007658096 0.022974305 0.73099995 2.5811651e-39
-0.0062657204 0.022974312 0.73099995 2.4867989e-39
-0.0048733391 0.022974305 0.73100001 2.1180024e-39
-0.003480965 0.022974305 0.73099995 1.7546513e-39
-0.0020828357 0.022911429 0.72900003 2.4068716e-39
-0.00069427665 0.022911437 0.72900003 3.0443279e-39
0.00069427874 0.022911437 0.72899997 2.3035343e-39
0.0020828678 0.022911437 0.72900003 1.5659707e-39
0.0034714232 0.022911437 0.72900003 1.2879432e-39
0.0048600081 0.022911444 0.72899997 1.0131514e-39
0.0062485933 0.022911429 0.72900003 1.0131486e-39
0.0076371524 0.022911444 0.72900003 9.2095157e-40
0.0090257097 0.022911437 0.72899997 5.5145439e-40
0.010414299 0.022911437 0.72900003 9.6267803e-41
0.011835236 0.022974312 0.73099995 5.5268038e-39
0.013227617 0.022974305 0.73100001 1.0885935e-38
0.014619993 0.022974297 0.73099995 9.4287937e-39
0.016012367 0.022974305 0.73099995 7.9173742e-39
0.017404743 0.022974312 0.73099995 4.0411906e-39
0.018822826 0.023005754 0.73199999 9.8095096e-41
0.0202724 0.023068592 0.73400003 7.0945443e-39
0.021729531 0.023131438 0.73600006 1.4015608e-38
0.023131413 0.023131445 0.736 1.357333e-38
0.024566656 0.023162887 0.73699999 1.3080304e-38
0.025970463 0.023162887 0.73699999 7.1636031e-39
0.027448559 0.02322574 0.73900002 1.2865041e-39
0.028856184 0.02322574 0.73900002 1.1024898e-39
0.030386679 0.023320027 0.74200004 8.5357854e-40
0.031928584 0.023414299 0.74500006 1.1452019e-38
0.033481907 0.023508586 0.74799997 2.1939937e-38
0.034906652 0.023508586 0.74799997 2.2682887e-38
0.036428597 0.023571447 0.75000006 2.341686e-38
0.037958089 0.023634315 0.75199997 2.3417585e-38
0.039442841 0.023665734 0.75299996 2.341686e-38
0.040877119 0.023665741 0.75299996 2.3417571e-38
0.042311419 0.023665734 0.75299996 2.3417221e-38
0.0437457 0.023665734 0.75300002 2.3417588e-38
-0.027840976 0.023766689 0.71300006 1.7264549e-38
-0.02648286 0.023766696 0.71300006 1.2921449e-38
-0.025124764 0.023766689 0.71300006 8.6761086e-39
-0.02376668 0.023766704 0.71300006 4.5132755e-39
-0.022408588 0.023766696 0.71300006 3.6848264e-40
-0.021050474 0.023766682 0.71300006 5.5430743e-40
-0.019692386 0.023766704 0.713 7.3831193e-40
-0.018334296 0.023766696 0.71300006 4.6242009e-40
-0.01697618 0.023766696 0.71300006 1.8766189e-40
-0.015618119 0.023766682 0.71300006 4.6391667e-40
-0.014260003 0.023766689 0.71300006 8.3270059e-40
-0.012901912 0.023766682 0.71300006 1.2936773e-39
-0.011835253 0.024366684 0.73099995 1.8475602e-39
-0.010442846 0.024366677 0.73099995 2.3985732e-39
-0.0090504698 0.024366684 0.73099995 2.9517357e-39
-0.0076581202 0.024366684 0.73099995 3.1357626e-39
-0.0062657129 0.024366677 0.73100001 3.3147603e-39
-0.0048733391 0.024366692 0.73099995 2.7605089e-39
-0.0034809613 0.024366684 0.73099995 2.1162479e-39
-0.0020828394 0.024300009 0.72900003 2.4925793e-39
-0.0006942841 0.024300002 0.72900003 2.8638701e-39
0.00069427502 0.024300016 0.72900003 2.122373e-39
0.0020828603 0.024300009 0.72900003 1.473059e-39
0.0034714455 0.024300016 0.72900003 1.1975441e-39
0.0048600007 0.024300016 0.72899997 1.0145989e-39
0.0062657036 0.024366677 0.73099995 8.3093496e-40
0.0076581109 0.024366692 0.73100001 5.5541305e-40
0.0090257041 0.024300016 0.72899997 3.6921552e-40
0.010442836 0.024366692 0.73099995 9.2318944e-41
0.011835244 0.024366677 0.73100001 5.3485096e-39
0.013227619 0.024366677 0.73099995 1.0528638e-38
0.014619997 0.024366677 0.73099995 9.2311335e-39
0.01603429 0.024400018 0.73200005 7.9026675e-39
0.017428564 0.024400033 0.73199999 4.0426256e-39
0.018874293 0.024466679 0.73400003 9.3074244e-41
0.020327613 0.024533361 0.73600006 7.5677152e-39
0.021729523 0.024533354 0.736 1.4947233e-38
0.023131406 0.024533346 0.736 1.2918275e-38
0.024566663 0.024566688 0.73700005 1.0775789e-38
0.025970466 0.024566703 0.73700005 5.7939347e-39
0.027448567 0.024633355 0.73900002 7.365519e-40
0.028895246 0.024666697 0.73999995 6.4940655e-40
0.030427629 0.024766676 0.74300003 5.7235896e-40
0.031928591 0.024833344 0.74500006 1.1172264e-38
0.033481903 0.024933353 0.74800003 2.1764568e-38
0.035000004 0.025000028 0.75000006 2.2590024e-38
0.036525715 0.025066681 0.75199997 2.3323646e-38
0.037958097 0.025066681 0.75200003 2.3139989e-38
0.039442856 0.025100015 0.75300002 2.3047447e-38
0.04087713 0.025100015 0.75300002 2.3047817e-38
-0.027840963 0.025124788 0.71300006 2.3417576e-38
-0.026482848 0.025124788 0.71300006 1.8366634e-38
-0.025124786 0.025124781 0.71300006 1.3166343e-38
-0.023700003 0.025054306 0.71100003 6.6125523e-39
-0.022345701 0.025054306 0.71100003 9.4036936e-41
-0.02105049 0.025124788 0.71300006 4.6354253e-40
-0.019637136 0.025054306 0.71100003 8.3014743e-40
-0.018282864 0.025054291 0.71100003 5.5318779e-40
-0.016928567 0.025054298 0.71100008 2.7914146e-40
-0.015574299 0.025054298 0.71100003 3.7171964e-40
-0.014220001 0.025054306 0.71100003 4.6463974e-40
-0.012865704 0.025054306 0.71100003 1.0163772e-39
-0.011851434 0.025794312 0.73199999 1.5702656e-39
-0.010457162 0.025794305 0.73199999 2.3982256e-39
-0.00906289 0.02579432 0.73199999 3.2297786e-39
-0.0076685883 0.025794305 0.73200005 3.6957846e-39
-0.0062743165 0.02579432 0.73200005 4.1477706e-39
-0.0048800167 0.02579432 0.73199999 3.3097549e-39
-0.0034857446 0.025794327 0.73199999 2.4907814e-39
-0.0020828468 0.025688574 0.72900003 2.5837071e-39
-0.00069428782 0.025688581 0.72900003 2.6769775e-39
0.00069429551 0.025688581 0.72899997 2.0326927e-39
0.0020828827 0.025688589 0.72900003 1.2922578e-39
0.0034714399 0.025688581 0.72900003 1.1975413e-39
0.0048733298 0.025759071 0.73099995 1.0145821e-39
0.0062656812 0.025759064 0.73099995 6.4831214e-40
0.0076580886 0.025759064 0.73099995 1.8805285e-40
0.0090504624 0.025759064 0.73099995 1.8625359e-40
0.01044284 0.025759071 0.73099995 9.589786e-41
0.011835245 0.025759064 0.73099995 5.1547885e-39
0.013245696 0.02579432 0.73200005 1.0148383e-38
0.014639968 0.025794312 0.73199999 9.0643313e-39
0.016012376 0.025759064 0.73100001 7.9209685e-39
0.01747619 0.025864787 0.73400003 4.0411934e-39
0.018874312 0.025864772 0.73400003 1.0599141e-40
0.020327613 0.025935262 0.736 8.0441146e-39
0.021729523 0.025935262 0.736 1.5864122e-38
0.023162827 0.025970504 0.73699999 1.2192855e-38
0.024566663 0.025970504 0.73700005 8.4744968e-39
0.026040951 0.026040979 0.73900002 4.3166929e-39
0.027448578 0.026040971 0.73900002 1.8841579e-40
0.028895263 0.026076213 0.74000001 2.7847444e-40
0.030427625 0.026181929 0.74299997 3.026034e-40
0.032014295 0.026322886 0.74699998 1.0991131e-38
0.033481892 0.026358105 0.74800003 2.1573022e-38
0.03500003 0.026428595 0.75000006 2.2404568e-38
0.036525726 0.026499063 0.75200003 2.3231089e-38
0.037958104 0.026499055 0.75200003 2.2954509e-38
0.039442845 0.026534297 0.75300002 2.2586798e-38
0.040877145 0.026534297 0.75300002 2.2768307e-38
-0.029199043 0.02648288 0.71300006 1.3936024e-38
-0.027762866 0.026408583 0.71100003 2.3417627e-38
-0.026408566 0.026408583 0.71100003 1.622714e-38
-0.02505427 0.026408575 0.71100003 8.908528e-39
-0.023666671 0.026371449 0.71000004 4.5928636e-39
-0.022345705 0.026408598 0.71100003 2.7805125e-40
-0.020991428 0.026408575 0.71100003 7.3904201e-40
-0.01963716 0.026408583 0.71100003 1.198567e-39
-0.018282862 0.026408583 0.71100003 9.2233045e-40
-0.016904742 0.026371449 0.71000004 5.5500948e-40
-0.015552364 0.026371442 0.71000004 6.4650586e-40
-0.014199993 0.026371457 0.71000004 6.4723314e-40
-0.012847591 0.026371464 0.71000004 1.1082127e-39
-0.011851427 0.027188599 0.73200005 1.5699125e-39
-0.010457154 0.027188599 0.73199999 2.1241653e-39
-0.0090876166 0.027262881 0.73400003 2.5873154e-39
-0.0076686107 0.027188607 0.73199999 4.1557188e-39
-0.0062743071 0.027188599 0.73200005 5.720127e-39
-0.0048800092 0.027188599 0.73199999 5.717592e-39
-0.0034857371 0.027188599 0.73199999 5.8097918e-39
-0.0020885782 0.027151451 0.73099995 4.1495839e-39
-0.00069426734 0.027077153 0.72900003 2.4929534e-39
0.00069428992 0.027077168 0.72899997 1.9390664e-39
0.0020828771 0.027077153 0.72900003 1.4759288e-39
0.0034714343 0.027077161 0.72900003 1.1986147e-39
0.0048599914 0.027077161 0.72899997 1.0145667e-39
0.0062657148 0.027151451 0.73100001 7.3940074e-40
0.0076580886 0.027151443 0.73099995 3.7242169e-40
0.0090504661 0.027151443 0.73099995 2.7807927e-40
0.010442873 0.027151451 0.73100001 9.230353e-41
0.0118514 0.027188607 0.73199999 4.8828637e-39
0.013245704 0.027188592 0.73200005 9.6924354e-39
0.014639976 0.027188607 0.73200005 8.958155e-39
0.01607809 0.027262881 0.73400003 8.1957631e-39
0.017476182 0.027262881 0.73400003 4.1387714e-39
0.018925698 0.027337156 0.73600006 9.2721117e-41
0.020327607 0.027337171 0.736 8.6837373e-39
0.021729518 0.027337156 0.73600006 1.7159834e-38
0.023162829 0.027374312 0.73699999 1.2172703e-38
0.024566637 0.027374312 0.73699999 7.2555017e-39
0.026040958 0.027448595 0.73900002 3.8607608e-39
0.027485726 0.027485736 0.73999995 4.7218153e-40
0.029090492 0.027671441 0.74500006 2.6773152e-39
0.030509546 0.027671449 0.74500006 4.8890098e-39
0.032057114 0.027782872 0.74799997 1.3468562e-38
0.033571418 0.02785717 0.75000006 2.1948273e-38
0.035000008 0.027857162 0.75000006 2.2681516e-38
0.036525734 0.027931452 0.75200003 2.332292e-38
0.037958082 0.027931459 0.75199997 2.3139239e-38
0.039442826 0.027968593 0.75299996 2.304594e-38
0.04087713 0.027968585 0.75299996 2.3044832e-38
-0.029117132 0.027762875 0.71100003 1.6070839e-38
-0.027762866 0.027762875 0.71099997 2.3412963e-38
-0.026408566 0.027762875 0.71100003 1.4123536e-38
-0.025019046 0.027723826 0.71000004 4.7020304e-39
-0.023666644 0.027723826 0.71000004 2.5717596e-39
-0.022314267 0.027723834 0.71000004 4.6207116e-40
-0.020961897 0.027723834 0.71000004 1.0152533e-39
-0.019609522 0.027723834 0.71000004 1.5662635e-39
-0.018257121 0.027723826 0.71000004 1.1982013e-39
-0.016857136 0.027645737 0.708 8.2943697e-40
-0.015508583 0.027645737 0.70799994 8.2837338e-40
-0.014160026 0.027645737 0.70799994 8.2981952e-40
-0.012847593 0.027723826 0.71000004 1.1986062e-39
-0.011883812 0.02866099 0.73400003 1.5709873e-39
-0.010485722 0.028660983 0.73399997 1.7575436e-39
-0.0090876007 0.028660975 0.73400003 1.9458921e-39
-0.0076686013 0.028582886 0.73199999 4.6191814e-39
-0.0062743295 0.028582893 0.73199999 7.1934367e-39
-0.0048800018 0.028582878 0.73199999 8.2147395e-39
-0.0034857278 0.028582886 0.73199999 9.1216122e-39
-0.0020885745 0.02854383 0.73099995 5.7118593e-39
-0.00069620076 0.028543837 0.73099995 2.2174441e-39
0.00069620658 0.02854383 0.73099995 1.9379888e-39
0.0020885582 0.02854383 0.73099995 1.5677643e-39
0.0034714288 0.028465725 0.72900003 1.2900942e-39
0.0048733391 0.028543815 0.73100001 1.0145765e-39
0.0062657148 0.02854383 0.73099995 8.3017685e-40
0.0076580904 0.02854383 0.73099995 5.5467037e-40
0.009050468 0.028543837 0.73099995 3.6920431e-40
0.010457138 0.028582886 0.73199999 9.2666466e-41
0.011851411 0.028582878 0.73199999 4.684126e-39
0.013281923 0.028660968 0.73400003 9.2239322e-39
0.014680009 0.028660983 0.73400003 8.879238e-39
0.016078101 0.028660975 0.73400003 8.3848137e-39
0.017476194 0.02866099 0.73400003 4.2248616e-39
0.018925693 0.028739065 0.736 1.1030321e-40
0.020327633 0.028739072 0.73600006 9.3466888e-39
0.021729544 0.028739065 0.73600006 1.8437283e-38
0.023162829 0.028778128 0.73700005 1.2266685e-38
0.024566635 0.028778113 0.73699999 5.9827149e-39
0.026040969 0.028856218 0.73900002 3.398352e-39
0.027485738 0.028895259 0.74000001 7.4520912e-40
0.029090496 0.029090501 0.74500006 5.1616058e-39
0.030509526 0.029090494 0.74500006 9.4991164e-39
0.032014303 0.029168591 0.74700004 1.5953867e-38
0.033481903 0.029207639 0.74800003 2.230917e-38
0.035000008 0.029285729 0.75000006 2.2866641e-38
0.036525715 0.029363841 0.75199997 2.3415494e-38
0.037958097 0.029363833 0.75199997 2.341764e-38
0.0395476 0.029480979 0.755 2.3414033e-38
-0.030471429 0.029117152 0.71100003 4.4621687e-39
-0.029117158 0.029117152 0.71100003 1.1555113e-38
-0.027762858 0.029117152 0.71100003 1.8642181e-38
-0.026371421 0.029076211 0.71000004 1.0515767e-38
-0.02501902 0.029076211 0.71000004 2.3882049e-39
-0.023600006 0.028994322 0.70799994 1.929623e-39
-0.02225145 0.028994322 0.70799994 1.4729693e-39
-0.020902866 0.028994307 0.708 1.933953e-39
-0.019554283 0.028994307 0.708 2.3931375e-39
-0.01820573 0.028994314 0.70799994 1.6563068e-39
-0.016857147 0.028994307 0.70799994 8.276405e-40
-0.016187618 0.030263826 0.73900002 8.2836357e-40
-0.014779991 0.030263819 0.73900002 8.2909365e-40
-0.013336218 0.030181937 0.73700005 1.3840639e-39
-0.011883824 0.030059077 0.73400003 1.9408376e-39
-0.010485732 0.030059077 0.73400003 2.0330529e-39
-0.009087611 0.030059062 0.73400003 2.2167267e-39
-0.0076685958 0.029977173 0.73199999 3.9680611e-39
-0.006274322 0.029977165 0.73199999 5.7201185e-39
-0.0048799943 0.029977173 0.73200005 7.0137146e-39
-0.0034857222 0.029977173 0.73199999 8.2086425e-39
-0.0020885726 0.029936209 0.73099995 5.715441e-39
-0.00069619331 0.029936209 0.73100001 3.3183911e-39
0.00069618423 0.029936202 0.73099995 2.5811946e-39
0.0020885582 0.029936224 0.73099995 1.842196e-39
0.0034809357 0.029936217 0.73099995 1.4744841e-39
0.0048733428 0.029936194 0.73099995 1.1071393e-39
0.0062657166 0.029936217 0.73099995 8.3091113e-40
0.0076685436 0.029977173 0.73199999 6.4723454e-40
0.0090628173 0.029977173 0.73199999 3.6957005e-40
0.010457145 0.02997718 0.73200005 9.2310536e-41
0.011851417 0.02997718 0.73199999 4.6959642e-39
0.01328191 0.030059077 0.73400009 9.3233025e-39
0.014680002 0.030059069 0.73400003 9.1425504e-39
0.016078094 0.030059062 0.73400003 9.0247909e-39
0.017523805 0.030140981 0.736 4.5068183e-39
0.018925719 0.030140959 0.73600006 9.3088257e-41
0.02032763 0.030140974 0.73600006 9.4245477e-39
0.021729512 0.030140974 0.73600006 1.8812522e-38
0.023162859 0.030181922 0.73700005 1.1341148e-38
0.024566663 0.030181944 0.73699999 3.9494154e-39
0.026040955 0.030263834 0.73900002 2.7576531e-39
0.027559998 0.030386701 0.74199998 1.4784904e-39
0.029090507 0.030509546 0.74500006 5.1710001e-39
0.030509559 0.030509531 0.74500006 8.7773847e-39
0.032014318 0.030591443 0.74700004 1.4668534e-38
0.033481892 0.030632399 0.74800003 2.0570406e-38
0.035000004 0.030714311 0.75000006 2.0750854e-38
0.036525723 0.030796207 0.75200003 2.1024205e-38
0.037958104 0.0307962 0.75200003 2.0838019e-38
0.039547622 0.030919068 0.75500005 2.0746173e-38
0.040985689 0.030919082 0.755 2.065325e-38
-0.030471424 0.030471437 0.71100003 2.1690699e-40
-0.029117156 0.030471444 0.71100003 7.0454638e-39
-0.027762858 0.030471444 0.71100003 1.3728584e-38
-0.026371395 0.030428603 0.71000004 6.9093753e-39
-0.024948573 0.030342877 0.70799994 9.7670503e-41
-0.023599988 0.030342877 0.70799994 1.2860571e-39
-0.022251461 0.030342892 0.70799994 2.3916858e-39
-0.020902878 0.030342884 0.70799994 2.8541059e-39
-0.019554295 0.030342884 0.70799994 3.2189451e-39
-0.018205712 0.030342884 0.70799994 2.022581e-39
-0.016833317 0.030300021 0.70700002 8.2799083e-40
-0.016187606 0.031671442 0.73900002 8.2762229e-40
-0.014779982 0.031671457 0.73900002 8.297943e-40
-0.013336217 0.031585738 0.73700005 1.5673691e-39
-0.011916211 0.031542882 0.73600006 2.2145392e-39
-0.010514271 0.031542875 0.73600006 2.3092614e-39
-0.009087598 0.031457171 0.73400003 2.4000263e-39
-0.0076685864 0.031371452 0.73200005 3.3162345e-39
-0.0062743127 0.031371459 0.73199999 4.2442962e-39
-0.0048933513 0.031457171 0.73400003 5.8195126e-39
-0.0034857129 0.031371459 0.73200005 7.2849219e-39
-0.0020885968 0.031328589 0.73099995 5.8062129e-39
-0.00069618959 0.031328589 0.73099995 4.3307423e-39
0.00069618423 0.031328589 0.73099995 3.2254836e-39
0.0020885619 0.031328596 0.73099995 2.1198591e-39
0.0034809692 0.031328589 0.73099995 1.6581593e-39
0.0048733167 0.031328596 0.73099995 1.1989804e-39
0.0062742773 0.031371459 0.73200005 9.2311377e-40
0.0076685511 0.031371459 0.73200005 6.4652968e-40
0.0090628248 0.031371452 0.73199999 3.688708e-40
0.010457121 0.031371467 0.73199999 9.2667867e-41
0.011851424 0.031371452 0.73200005 4.7759419e-39
0.013281928 0.031457171 0.73400003 9.4072375e-39
0.014680017 0.031457156 0.73400003 9.5256808e-39
0.016078107 0.031457178 0.73400003 9.5811877e-39
0.017523834 0.031542875 0.73600006 4.8677073e-39
0.018925719 0.031542867 0.73600006 1.1210388e-40
0.020327624 0.031542882 0.73600006 9.6286707e-39
0.021729508 0.031542875 0.73600006 1.9080852e-38
0.023162829 0.031585753 0.73699999 1.0519284e-38
0.024566663 0.031585738 0.73700005 1.9415817e-39
0.02604096 0.03167145 0.73900002 2.1126452e-39
0.027485736 0.031714298 0.73999995 2.2192644e-39
0.029090486 0.031928591 0.74500006 5.1738602e-39
0.030591426 0.032014318 0.74699998 8.0337226e-39
0.032014273 0.03201431 0.74699998 1.3372786e-38
0.033481888 0.032057159 0.74799997 1.8720418e-38
0.035000008 0.03214287 0.75000006 1.8726167e-38
0.036428597 0.032142878 0.75000006 1.8628233e-38
0.038109493 0.032357171 0.755 1.8347702e-38
0.039547618 0.032357179 0.755 1.7982143e-38
0.040985711 0.032357171 0.755 1.779308e-38
-0.030342886 0.031691462 0.70799994 6.5166825e-40
-0.028994301 0.031691462 0.70799994 3.7849198e-39
-0.027723799 0.031780966 0.71000004 6.8882353e-39
-0.026297135 0.031691447 0.708 3.7722058e-39
-0.024948584 0.031691462 0.70799994 6.4327587e-40
-0.023566656 0.031646684 0.70700002 1.1045385e-39
-0.022219969 0.031646691 0.70700002 1.6580794e-39
-0.020873338 0.031646691 0.70699996 1.9339614e-39
-0.019526677 0.031646699 0.70700002 2.299521e-39
-0.01817999 0.031646676 0.70700002 1.4715764e-39
-0.017595222 0.033079065 0.73900002 6.439541e-40
-0.016187599 0.03307908 0.73900002 7.361203e-40
-0.014780001 0.033079073 0.73900002 7.3722592e-40
-0.013336188 0.032989539 0.73700005 1.7510331e-39
-0.011916185 0.032944761 0.73600006 2.8563003e-39
-0.010514274 0.032944784 0.73600006 2.4907632e-39
-0.0091123907 0.032944776 0.73600006 2.2163413e-39
-0.0076685771 0.032765739 0.73200005 2.3975096e-39
-0.0062914267 0.032855257 0.73400003 2.6726938e-39
-0.0048933346 0.032855265 0.73399997 4.0603071e-39
-0.0034857334 0.032765746 0.73199999 5.5400629e-39
-0.0020885633 0.032720961 0.73100001 4.7938827e-39
-0.00069716002 0.032765746 0.73199999 4.0538093e-39
0.00069618796 0.032720968 0.73099995 3.2247703e-39
0.0020885693 0.032720968 0.73100001 2.3957285e-39
0.0034809432 0.032720968 0.73099995 1.9347462e-39
0.0048733205 0.032720961 0.73099995 1.3830157e-39
0.0062742569 0.032765746 0.73199999 9.2240331e-40
0.0076685604 0.032765746 0.73200005 4.628713e-40
0.0090628322 0.032765746 0.73199999 2.7776959e-40
0.010457104 0.032765746 0.73199999 9.2309135e-41
0.011851432 0.032765739 0.73200005 4.5118952e-39
0.013281884 0.032855272 0.73400003 8.8605223e-39
0.01471998 0.032944776 0.736 9.6024524e-39
0.016078096 0.032855272 0.73400003 1.0314082e-38
0.017523799 0.032944776 0.73600006 5.2422267e-39
0.01892571 0.032944776 0.73600006 9.3095263e-41
0.02032762 0.032944784 0.73600006 9.5181853e-39
0.021729505 0.032944791 0.736 1.8996188e-38
0.023162832 0.032989554 0.73699999 1.0421342e-38
0.024566634 0.032989562 0.73699999 1.8371836e-39
0.026040966 0.033079073 0.73900002 2.5771967e-39
0.027485726 0.033123821 0.74000001 3.4174222e-39
0.029090488 0.033347629 0.74500006 5.9992936e-39
0.030591445 0.03343717 0.74699998 8.6675943e-39
0.032014292 0.033437163 0.74699998 1.3651871e-38
0.033481907 0.033481918 0.74800003 1.8630731e-38
0.035000037 0.033571437 0.75000006 1.8076501e-38
0.036428571 0.033571452 0.75000006 1.751724e-38
0.038109519 0.033795267 0.755 1.7335364e-38
0.039547615 0.03379526 0.75500005 1.7246028e-38
0.040985733 0.033795252 0.755 1.6967281e-38
0.042480025 0.033840023 0.75600004 1.6691061e-38
-0.031691447 0.033040039 0.70799994 8.3742857e-40
-0.030342868 0.033040032 0.708 1.1097471e-39
-0.028994283 0.033040017 0.708 6.4594815e-40
-0.027645731 0.033040024 0.70799994 9.6678384e-41
-0.026297146 0.033040024 0.70799994 6.4764232e-40
-0.024913331 0.032993346 0.70700002 1.1064078e-39
-0.023566643 0.032993339 0.70700002 1.0141603e-39
-0.022219982 0.032993346 0.70700002 9.2449265e-40
-0.020814287 0.032900006 0.70500004 1.1071029e-39
-0.019471418 0.032900013 0.70500004 1.2896977e-39
-0.018128548 0.032900006 0.70500004 9.2056341e-40
-0.016785679 0.032900006 0.70500004 4.6101318e-40
-0.016187618 0.034486696 0.73900002 5.5140114e-40
-0.014779991 0.034486689 0.73900002 6.4576878e-40
-0.013336218 0.03439337 0.73699999 2.026911e-39
-0.011932411 0.034393363 0.73699999 3.4069629e-39
-0.010514278 0.034346685 0.73600006 2.6730048e-39
-0.0091123953 0.034346685 0.73600006 1.9383251e-39
-0.0077104848 0.034346677 0.736 1.5688349e-39
-0.006291436 0.034253359 0.73400003 1.1093155e-39
-0.0048933458 0.034253351 0.73400003 2.3928769e-39
-0.0034952255 0.034253351 0.73400003 3.6861086e-39
-0.0020914262 0.034160018 0.73200005 3.7757945e-39
-0.00069715257 0.034160033 0.73200005 3.7765078e-39
0.00069711742 0.034160025 0.73199999 3.2236969e-39
0.0020913912 0.034160025 0.73199999 2.6708805e-39
0.0034809469 0.034113348 0.73099995 2.1180654e-39
0.0048799906 0.034160025 0.73199999 1.5648959e-39
0.0062742643 0.034160033 0.73199999 9.2024952e-40
0.007668538 0.034160033 0.73199999 1.8627741e-40
0.0090628378 0.034160033 0.73200005 1.8698927e-40
0.010457112 0.034160025 0.73199999 9.372865e-41
0.01188381 0.034253359 0.73400003 4.2266959e-39
0.013318092 0.034346692 0.736 8.3026878e-39
0.014720006 0.034346677 0.73600006 9.7089931e-39
0.016121915 0.034346692 0.73600006 1.105129e-38
0.017523825 0.034346692 0.73600006 5.6024221e-39
0.01892571 0.034346677 0.73600006 1.1319689e-40
0.02032762 0.0343467 0.736 9.5375526e-39
0.021759028 0.034393355 0.73700005 1.880535e-38
0.023162834 0.034393355 0.73699999 1.0332754e-38
0.024633354 0.034486689 0.73900002 1.7575576e-39
0.026040951 0.034486689 0.73900002 3.1249881e-39
0.027560009 0.034626678 0.74200004 4.5187293e-39
0.029168585 0.034860022 0.74700004 6.921945e-39
0.030591432 0.034860022 0.74700004 9.2297266e-39
0.032057129 0.034906685 0.74800003 1.3844159e-38
0.033481896 0.034906685 0.74800003 1.844383e-38
0.035000008 0.035000026 0.75000006 1.743221e-38
0.036428593 0.035000019 0.75000006 1.6325162e-38
0.038109511 0.035233371 0.755 1.6414129e-38
0.039547604 0.035233371 0.755 1.641555e-38
0.041040033 0.035280019 0.75600004 1.6046761e-38
0.042592369 0.035373367 0.75800002 1.5676191e-38
-0.031691432 0.034388587 0.708 1.1108023e-39
-0.030342879 0.034388602 0.70799994 1.3855913e-39
-0.028994294 0.034388594 0.70799994 1.5699784e-39
-0.027606664 0.034340009 0.70699996 1.7561409e-39
-0.026260005 0.034340009 0.70700002 1.5699377e-39
-0.024913317 0.034340009 0.70700002 1.38551e-39
-0.023566656 0.034340002 0.70700002 1.2925577e-39
-0.022219999 0.034340009 0.70699996 1.2039648e-39
-0.020814281 0.034242861 0.70500004 1.2003915e-39
-0.019471413 0.034242868 0.70500004 1.1982307e-39
-0.018102877 0.03419432 0.704 9.216382e-40
-0.017619034 0.035942875 0.74000001 6.4613312e-40
-0.016253321 0.036040023 0.74199998 5.5286409e-40
-0.014799993 0.035942882 0.74000001 4.6176007e-40
-0.013372385 0.035894305 0.73900002 1.4759092e-39
-0.011932409 0.035797171 0.73699999 2.4904101e-39
-0.010528604 0.035797179 0.73699999 2.030878e-39
-0.009124768 0.035797164 0.73700005 1.6617424e-39
-0.0077104885 0.035748586 0.736 1.2018475e-39
-0.0063171573 0.035797179 0.73699999 7.408735e-40
-0.0049066655 0.035748586 0.73600006 1.9347322e-39
-0.0035047547 0.035748594 0.73600006 3.1275384e-39
-0.0020971445 0.035651445 0.73400003 3.7757875e-39
-0.0006990562 0.035651445 0.73400003 4.3282354e-39
0.00069903594 0.035651453 0.73400003 3.4999223e-39
0.002097158 0.035651445 0.73400003 2.7620041e-39
0.0034856724 0.035554312 0.73199999 2.117355e-39
0.0048799999 0.03555432 0.73199999 1.4712695e-39
0.0062742736 0.03555432 0.73199999 1.0120836e-39
0.0076685436 0.03555432 0.73199999 5.5253198e-40
0.0090628471 0.035554312 0.73200005 3.6956304e-40
0.010485707 0.035651453 0.73400003 9.3355905e-41
0.011883797 0.035651453 0.73400003 3.8675964e-39
0.013318088 0.035748601 0.736 7.7513105e-39
0.01472 0.035748594 0.73600006 9.6006531e-39
0.016121911 0.035748594 0.73600006 1.1507969e-38
0.017523795 0.035748601 0.73600006 5.7940132e-39
0.018925702 0.035748594 0.736 9.6347677e-41
0.020327611 0.035748601 0.736 9.3345059e-39
0.021729529 0.035748594 0.73600006 1.8538461e-38
0.023162832 0.035797171 0.73700005 1.0512856e-38
0.024566641 0.035797164 0.73700005 2.4800573e-39
0.026076201 0.035942867 0.74000001 3.3115359e-39
0.027597109 0.036088601 0.74299997 4.2428641e-39
0.029090503 0.036185734 0.74500006 7.3814714e-39
0.030591445 0.036282882 0.74700004 1.0515063e-38
0.032014266 0.03628289 0.74699998 1.4300472e-38
0.033481888 0.036331445 0.74799997 1.8173705e-38
0.034906656 0.036331445 0.74799997 1.7432202e-38
0.036428597 0.036428586 0.75000006 1.6692137e-38
0.037857153 0.036428593 0.75000006 1.6967283e-38
0.039547626 0.036671445 0.755 1.7240982e-38
0.041040026 0.03672003 0.75600004 1.6689238e-38
0.042704735 0.036914304 0.75999999 1.6221449e-38
-0.031646654 0.035686679 0.70700002 1.3852228e-39
-0.030299971 0.035686679 0.70700002 1.6621656e-39
-0.028953338 0.035686687 0.70699996 2.4915577e-39
-0.027606653 0.035686679 0.70699996 3.3166198e-39
-0.02625999 0.035686679 0.70700002 2.4897192e-39
-0.024913305 0.035686687 0.70700002 1.5680964e-39
-0.023566674 0.035686694 0.70699996 1.5662649e-39
-0.022157118 0.035585731 0.70500004 1.4758784e-39
-0.020784765 0.035535254 0.704 1.2918641e-39
-0.019443819 0.035535261 0.70400006 1.0141954e-39
-0.018102877 0.035535261 0.704 9.2091513e-40
-0.016761931 0.035535261 0.704 8.2908244e-40
-0.016253324 0.037453361 0.74200004 5.5250256e-40
-0.01479998 0.037352398 0.74000001 2.7844922e-40
-0.013372376 0.037301928 0.73900002 9.2490323e-40
-0.011932409 0.03720098 0.73699999 1.5706202e-39
-0.010528603 0.03720098 0.73699999 1.4816531e-39
-0.0091247968 0.03720098 0.73699999 1.295471e-39
-0.0077209603 0.03720098 0.73700005 8.3557606e-40
-0.0063171554 0.037200972 0.73700005 3.7496505e-40
-0.0049133487 0.03720098 0.73700005 1.4769924e-39
-0.0035047603 0.03715051 0.736 2.5808358e-39
-0.0021028758 0.037150495 0.736 3.7801021e-39
-0.00070093747 0.037150487 0.73600006 4.8803274e-39
0.00070094701 0.037150502 0.73600006 3.8694139e-39
0.0021028558 0.037150495 0.73600006 2.7637964e-39
0.0034952371 0.037049539 0.73400003 2.1180724e-39
0.004893329 0.037049547 0.73400003 1.380513e-39
0.0062914193 0.037049554 0.73400003 1.1957602e-39
0.0076895114 0.037049547 0.73399997 9.1988658e-40
0.0091123823 0.037150502 0.73600006 5.5289492e-40
0.010514265 0.037150495 0.73600006 9.3002778e-41
0.011916175 0.037150517 0.736 3.5820356e-39
0.013318112 0.037150495 0.73600006 7.1066669e-39
0.01473997 0.037200987 0.73699999 9.5264011e-39
0.016121907 0.037150502 0.73600006 1.1882484e-38
0.01752379 0.037150502 0.73600006 5.9697851e-39
0.0189257 0.037150502 0.736 1.121235e-40
0.020327615 0.037150495 0.73600006 9.2566512e-39
0.021759028 0.037200995 0.73699999 1.825218e-38
0.023225719 0.037301928 0.73900008 1.0700101e-38
0.024666665 0.037352413 0.74000001 3.1347369e-39
0.026146656 0.037453368 0.74199998 3.4901847e-39
0.027597139 0.037503824 0.74300003 3.8787521e-39
0.029090513 0.037604775 0.74500006 7.8453166e-39
0.03059143 0.037705731 0.74699998 1.1717186e-38
0.032057136 0.037756212 0.74800003 1.4852219e-38
0.033481911 0.037756197 0.74800003 1.7892108e-38
0.035000008 0.03785716 0.75000006 1.7522963e-38
0.036428597 0.037857156 0.75000006 1.706235e-38
0.038109496 0.038109552 0.755 1.7521528e-38
0.039600007 0.038160034 0.75599998 1.7979981e-38
0.041040026 0.03816003 0.75600004 1.7430754e-38
0.04270475 0.038361926 0.75999999 1.6781097e-38
0.044210508 0.038412396 0.76100004 1.6227581e-38
-0.031646643 0.037033349 0.70700002 1.3855703e-39
-0.030300012 0.037033357 0.70699996 1.6610824e-39
-0.028953327 0.037033357 0.70699996 2.0295062e-39
-0.027606664 0.037033349 0.70700002 2.487941e-39
-0.026259979 0.037033342 0.70700002 1.9361853e-39
-0.024913318 0.037033342 0.70700002 1.4741015e-39
-0.02356666 0.037033349 0.70699996 1.473705e-39
-0.022157112 0.036928579 0.70500004 1.4737204e-39
-0.020784765 0.036876217 0.70400006 1.4737358e-39
-0.019443819 0.036876217 0.70400006 1.3800968e-39
-0.018077137 0.036823839 0.70299995 1.1049379e-39
-0.016738089 0.036823839 0.70300001 7.3760007e-40
-0.016253332 0.038866706 0.74199998 5.5285709e-40
-0.01483999 0.038866684 0.74200004 2.7701569e-40
-0.013390474 0.038761932 0.73999995 7.3980291e-40
-0.01196477 0.038709544 0.73900002 1.202202e-39
-0.010557145 0.038709536 0.73900002 1.2958227e-39
-0.009124794 0.038604796 0.73699999 1.3862247e-39
-0.0077209901 0.038604788 0.73699999 1.018524e-39
-0.0063171536 0.038604781 0.73700005 6.501114e-40
-0.0049133468 0.038604788 0.73700005 1.2929655e-39
-0.0035095399 0.038604788 0.73700005 2.0298285e-39
-0.0021028498 0.0385524 0.73600006 2.9507212e-39
-0.00070093933 0.038552396 0.73600006 3.8704999e-39
0.00070094143 0.0385524 0.73600006 3.2262038e-39
0.0021028521 0.038552403 0.736 2.489006e-39
0.0035047366 0.038552403 0.736 1.8422072e-39
0.0049066767 0.038552389 0.73600006 1.1954099e-39
0.0063085835 0.0385524 0.73600006 1.0117361e-39
0.007710468 0.038552396 0.73600006 8.2734623e-40
0.0091123786 0.0385524 0.736 4.6036158e-40
0.010514261 0.038552403 0.736 9.2289517e-41
0.0119162 0.038552396 0.73600006 3.4991586e-39
0.013336163 0.038604788 0.73700005 7.0155461e-39
0.014739968 0.038604788 0.73699999 9.7897163e-39
0.016143775 0.038604803 0.73699999 1.262757e-38
0.017547611 0.038604781 0.73700005 6.3489568e-39
0.018951418 0.038604781 0.73700005 9.4535798e-41
0.020355219 0.0386048 0.73699999 9.0543149e-39
0.021818101 0.038709555 0.73900002 1.8075312e-38
0.023257157 0.038761921 0.74000001 1.1064916e-38
0.024733339 0.038866684 0.74200004 4.1330822e-39
0.026146678 0.038866702 0.74200004 4.2320433e-39
0.027597135 0.038919065 0.74299997 4.4369411e-39
0.029168576 0.03912859 0.74699998 9.4162086e-39
0.030632362 0.039180972 0.74800003 1.4299353e-38
0.032057133 0.039180975 0.74800003 1.5866732e-38
0.033571444 0.039285731 0.75000006 1.7437603e-38
0.035000034 0.039285727 0.75000006 1.7064144e-38
0.036428597 0.039285719 0.75000006 1.6695727e-38
0.038008545 0.039442867 0.75300002 1.6970157e-38
0.039600033 0.039600018 0.75600004 1.7338936e-38
0.041148555 0.039704792 0.75800002 1.7061636e-38
0.042760976 0.039861921 0.76100004 1.6693593e-38
0.044210505 0.039861921 0.76100004 1.6416308e-38
-0.031646654 0.038380004 0.70700002 1.385929e-39
-0.030300001 0.038380023 0.70699996 1.5688966e-39
-0.02895334 0.038380019 0.70700002 1.568912e-39
-0.027606653 0.038380019 0.70700002 1.5695958e-39
-0.02625999 0.038380016 0.70700002 1.4770092e-39
-0.024913335 0.038380023 0.70699996 1.2911396e-39
-0.023499973 0.038271427 0.70500004 1.3807778e-39
-0.022157134 0.038271446 0.70500004 1.4737148e-39
-0.020784765 0.038217172 0.704 1.657411e-39
-0.019443819 0.038217161 0.70400006 1.7488751e-39
-0.018077167 0.038162891 0.70299995 1.1971335e-39
-0.016738093 0.038162891 0.70299995 6.4575336e-40
-0.016275229 0.040334303 0.74300003 4.6063904e-40
-0.014839998 0.040280022 0.74199998 2.7771493e-40
-0.013390459 0.040171441 0.74000001 5.5468718e-40
-0.01196476 0.040117159 0.73900002 8.3413692e-40
-0.010557135 0.040117156 0.73900002 1.2043474e-39
-0.0091495356 0.040117167 0.73900002 1.478056e-39
-0.0077209864 0.040008597 0.73699999 1.2014691e-39
-0.0063171815 0.040008605 0.73699999 9.248738e-40
-0.0049133468 0.04000859 0.73700005 1.1989342e-39
-0.0035095399 0.04000859 0.73700005 1.3851541e-39
-0.0021028535 0.039954312 0.73600006 2.1220269e-39
-0.00070094492 0.039954301 0.73600006 2.8599381e-39
0.00070093956 0.039954305 0.73600006 2.5840714e-39
0.0021028484 0.039954312 0.736 2.2131379e-39
0.0035047608 0.039954301 0.73600006 1.5663406e-39
0.0049066711 0.039954294 0.73600006 9.2205579e-40
0.0063085817 0.039954305 0.73600006 8.2770777e-40
0.0077104643 0.039954308 0.73600006 6.4403677e-40
0.009112373 0.039954305 0.736 3.6817155e-40
0.010514287 0.039954305 0.73600006 9.2648249e-41
0.011916198 0.039954301 0.73600006 3.4901875e-39
0.013336165 0.040008593 0.73700005 6.8308017e-39
