# .PCD v0.7 - Point Cloud Data file format
VERSION 0.7
FIELDS x y z rgb
SIZE 4 4 4 4
TYPE F F F F
COUNT 1 1 1 1
WIDTH 986
HEIGHT 1
VIEWPOINT 0 0 0 1 0 0 0
POINTS 986
DATA ascii
0.040822841 0.010742873 0.75200003 3.5012353e-39
0.042311441 0.010757156 0.75300002 2.4024702e-39
0.043745708 0.010757148 0.75300002 6.0917065e-39
0.045300007 0.010785729 0.75500005 9.8626889e-39
0.046738084 0.010785721 0.75500005 8.4797615e-39
0.048239995 0.010799997 0.75600004 7.1944387e-39
0.049614284 0.010785729 0.75500005 7.9320079e-39
0.051120002 0.010800004 0.75600004 8.6645087e-39
0.052559983 0.010799997 0.75600004 8.296417e-39
0.053999986 0.010799997 0.75600004 7.9258927e-39
0.071565695 0.011542872 0.80800003 9.3175362e-39
0.073104739 0.011542872 0.80800003 1.8550298e-38
0.074643806 0.011542879 0.80799997 1.7893165e-38
0.076182842 0.011542872 0.80799997 1.7356347e-38
0.077721894 0.011542864 0.80800003 1.6685363e-38
0.079457179 0.011571445 0.81000006 1.6141634e-38
-0.02550002 0.012385726 0.76500005 3.5970827e-39
-0.023917135 0.012320973 0.76100004 3.3204734e-39
-0.022467628 0.012320966 0.76100004 2.7676401e-39
-0.020990483 0.01230479 0.75999999 2.2155636e-39
-0.019542882 0.012304768 0.76000005 1.9386348e-39
-0.018000001 0.01224 0.75600004 1.5684257e-39
-0.016560009 0.012240008 0.75600004 1.2918458e-39
-0.015060002 0.012191437 0.75300002 9.2269899e-40
-0.013625725 0.012191437 0.75300002 8.2869989e-40
-0.012175258 0.012175247 0.75200009 6.4541145e-40
-0.010714276 0.012142889 0.75 6.4615273e-40
-0.0092856921 0.012142882 0.75 6.4650726e-40
-0.007857128 0.012142889 0.75 1.0149226e-39
-0.0064285449 0.012142889 0.75 1.2889886e-39
-0.0049866489 0.012110502 0.74799997 1.4719351e-39
-0.0035618744 0.012110516 0.74799997 1.563765e-39
-0.0021285624 0.012061924 0.745 1.471205e-39
-0.00070760999 0.012029536 0.74299997 1.2886285e-39
0.0007076278 0.012029544 0.74299997 1.3822744e-39
0.0021228655 0.012029536 0.74299997 1.4744715e-39
0.0035333349 0.012013353 0.74199998 1.2925983e-39
0.0049466691 0.012013361 0.74199998 1.1082211e-39
0.0063600019 0.012013353 0.74199998 1.3837388e-39
0.007752392 0.011980966 0.74000001 1.5666937e-39
0.0091619166 0.011980981 0.74000001 1.8436365e-39
0.010571433 0.011980981 0.73999995 2.1177053e-39
0.012013336 0.012013361 0.74200004 1.7485668e-39
0.013390482 0.011980966 0.74000001 1.2893824e-39
0.014800007 0.011980973 0.74000001 7.3836098e-40
0.016253356 0.012013361 0.74199998 1.8771654e-40
0.017666688 0.012013368 0.74199998 6.4726116e-40
0.019079994 0.012013361 0.74199998 1.0149507e-39
0.020493329 0.012013361 0.74199998 1.0170919e-39
0.021906661 0.012013346 0.74199998 1.0156625e-39
0.023319995 0.012013361 0.74199998 1.38265e-39
0.024733329 0.012013353 0.74199998 1.6578047e-39
0.02618191 0.012029536 0.74300003 1.6578118e-39
0.027597146 0.012029544 0.74300003 1.5666965e-39
0.029012386 0.012029529 0.74300003 1.5670567e-39
0.030427625 0.012029536 0.74300003 1.5666825e-39
0.031928577 0.012061931 0.745 2.1187563e-39
0.033347655 0.012061931 0.745 2.6697819e-39
0.03486003 0.012094304 0.74699998 3.221885e-39
0.036331445 0.012110509 0.74799997 3.7721904e-39
0.037756216 0.012110494 0.74800003 3.9583837e-39
0.039285742 0.012142882 0.75 4.1445238e-39
0.040822838 0.012175269 0.75200003 3.3161672e-39
0.042255227 0.012175247 0.75200009 2.4057114e-39
0.043745715 0.012191437 0.75300002 6.465493e-39
0.045299988 0.012223817 0.75500005 1.0503381e-38
0.046738088 0.012223825 0.75500011 8.5647881e-39
0.048239984 0.012240008 0.75600004 6.6434355e-39
0.049680009 0.012240008 0.75600004 8.0310307e-39
0.051458094 0.012320966 0.76100004 9.3081054e-39
0.05290762 0.012320966 0.76100004 8.5708977e-39
0.071742862 0.013114303 0.81000006 1.1829469e-38
0.073104762 0.013081923 0.80799997 2.3413329e-38
0.07482861 0.013114296 0.81 2.3417668e-38
0.076371439 0.013114303 0.81 2.341759e-38
0.07791432 0.013114296 0.81000006 2.3417513e-38
0.079457171 0.013114296 0.81000006 2.3412544e-38
0.081199981 0.013146676 0.81200004 2.3417621e-38
-0.025500031 0.013842873 0.76500005 3.7800559e-39
-0.023917157 0.013770498 0.76100004 3.4126858e-39
-0.02246763 0.013770498 0.76100004 3.0445984e-39
-0.020990487 0.013752393 0.76000005 2.584716e-39
-0.019542867 0.013752386 0.76000005 2.2130805e-39
-0.018000009 0.013679996 0.75600004 1.7495996e-39
-0.016560005 0.013679996 0.75600004 1.4744518e-39
-0.015059994 0.013625719 0.75300002 1.1063686e-39
-0.013607632 0.013607629 0.75200003 9.2123883e-40
-0.012175261 0.013607644 0.75200003 8.2907263e-40
-0.010714268 0.013571441 0.75 7.3798263e-40
-0.0092856837 0.013571464 0.75 7.3869729e-40
-0.0078571206 0.013571449 0.75 7.3761689e-40
-0.0064285523 0.013571471 0.75 7.3653088e-40
-0.0049866489 0.013535261 0.74800003 7.3616094e-40
-0.0035618865 0.013535261 0.74799997 8.276363e-40
-0.0021285578 0.013480976 0.745 7.3615814e-40
-0.00070761092 0.013444781 0.74299997 7.3653508e-40
0.00070762687 0.013444781 0.74299997 7.376295e-40
0.0021228786 0.013444774 0.74299997 8.305538e-40
0.0035381163 0.013444781 0.74299997 7.3908965e-40
0.0049533551 0.013444774 0.74300003 6.4941496e-40
0.0063600051 0.013426691 0.74200004 7.3910647e-40
0.0077733397 0.013426691 0.74200004 8.3058183e-40
0.009186673 0.013426684 0.74200004 1.0149675e-39
0.010600007 0.013426699 0.74200004 1.10967e-39
0.01201334 0.013426684 0.74200004 9.2240892e-40
0.013390466 0.013390489 0.74000001 7.3836098e-40
0.01480001 0.013390504 0.73999995 4.6211881e-40
0.016253332 0.013426699 0.74199998 1.8806687e-40
0.017666666 0.013426691 0.74199998 3.7067988e-40
0.019079998 0.013426691 0.74199998 5.5469419e-40
0.020493332 0.013426684 0.74199998 5.5467737e-40
0.021906665 0.013426691 0.74199998 5.5504872e-40
0.023319999 0.013426684 0.74200004 7.3837359e-40
0.024733333 0.013426684 0.74200004 9.2276905e-40
0.026181925 0.013444774 0.74300003 8.3058183e-40
0.027597161 0.013444781 0.74300003 8.3273422e-40
0.029012373 0.013444774 0.74300003 8.3058043e-40
0.030427638 0.013444781 0.74300003 8.305524e-40
0.031928565 0.013480969 0.74500006 1.1056707e-39
0.033437151 0.013517164 0.74700004 1.3811968e-39
0.034860007 0.013517156 0.74699998 1.8400338e-39
0.036331434 0.013535261 0.74800003 2.29671e-39
0.037756223 0.013535261 0.74799997 3.1329236e-39
0.039285723 0.013571456 0.75 3.9658848e-39
0.040714297 0.013571456 0.75000006 3.1318166e-39
0.042255223 0.013607636 0.75200003 2.3971144e-39
0.0437457 0.013625719 0.75300008 6.4604582e-39
0.045299988 0.013661921 0.75500005 1.0508759e-38
0.046800021 0.013680011 0.75600004 7.1894136e-39
0.048239995 0.013680004 0.75600004 3.9773447e-39
0.049679998 0.013680011 0.75600004 4.5247913e-39
0.051458102 0.013770491 0.76100004 4.986487e-39
0.052907631 0.013770491 0.76100004 4.522653e-39
0.073285736 0.014657147 0.81000006 1.6254521e-38
0.07482858 0.014657162 0.81 1.9649565e-38
0.076371461 0.01465717 0.81000006 2.3050348e-38
0.077914283 0.014657162 0.81000006 2.3234019e-38
0.079653338 0.014693357 0.81200004 2.341769e-38
0.081200004 0.014693357 0.81200004 2.341769e-38
-0.022467619 0.015220016 0.76099998 3.2293596e-39
-0.021018112 0.015220024 0.76100004 2.9506147e-39
-0.01956857 0.015220024 0.76100004 2.4878401e-39
-0.018047618 0.015160024 0.75800002 1.9339726e-39
-0.016559996 0.01512 0.75600004 1.6574068e-39
-0.015060005 0.015060015 0.75300002 1.2893347e-39
-0.013607632 0.01504001 0.75200003 1.104935e-39
-0.012175248 0.015040025 0.75200003 9.2162419e-40
-0.010742889 0.01504001 0.75200009 8.297915e-40
-0.0092856912 0.015000023 0.75 7.368742e-40
-0.007857128 0.01500003 0.75000006 4.5956844e-40
-0.0064285439 0.01500003 0.75 1.0051654e-40
-0.0049866415 0.014960036 0.74799997 9.2306332e-41
-0.0035714121 0.01500003 0.75 1.0195147e-40
-0.0021285727 0.014900006 0.74500006 9.2225057e-41
-0.00070952479 0.014900014 0.74500006 9.5127146e-41
0.00070762594 0.014860019 0.74299997 9.2289517e-41
0.0021228637 0.014860012 0.74299997 9.693342e-41
0.0035381024 0.014860019 0.74299997 9.2251682e-41
0.0049533402 0.014860012 0.74299997 9.5505497e-41
0.0063600093 0.014840029 0.74200004 9.230353e-41
0.0077733141 0.014840014 0.74200004 9.4092988e-41
0.0091866488 0.014840022 0.74200004 9.2295122e-41
0.010600002 0.014840022 0.74199998 9.444051e-41
0.012013336 0.014840037 0.74199998 9.2279708e-41
0.013426669 0.014840022 0.74199998 9.3709032e-41
0.014840003 0.014840029 0.74199998 9.2268497e-41
0.016253335 0.014840022 0.74199998 9.3362911e-41
0.017666668 0.014840029 0.74199998 9.2306332e-41
0.019080002 0.014840014 0.74199998 9.3368517e-41
0.020493334 0.014840022 0.74200004 9.2276905e-41
0.021906668 0.014840014 0.74200004 9.4774019e-41
0.023320002 0.014840014 0.74200004 9.2248879e-41
0.024733337 0.014840007 0.74200004 9.3339089e-41
0.026181908 0.014860012 0.74300003 9.2276905e-41
0.027597146 0.014860027 0.74300003 9.371744e-41
0.029012384 0.014860004 0.74300003 9.2289517e-41
0.030427624 0.014860019 0.74300003 9.4813255e-41
0.031928569 0.014900021 0.74500006 9.2313339e-41
0.033437148 0.014940016 0.74699998 1.0343124e-40
0.034860034 0.014940031 0.74699998 4.5964972e-40
0.036331471 0.014960036 0.74799997 8.4132699e-40
0.037756208 0.014960021 0.74800003 2.3103236e-39
0.039285727 0.01500003 0.75 3.6874833e-39
0.040714327 0.015000023 0.75 3.0309904e-39
0.042255223 0.015040018 0.75200003 2.4057338e-39
0.043745715 0.01506 0.75300002 6.4709048e-39
0.045299996 0.01510001 0.75500005 1.0411192e-38
0.04680001 0.01512 0.75600004 5.8900582e-39
0.048367601 0.015160009 0.75800002 1.2968583e-39
0.050139982 0.015260018 0.76300001 1.0123933e-39
0.051593319 0.015260018 0.76300001 6.5223017e-40
0.053046662 0.015260018 0.76300001 5.5465775e-40
0.073285729 0.016200013 0.81000006 8.9589215e-39
0.074828595 0.016200028 0.81 1.5874981e-38
0.076559998 0.016240023 0.81199998 2.2679417e-38
0.078106686 0.016240023 0.81199998 2.3050348e-38
0.079653345 0.016240031 0.81199998 2.341769e-38
0.081200011 0.016240016 0.81199998 2.341769e-38
0.082950458 0.016280018 0.81399995 2.341769e-38
-0.022526694 0.016713351 0.76300001 3.1346668e-39
-0.021018099 0.016669549 0.76100004 2.9488126e-39
-0.019568572 0.016669542 0.76100004 2.3037809e-39
-0.018047621 0.016603827 0.75800002 1.7495702e-39
-0.016560005 0.016560011 0.75600004 1.4737358e-39
-0.01506001 0.016494296 0.75300002 1.1964356e-39
-0.013607621 0.016472414 0.75200003 1.1056763e-39
-0.01217525 0.016472399 0.75200003 1.0145359e-39
-0.010742876 0.016472392 0.75200003 7.3685318e-40
-0.0092856996 0.016428605 0.75 4.5954602e-40
-0.0078571355 0.016428597 0.75000006 4.0540363e-39
-0.0064285523 0.016428605 0.75 7.653647e-39
-0.0049999901 0.01642859 0.75000006 8.7629373e-39
-0.0035714046 0.016428597 0.75 9.8652435e-39
-0.0021285671 0.016319066 0.745 9.3973766e-39
-0.00070761278 0.016275257 0.74299997 8.9181563e-39
0.000707625 0.016275264 0.74299997 8.7488808e-39
0.0021228767 0.016275249 0.74300003 8.5561911e-39
0.0035381154 0.016275249 0.74300003 8.4686085e-39
0.0049533532 0.016275249 0.74300003 8.364621e-39
0.0063599846 0.016253352 0.74200004 8.0105955e-39
0.0077733379 0.016253367 0.74199998 7.7175056e-39
0.0091866711 0.01625336 0.74199998 7.6357076e-39
0.010600005 0.016253352 0.74199998 7.5327387e-39
0.012013339 0.016253352 0.74199998 7.5452818e-39
0.013426672 0.016253367 0.74199998 7.6256448e-39
0.014840006 0.016253352 0.74199998 7.7289654e-39
0.016253339 0.016253367 0.74200004 7.8071887e-39
0.017666671 0.016253345 0.74200004 7.6342993e-39
0.019080006 0.016253352 0.74200004 7.3476595e-39
0.020493338 0.016253352 0.74200004 7.7325653e-39
0.021906672 0.016253345 0.74200004 8.1795053e-39
0.023351448 0.016275249 0.74300003 7.6392122e-39
0.024766658 0.016275242 0.74300003 7.1642715e-39
0.026181923 0.016275249 0.74300003 6.1544608e-39
0.027597131 0.016275249 0.74300003 5.2354024e-39
0.029012371 0.016275249 0.74300003 6.5322341e-39
0.030509526 0.016319059 0.74500006 7.8133207e-39
0.031928573 0.016319074 0.745 8.8493918e-39
0.033437151 0.016362861 0.74700004 9.9592846e-39
0.034906697 0.016384788 0.74800003 9.7752297e-39
0.036331456 0.016384803 0.74799997 9.5943935e-39
0.037756216 0.016384788 0.74799997 7.0136361e-39
0.039285734 0.01642859 0.75 4.4325467e-39
0.040714305 0.016428605 0.75 3.9600849e-39
0.042255223 0.016472392 0.75200003 3.6006826e-39
0.043745723 0.016494304 0.75300002 6.8332666e-39
0.045359995 0.016560003 0.75600004 1.014251e-38
0.046923794 0.016603835 0.75800002 6.6279442e-39
0.048367608 0.016603827 0.75800002 3.1234859e-39
0.050008576 0.016669542 0.76100004 3.4980011e-39
0.051593333 0.016713351 0.76300001 3.8610383e-39
0.05304667 0.016713351 0.76300001 3.8674955e-39
0.073647611 0.017830491 0.81400001 4.5069934e-39
0.075198084 0.017830491 0.81400001 1.0706003e-38
0.076748557 0.017830491 0.81400001 1.698741e-38
0.078299053 0.017830491 0.81400001 1.6425637e-38
0.079653315 0.017786682 0.81200004 1.5887179e-38
0.0814 0.017830491 0.81399995 1.55984e-38
0.083052404 0.017852411 0.815 1.5428002e-38
-0.022526676 0.018166684 0.76299995 3.0417748e-39
-0.021073345 0.018166684 0.76300001 2.856659e-39
-0.019620009 0.018166684 0.76300001 2.2130819e-39
-0.018047623 0.018047646 0.75800002 1.4755337e-39
-0.016560001 0.017999999 0.75600004 1.2907921e-39
-0.015060002 0.017928593 0.75300002 1.1064022e-39
-0.013625725 0.017928585 0.75300002 1.1067609e-39
-0.012175249 0.017904788 0.75200003 1.0138226e-39
-0.010742877 0.017904773 0.75200003 5.5138993e-40
-0.0093104839 0.017904788 0.75200003 9.7657891e-41
-0.0078781117 0.017904788 0.75200003 7.6436571e-39
-0.0064285598 0.017857172 0.75 1.5208309e-38
-0.0049999966 0.017857172 0.75000006 1.7440045e-38
-0.0035618781 0.017809555 0.74799997 1.9632218e-38
-0.0021285606 0.017738126 0.745 1.8714183e-38
-0.00070761278 0.017690495 0.74299997 1.7693611e-38
0.000707625 0.017690487 0.74299997 1.7336335e-38
0.0021228637 0.017690487 0.74300003 1.6955337e-38
0.0035381014 0.017690502 0.74300003 1.676949e-38
0.0049533383 0.017690487 0.74300003 1.6587275e-38
0.0063600084 0.01766669 0.74199998 1.5959874e-38
0.0077733421 0.01766669 0.74199998 1.5295848e-38
0.0091866758 0.017666705 0.74199998 1.5108937e-38
0.010600009 0.017666683 0.74199998 1.4926343e-38
0.012013342 0.01766669 0.74199998 1.5114677e-38
0.013426676 0.01766669 0.74200004 1.5202572e-38
0.01484001 0.01766669 0.74200004 1.5390554e-38
0.016253343 0.017666683 0.74200004 1.5568136e-38
0.017666647 0.017666683 0.74200004 1.5106098e-38
0.019080007 0.017666683 0.74200004 1.4651936e-38
0.020493334 0.017666705 0.74199998 1.5494234e-38
0.021906668 0.01766669 0.74199998 1.6218853e-38
0.023351433 0.017690487 0.74300003 1.5212587e-38
0.024766669 0.017690487 0.74300003 1.4180132e-38
0.026181908 0.017690487 0.74300003 1.2217841e-38
0.027597146 0.017690487 0.74300003 1.0314437e-38
0.029012384 0.017690487 0.74300003 1.2988458e-38
0.03050953 0.017738119 0.745 1.5574956e-38
0.032014295 0.017785721 0.74699998 1.771591e-38
0.033437151 0.017785743 0.74699998 1.9724082e-38
0.034906704 0.017809562 0.74799997 1.8995842e-38
0.036331441 0.017809547 0.74800003 1.8248915e-38
0.037756205 0.017809555 0.74799997 1.1717071e-38
0.039285742 0.017857164 0.75000006 5.0707695e-39
0.040714312 0.017857172 0.75 4.8676624e-39
0.042255219 0.017904788 0.75200003 4.7066364e-39
0.043861907 0.017976195 0.75500005 7.3021102e-39
0.045359984 0.017999999 0.75600004 9.7669144e-39
0.046923775 0.018047638 0.75800002 7.3561878e-39
0.048495222 0.018095247 0.76000005 4.8837942e-39
0.050139997 0.018166684 0.76300001 5.9951374e-39
0.051593315 0.018166676 0.76300001 7.0021063e-39
0.05318569 0.0182143 0.76500005 7.1943938e-39
0.054642837 0.018214315 0.76499999 7.2794246e-39
0.073647618 0.019380972 0.81399995 1.0672429e-40
0.075198092 0.019380972 0.81399995 5.6380837e-39
0.076748557 0.019380972 0.81399995 1.116254e-38
0.07829906 0.019380972 0.81399995 9.6856166e-39
0.079849511 0.019380964 0.81400001 8.2219814e-39
0.081399985 0.019380964 0.81400001 7.7523937e-39
0.082950473 0.019380972 0.81400001 7.3043327e-39
-0.022526678 0.019620016 0.76300001 2.8566885e-39
-0.021073343 0.019620016 0.76299995 2.5793981e-39
-0.019620011 0.019620009 0.76300001 2.0280362e-39
-0.018047629 0.019491456 0.75800002 1.3837332e-39
-0.01655999 0.01944001 0.75600004 1.2911592e-39
-0.015119998 0.019440003 0.75600004 1.198965e-39
-0.013625717 0.019362882 0.75300002 1.1067693e-39
-0.012191438 0.019362867 0.75300002 1.0152632e-39
-0.010757149 0.019362867 0.75300002 5.5246752e-40
-0.0093104914 0.019337162 0.75200009 9.2349773e-41
-0.0078780986 0.019337162 0.75200003 8.5786581e-39
-0.0064285533 0.019285746 0.75 1.7075269e-38
-0.0049999687 0.019285753 0.75 1.9097834e-38
-0.0035618921 0.019234307 0.74800003 2.1213638e-38
-0.0021285568 0.019157164 0.745 2.0382096e-38
-0.00070761371 0.019105732 0.74299997 1.9652432e-38
0.00070762407 0.019105732 0.74299997 1.8720801e-38
0.0021228627 0.019105725 0.74300003 1.7904688e-38
0.0035381145 0.019105725 0.74300003 1.8816229e-38
0.0049533523 0.019105732 0.74300003 1.974427e-38
0.0063685896 0.019105732 0.74300003 1.9460513e-38
0.0077733453 0.019080028 0.74199998 1.9182836e-38
0.0091866786 0.019080028 0.74199998 1.9088112e-38
0.010600012 0.01908002 0.74200004 1.9101399e-38
0.012013346 0.01908002 0.74200004 1.9183203e-38
0.01342665 0.01908002 0.74200004 1.928186e-38
0.014839984 0.01908002 0.74200004 1.8539288e-38
0.016253317 0.01908002 0.74200004 1.790756e-38
0.017666671 0.01908002 0.74199998 1.8353465e-38
0.019080004 0.019080028 0.74199998 1.8914163e-38
0.020520942 0.019105732 0.74300003 1.9277918e-38
0.021936208 0.019105725 0.74300003 1.974427e-38
0.023351446 0.019105725 0.74300003 1.9091736e-38
0.024766682 0.019105725 0.74300003 1.8451689e-38
0.026181893 0.019105725 0.74300003 1.5943003e-38
0.027597161 0.019105725 0.74300003 1.3570393e-38
0.029090486 0.019157164 0.745 1.5313519e-38
0.030509535 0.019157164 0.745 1.7169265e-38
0.032014322 0.019208595 0.74699998 1.8266651e-38
0.033481929 0.0192343 0.74800003 1.9460513e-38
0.034906689 0.019234307 0.74799997 1.9459795e-38
0.036331449 0.019234315 0.74799997 1.9555522e-38
0.037857171 0.019285738 0.75 1.1250452e-38
0.039285719 0.019285746 0.75000006 2.8473852e-39
0.040714316 0.019285746 0.75 3.0373929e-39
0.042255227 0.019337162 0.75200009 3.2397614e-39
0.043745719 0.019362867 0.75300002 8.7632063e-39
0.045360025 0.01944001 0.75600004 1.4266494e-38
0.046923786 0.019491442 0.75800002 1.2614144e-38
0.048495226 0.019542865 0.76000005 1.0958218e-38
0.050139982 0.019620009 0.76300001 1.0038769e-38
0.051593319 0.019620031 0.76300001 9.0296688e-39
0.053046662 0.019620016 0.76300001 7.6453345e-39
0.054499999 0.019620024 0.76300001 6.2749977e-39
0.075198077 0.020931445 0.81400001 5.6308012e-39
0.07674855 0.020931445 0.81399995 1.0318311e-38
0.078299038 0.020931445 0.81400001 9.5857335e-39
0.079849511 0.020931445 0.81399995 8.8384799e-39
0.081399985 0.020931445 0.81399995 8.7555987e-39
0.08295048 0.020931445 0.81399995 8.6558641e-39
-0.019620029 0.021073349 0.76300001 1.8436183e-39
-0.018047618 0.020935252 0.75800002 1.2918781e-39
-0.016559999 0.020879999 0.75600004 1.2907921e-39
-0.015119994 0.020880006 0.75600004 1.2907949e-39
-0.013661907 0.020852394 0.75500005 1.1982433e-39
-0.01219143 0.020797156 0.75300002 1.0145443e-39
-0.010757138 0.020797156 0.75300002 5.5139133e-40
-0.0093104932 0.020769544 0.75200003 1.0312436e-40
-0.0078781005 0.020769544 0.75200003 9.5027794e-39
-0.0064285607 0.020714313 0.75 1.8811546e-38
-0.0049999761 0.020714313 0.75 2.0754461e-38
-0.0035618846 0.020659082 0.74799997 2.2683006e-38
-0.0021285717 0.020576209 0.74500006 2.2131993e-38
-0.00070761464 0.02052097 0.74300003 2.1572365e-38
0.00070762407 0.02052097 0.74300003 2.0172587e-38
0.0021228618 0.020520963 0.74300003 1.8725823e-38
0.0035380996 0.020520963 0.74300003 2.0754461e-38
0.0049533383 0.02052097 0.74300003 2.2773765e-38
0.0063600149 0.020493358 0.74200004 2.2862731e-38
0.0077733207 0.020493358 0.74199998 2.2954917e-38
0.009199053 0.020520955 0.74300003 2.305033e-38
0.010614291 0.02052097 0.74300003 2.3142172e-38
0.012029529 0.020520963 0.74300003 2.3234015e-38
0.013426655 0.020493343 0.74200004 2.323222e-38
0.01484001 0.020493358 0.74199998 2.1759981e-38
0.016253341 0.020493358 0.74199998 2.0196628e-38
0.017666673 0.020493358 0.74199998 2.1668867e-38
0.019105718 0.020520963 0.74300003 2.3048553e-38
0.020520955 0.02052097 0.74300003 2.3142183e-38
0.021936193 0.02052097 0.74300003 2.3234019e-38
0.023351433 0.020520963 0.74300003 2.2958513e-38
0.024766671 0.020520963 0.74300003 2.2582519e-38
0.026181908 0.02052097 0.74300003 1.9624371e-38
0.027597146 0.020520963 0.74300003 1.6694991e-38
0.029090492 0.020576209 0.745 1.7708799e-38
0.030591439 0.020631447 0.74700004 1.8631111e-38
0.032014295 0.020631447 0.74699998 1.8904117e-38
0.033481937 0.020659074 0.74799997 1.9091734e-38
0.034906674 0.020659067 0.74800003 2.0010808e-38
0.036428582 0.020714313 0.75000006 2.0828303e-38
0.037857179 0.02071432 0.75 1.0789837e-38
0.039285727 0.020714313 0.75000006 6.5447084e-40
0.040822838 0.020769551 0.75200003 1.194265e-39
0.042255223 0.020769536 0.75200003 1.7718522e-39
0.043745726 0.020797163 0.75300002 1.0335899e-38
0.045360014 0.020880006 0.75600004 1.8792643e-38
0.046923798 0.02093526 0.75800002 1.7966827e-38
0.048495226 0.020990483 0.76000005 1.704019e-38
0.050139986 0.021073364 0.76299995 1.4080258e-38
0.051593333 0.021073349 0.76300001 1.1054352e-38
0.05332477 0.021183819 0.76700002 8.0822565e-39
0.054785721 0.021183833 0.76699996 5.169362e-39
0.075290501 0.022509545 0.815 5.63402e-39
0.076842874 0.022509545 0.815 9.4031961e-39
0.078395233 0.022509553 0.81500006 9.5000287e-39
0.079849496 0.022481918 0.81400001 9.496077e-39
0.0814 0.022481918 0.81400001 9.7762428e-39
-0.01954286 0.022438116 0.76000005 1.9365006e-39
-0.018047621 0.022379071 0.75800002 1.4762483e-39
-0.016603809 0.022379078 0.75800002 1.4755308e-39
-0.015120004 0.022320017 0.75600004 1.4755365e-39
-0.013661913 0.022290498 0.75500005 1.1996754e-39
-0.012191442 0.022231437 0.75300002 1.017054e-39
-0.010757145 0.022231437 0.75300002 5.5318499e-40
-0.0093104951 0.022201918 0.75200003 9.2376397e-41
-0.0078781229 0.022201926 0.75200009 7.7579316e-39
-0.0064285533 0.02214288 0.75000006 1.5423691e-38
-0.0049999827 0.022142895 0.75 1.6890554e-38
-0.0035714195 0.02214288 0.75000006 1.836602e-38
-0.0021342733 0.022054307 0.74700004 1.9650641e-38
-0.00070761557 0.021936208 0.74300003 2.0934537e-38
0.00070762314 0.021936208 0.74300003 2.0286658e-38
0.0021228618 0.021936208 0.74300003 1.9744263e-38
0.0035381136 0.021936201 0.74300003 2.0845579e-38
0.0049533513 0.021936215 0.74300003 2.2040158e-38
0.0063599912 0.021906689 0.74199998 2.2222752e-38
0.0077733239 0.021906696 0.74200004 2.24075e-38
0.0091990661 0.021936201 0.74300003 2.2499335e-38
0.010614304 0.021936208 0.74300003 2.2591171e-38
0.012029542 0.021936201 0.74300003 2.2591171e-38
0.013426678 0.021906696 0.74199998 2.2499328e-38
0.014840011 0.021906689 0.74199998 1.9455118e-38
0.016253345 0.021906696 0.74199998 1.6419528e-38
0.017690493 0.021936193 0.74300003 1.9553419e-38
0.019105731 0.021936208 0.74300003 2.2683003e-38
0.020520968 0.021936193 0.74300003 2.2774842e-38
0.021936178 0.021936208 0.74300003 2.2774842e-38
0.023351444 0.021936201 0.74300003 2.2683006e-38
0.024833357 0.021995261 0.745 2.2682992e-38
0.026252406 0.021995261 0.745 2.0836582e-38
0.027671451 0.021995261 0.745 1.8998451e-38
0.029090479 0.021995254 0.74500006 1.8356693e-38
0.030591436 0.022054307 0.74699998 1.7711691e-38
0.032014292 0.022054307 0.74699998 1.7157447e-38
0.033481922 0.022083841 0.74800003 1.6705088e-38
0.035000008 0.02214288 0.75 1.6424202e-38
0.036428608 0.022142895 0.75 1.6243343e-38
0.037857156 0.022142887 0.75 8.3009488e-39
0.039285753 0.022142887 0.75 3.6786187e-40
0.040714305 0.022142895 0.75 2.8548752e-39
0.042255223 0.022201918 0.75200003 5.265571e-39
0.043861896 0.022290483 0.75500005 1.319644e-38
0.045360003 0.022319995 0.75600004 2.1121556e-38
0.046800006 0.022319995 0.75600004 2.0652691e-38
0.048559025 0.022467636 0.76100004 2.0287817e-38
0.050008584 0.022467636 0.76100004 1.8712937e-38
0.05172855 0.022585742 0.76500005 1.7250018e-38
0.05318572 0.022585735 0.76499999 1.5759833e-38
0.054857161 0.022674292 0.76800001 1.4289394e-38
0.05632 0.0226743 0.76800001 1.3914162e-38
0.075290494 0.024061926 0.81500006 5.9034182e-39
0.076842867 0.024061933 0.81500006 1.0047491e-38
0.078395247 0.024061941 0.815 1.005179e-38
0.079849534 0.024032407 0.81399995 1.0145065e-38
0.081400007 0.024032407 0.81399995 1.0236904e-38
0.08295048 0.024032407 0.81399995 1.0421286e-38
-0.025666665 0.024200007 0.76999998 3.7793034e-39
-0.024199989 0.024200015 0.77000004 3.3201329e-39
-0.019542878 0.023885719 0.76000005 2.0272711e-39
-0.018047627 0.023822881 0.75800002 1.6592173e-39
-0.016603813 0.023822889 0.75800002 1.6592229e-39
-0.015119994 0.023760013 0.75600004 1.5670216e-39
-0.013661912 0.023728594 0.75500005 1.2918683e-39
-0.012191433 0.023665734 0.75300002 1.0145373e-39
-0.010757157 0.023665726 0.75300002 5.5138292e-40
-0.0093104821 0.0236343 0.75200003 1.0308372e-40
-0.0078781098 0.0236343 0.75200003 6.1040743e-39
-0.0064285607 0.023571454 0.75000006 1.1994844e-38
-0.0049999771 0.023571454 0.75 1.3018335e-38
-0.0035714139 0.023571454 0.75000006 1.3937795e-38
-0.0021342752 0.023477159 0.74699998 1.7169288e-38
-0.00070761557 0.023351446 0.74300003 2.0284158e-38
0.00070762314 0.023351446 0.74300003 2.0478947e-38
0.0021228609 0.023351446 0.74300003 2.0650781e-38
0.0035380987 0.023351438 0.74300003 2.1026736e-38
0.0049533364 0.023351453 0.74300003 2.1298656e-38
0.006359993 0.023320012 0.74200004 2.158098e-38
0.0077733272 0.023320012 0.74200004 2.1849312e-38
0.0091990512 0.023351438 0.74300003 2.1948322e-38
0.010614289 0.023351446 0.74300003 2.2034777e-38
0.012029527 0.023351438 0.74300003 2.1948322e-38
0.013426682 0.023320012 0.74199998 2.1749565e-38
0.014860003 0.023351438 0.74300003 1.7141269e-38
0.01627524 0.023351446 0.74300003 1.2552738e-38
0.017690478 0.023351431 0.74300003 1.7441558e-38
0.019105716 0.023351446 0.74300003 2.2310279e-38
0.020520953 0.023351438 0.74300003 2.2315664e-38
0.021936191 0.023351446 0.74300003 2.2310283e-38
0.023351431 0.023351431 0.74300003 2.2499334e-38
0.024833363 0.023414306 0.745 2.2677977e-38
0.026252389 0.023414299 0.74500006 2.1947949e-38
0.027671436 0.023414299 0.74500006 2.1204654e-38
0.029090483 0.023414314 0.74500006 1.9007417e-38
0.030632406 0.023508586 0.74800003 1.6688917e-38
0.03205717 0.023508608 0.74799997 1.5492533e-38
0.033571467 0.023571454 0.75 1.4203252e-38
0.035000015 0.023571469 0.75 1.2920427e-38
0.036428615 0.023571454 0.75 1.1519863e-38
0.037958097 0.0236343 0.75200003 5.8019558e-39
0.03939046 0.023634307 0.75200003 9.6623733e-41
0.040877141 0.023665726 0.75300002 4.4085354e-39
0.042311434 0.023665726 0.75300002 8.7639798e-39
0.043861903 0.023728587 0.75500011 1.6155019e-38
0.045360014 0.023760021 0.75600004 2.3415765e-38
0.047047585 0.023885712 0.76000005 2.3417561e-38
0.04855904 0.023917153 0.76100004 2.3415742e-38
0.050402839 0.024105728 0.76700002 2.3417512e-38
0.051863823 0.024105728 0.76699996 2.3413922e-38
0.053394299 0.024137162 0.76799995 2.3417508e-38
0.054857165 0.024137154 0.76800001 2.3405291e-38
0.075475238 0.025677174 0.81700003 6.2725665e-39
0.076842867 0.025614306 0.81500006 1.069214e-38
0.078395233 0.025614306 0.81500006 1.069787e-38
0.079849519 0.025582865 0.81400001 1.0696796e-38
0.081399985 0.02558288 0.81400001 1.0788636e-38
-0.02566666 0.025666684 0.77000004 3.7807131e-39
-0.024137124 0.025600009 0.76799995 3.5045073e-39
-0.022674272 0.025600009 0.76800001 2.8591645e-39
-0.0209905 0.025333345 0.76000005 2.3034965e-39
-0.019542877 0.025333345 0.76000005 2.0269222e-39
-0.018047631 0.025266692 0.75800002 1.8418275e-39
-0.016603816 0.025266692 0.75800002 1.9343916e-39
-0.015120002 0.025200002 0.75600004 2.0254915e-39
-0.013661918 0.025166683 0.75500005 1.2907893e-39
-0.012191425 0.025100008 0.75300002 5.5463673e-40
-0.010757148 0.0251 0.75300002 3.6877972e-40
-0.0093104839 0.025066696 0.75200003 9.2984561e-41
-0.0078781117 0.025066689 0.75200003 3.0479321e-39
-0.0064285682 0.025000021 0.75000006 6.0864404e-39
-0.0049999845 0.025000036 0.75 6.5528374e-39
-0.0035714204 0.025000021 0.75000006 7.01351e-39
-0.0021342845 0.024900019 0.74699998 8.585177e-39
-0.00071141444 0.024900019 0.74699998 1.0248263e-38
0.00070762314 0.024766684 0.74300003 1.0335795e-38
0.0021228609 0.024766691 0.74300003 1.0425117e-38
0.0035381126 0.024766676 0.74300003 1.061309e-38
0.0049533504 0.024766691 0.74300003 1.0904383e-38
0.0063685887 0.024766676 0.74300003 1.0989047e-38
0.0077733519 0.024733365 0.74199998 1.0991199e-38
0.0091990652 0.024766684 0.74300003 1.1168413e-38
0.010614303 0.024766684 0.74300003 1.1457552e-38
0.012029541 0.024766676 0.74300003 1.1173435e-38
0.013444778 0.024766684 0.74300003 1.0991167e-38
0.014860016 0.024766676 0.74300003 8.6722887e-39
0.016275253 0.024766691 0.74300003 6.3721231e-39
0.017690491 0.024766669 0.74300003 9.1426401e-39
0.019105729 0.024766684 0.74300003 1.2015734e-38
0.020520939 0.024766669 0.74300003 1.1634765e-38
0.021936176 0.024766684 0.74300003 1.1273879e-38
0.023414271 0.024833344 0.74500006 1.1354234e-38
0.024833348 0.024833351 0.74500006 1.1459703e-38
0.026252395 0.024833351 0.74500006 1.1081959e-38
0.027745726 0.024900019 0.74700004 1.0721775e-38
0.029168582 0.024900012 0.74700004 9.5070898e-39
0.030632414 0.024933368 0.74799997 8.3903334e-39
0.032142874 0.025000021 0.75000006 7.8382218e-39
0.033571444 0.025000036 0.75 7.2861368e-39
0.035000023 0.025000028 0.75000006 6.9123405e-39
0.036428589 0.025000021 0.75 6.6130722e-39
0.037958097 0.025066674 0.75200003 3.4059176e-39
0.039390456 0.025066689 0.75200003 9.3358708e-41
0.040877152 0.025100023 0.75300002 4.2356166e-39
0.042311441 0.025100015 0.75300002 8.4917538e-39
0.043861903 0.025166683 0.75500005 1.5962851e-38
0.045360003 0.025200002 0.75600004 2.3417675e-38
0.047109522 0.025366671 0.76100004 2.3417679e-38
0.048814256 0.025500007 0.76500005 2.3417675e-38
0.050402865 0.025566682 0.76700002 2.341767e-38
0.051863797 0.02556669 0.76700002 2.3417675e-38
0.053394284 0.025600001 0.76800001 2.3417679e-38
0.05485715 0.025600009 0.76800001 2.3417638e-38
0.056466673 0.025666676 0.77000004 2.2955191e-38
0.075659983 0.027300015 0.81900007 6.4573263e-39
0.077220008 0.027300015 0.81900001 1.1342171e-38
0.078395233 0.027166687 0.81500006 1.1250321e-38
0.079849519 0.027133346 0.81399995 1.1155977e-38
0.081399992 0.027133361 0.81399995 1.1248531e-38
-0.025666649 0.027133361 0.76999998 3.8736107e-39
-0.023980016 0.026886679 0.76300001 3.596696e-39
-0.02252668 0.026886679 0.76300001 2.8606037e-39
-0.020990498 0.026780963 0.76000005 2.1219793e-39
-0.019542875 0.026780963 0.76000005 2.1180402e-39
-0.01804762 0.026710495 0.75800002 2.0265648e-39
-0.01660382 0.026710503 0.75800002 2.2105974e-39
-0.015119999 0.026640013 0.75600004 2.3924691e-39
-0.013680008 0.026640005 0.75600004 1.2904375e-39
-0.012223817 0.026604787 0.75500005 9.5477471e-41
-0.01075714 0.026534304 0.75300002 9.2945325e-41
-0.0093104839 0.02649907 0.75200003 9.2970548e-41
-0.0078781117 0.02649907 0.75200003 9.2279708e-41
-0.0064285402 0.02642861 0.75 9.9119446e-41
-0.004999991 0.026428603 0.75 9.2328753e-41
-0.0035714074 0.02642861 0.75 1.0096075e-40
-0.0021342733 0.026322879 0.74699998 9.2373595e-41
-0.00071142282 0.026322864 0.74700004 1.0746138e-40
0.00071143318 0.026322871 0.74699998 9.8515486e-41
0.0021228599 0.026181914 0.74300003 1.064118e-40
0.0035380977 0.026181921 0.74300003 2.7896629e-40
0.0049533355 0.026181929 0.74300003 4.8201444e-40
0.0063685738 0.026181921 0.74300003 2.9512186e-40
0.0077838115 0.026181906 0.74300003 1.12883e-40
0.0091990503 0.026181921 0.74300003 4.5977443e-40
0.010614288 0.026181921 0.74300003 7.5787266e-40
0.012029526 0.026181914 0.74300003 4.805655e-40
0.013444765 0.026181914 0.74300003 1.132067e-40
0.014860002 0.026181914 0.74300003 9.2384805e-41
0.016275238 0.026181929 0.74300003 1.0245033e-40
0.017690497 0.026181921 0.74299997 8.3285053e-40
0.019157158 0.026252404 0.745 1.5858341e-39
0.020576185 0.026252396 0.74500006 8.4146852e-40
0.02199523 0.026252411 0.74500006 1.1324313e-40
0.023414278 0.026252404 0.74500006 9.2438054e-41
0.02490003 0.026322871 0.74699998 1.139606e-40
0.026322868 0.026322879 0.74700004 1.0678315e-40
0.027745724 0.026322879 0.74699998 1.1323052e-40
0.02916858 0.026322871 0.74699998 9.2771564e-41
0.030632401 0.02635812 0.74799997 1.0064126e-40
0.032142881 0.026428595 0.75000006 1.8420349e-40
0.033571452 0.026428603 0.75 2.8500869e-40
0.035 0.026428603 0.75000006 1.0128767e-39
0.036525689 0.026499078 0.75200003 1.7514773e-39
0.037958097 0.02649907 0.75200003 9.321031e-40
0.039442848 0.026534304 0.75300002 9.6245382e-41
0.040877137 0.026534297 0.75300002 4.1330513e-39
0.042423811 0.026604779 0.75500005 8.1258551e-39
0.043919992 0.026640013 0.75600004 1.5787057e-38
0.045479987 0.026710503 0.75800002 2.3415504e-38
0.047109533 0.026816212 0.76100004 2.3417661e-38
0.048814278 0.026957169 0.76499999 2.34173e-38
0.050402861 0.027027644 0.76700002 2.3417659e-38
0.051863823 0.027027644 0.76700002 2.3416947e-38
0.053394292 0.027062863 0.76800001 2.3416953e-38
0.05478571 0.027027644 0.76700002 2.3417652e-38
0.056319993 0.027062863 0.76800001 2.3417634e-38
0.057782862 0.027062863 0.76800001 2.3417554e-38
0.07565999 0.028860018 0.81900007 6.7346194e-39
0.077220015 0.02886001 0.81900001 1.1891021e-38
0.078395247 0.028719068 0.815 1.1805623e-38
0.079947621 0.028719082 0.815 1.1617654e-38
0.0814 0.028683819 0.81400001 1.1707346e-38
-0.025666658 0.028600007 0.77000004 3.7810438e-39
-0.024137136 0.028525725 0.76800001 3.5055723e-39
-0.022585733 0.028414302 0.76500005 2.9520832e-39
-0.020990482 0.028228581 0.76000005 2.3989221e-39
-0.019542858 0.028228581 0.76000005 2.0283557e-39
-0.018047625 0.028154306 0.75800002 1.660648e-39
-0.016603811 0.028154314 0.75800002 2.5757673e-39
-0.01516001 0.028154314 0.75800002 3.4005002e-39
-0.013679984 0.028080001 0.75600004 4.4261231e-39
-0.012239994 0.028080016 0.75600004 5.3315539e-39
-0.010785723 0.028042868 0.75500005 2.7569216e-39
-0.0093228528 0.027968593 0.75300002 9.2957936e-41
-0.0078780996 0.027931452 0.75200003 2.4925008e-39
-0.0064457268 0.027931452 0.75200003 4.7787066e-39
-0.0049999836 0.027857177 0.75000006 2.4835409e-39
-0.0035714009 0.02785717 0.75 9.257398e-41
-0.0021342826 0.027745724 0.74699998 1.8511153e-40
-0.00071141165 0.027745739 0.74699998 1.8407737e-40
0.00071144436 0.027745739 0.74699998 5.5325365e-40
0.0021285904 0.027671449 0.745 1.0106487e-39
0.0035476373 0.027671449 0.745 6.4403537e-40
0.0049666842 0.027671441 0.745 2.7598573e-40
0.0063685873 0.027597159 0.74300003 1.8882357e-40
0.007783825 0.027597144 0.74300003 9.2318944e-41
0.0091990633 0.027597159 0.74300003 2.7634306e-40
0.010614273 0.027597152 0.74300003 4.5963991e-40
0.012029539 0.027597152 0.74300003 8.3342366e-40
0.01344475 0.027597152 0.74300003 1.286144e-39
0.014860036 0.027597167 0.74299997 1.2879376e-39
0.016275223 0.027597152 0.74300003 1.1943239e-39
0.01769051 0.027597159 0.74299997 1.1050149e-39
0.019157141 0.027671449 0.74500006 1.0106725e-39
0.020520959 0.027597167 0.74299997 5.5580262e-40
0.021995235 0.027671441 0.745 9.2324549e-41
0.023414282 0.027671456 0.745 9.2328753e-41
0.024833331 0.027671449 0.745 9.2323148e-41
0.026322864 0.027745739 0.74699998 2.7993459e-40
0.027745748 0.027745724 0.74699998 4.5965532e-40
0.029207649 0.02778288 0.74799997 2.7598013e-40
0.030714311 0.02785717 0.75 9.2286714e-41
0.032142859 0.027857155 0.75000006 5.5251797e-40
0.033571459 0.027857177 0.75 9.2201095e-40
0.035000008 0.02785717 0.75000006 1.659562e-39
0.036525715 0.027931452 0.75200003 2.3042321e-39
0.037958074 0.027931444 0.75200003 1.2951445e-39
0.039442856 0.027968578 0.75300002 2.76706e-40
0.040877145 0.027968585 0.75300002 5.6214629e-39
0.042423811 0.028042875 0.75500005 1.0978502e-38
0.043919981 0.028080001 0.75600004 1.7250309e-38
0.045599997 0.028228596 0.76000005 2.341764e-38
0.047109526 0.028265737 0.76100004 2.3417282e-38
0.048814282 0.028414302 0.76499999 2.3416569e-38
0.050402854 0.028488591 0.76699996 2.3324378e-38
0.051931437 0.028525718 0.76800001 2.3323667e-38
0.053533345 0.028600015 0.77000004 2.3324749e-38
0.054857161 0.028525725 0.76800001 2.3417666e-38
0.07289429 0.0305686 0.82299995 1.2915446e-39
0.074280955 0.030494303 0.82100004 1.1086022e-39
0.075659998 0.03042002 0.81900001 6.6442118e-39
0.077220023 0.030420013 0.81900001 1.2171538e-38
0.078587621 0.030345745 0.81699997 1.1986767e-38
0.079947621 0.030271456 0.81500006 1.189351e-38
0.081400007 0.0302343 0.81399995 1.2170822e-38
0.082950458 0.030234292 0.81400001 1.2357e-38
-0.025600003 0.029988587 0.76800001 3.7803529e-39
-0.024105705 0.029949553 0.76699996 3.4123159e-39
-0.022526698 0.029793352 0.76300001 3.0435628e-39
-0.021018116 0.02971524 0.76100004 2.5815183e-39
-0.019542877 0.029676192 0.76000005 1.9350867e-39
-0.018047629 0.029598124 0.75800002 1.2893501e-39
-0.016603814 0.029598117 0.75800002 2.8473082e-39
-0.015119999 0.029520012 0.75600004 4.4383578e-39
-0.013679995 0.029520005 0.75600004 7.5902508e-39
-0.012240004 0.029520005 0.75600004 1.0588099e-38
-0.010785708 0.029480964 0.75500005 5.3268497e-39
-0.0093228649 0.02940286 0.75300002 1.0590313e-40
-0.0078780996 0.029363841 0.75200003 4.8225631e-39
-0.0064457287 0.029363833 0.75200003 9.4856752e-39
-0.004999991 0.029285744 0.75000006 4.7865903e-39
-0.0035714074 0.029285751 0.75 9.6532649e-41
-0.0021342714 0.029168606 0.74699998 1.8837936e-40
-0.00071142189 0.029168576 0.74700004 2.7736601e-40
0.00070953422 0.029090509 0.745 1.1035492e-39
0.0021285811 0.029090494 0.745 1.8375269e-39
0.0035476428 0.029090509 0.745 1.0110172e-39
0.0049666693 0.029090486 0.74500006 9.2667867e-41
0.0063685724 0.029012397 0.74300003 9.2316142e-41
0.0077838101 0.029012382 0.74300003 9.6981064e-41
0.0091990484 0.029012397 0.74300003 9.303781e-41
0.010614286 0.029012397 0.74300003 9.4133626e-41
0.012029544 0.029012404 0.74299997 1.2908846e-39
0.013444783 0.029012397 0.74299997 2.4947457e-39
0.014860021 0.029012404 0.74299997 2.395332e-39
0.016275257 0.029012404 0.74299997 2.2992169e-39
0.0177381 0.029090486 0.74500006 1.3819647e-39
0.019157147 0.029090494 0.74500006 3.6961769e-40
0.020576194 0.029090494 0.745 2.7813673e-40
0.021995241 0.029090501 0.745 9.3039212e-41
0.02347715 0.029168598 0.74699998 9.2330155e-41
0.024900032 0.029168591 0.74699998 9.2686084e-41
0.02632287 0.029168583 0.74700004 4.6074273e-40
0.027782872 0.029207632 0.74800003 8.334615e-40
0.029207634 0.029207647 0.74799997 4.5965813e-40
0.030714316 0.029285736 0.75 9.2662262e-41
0.032142866 0.029285744 0.75000006 8.2805108e-40
0.033571437 0.029285744 0.75 1.5710013e-39
0.035000034 0.029285751 0.75 2.2149414e-39
0.036525715 0.029363833 0.75200003 2.8635282e-39
0.037958074 0.029363833 0.75200003 1.6667955e-39
0.039390478 0.029363826 0.75200003 3.893788e-40
0.040877156 0.029402867 0.75300002 7.0980644e-39
0.042423792 0.029480964 0.75500005 1.3831891e-38
0.043920018 0.029520005 0.75600004 1.863466e-38
0.045660008 0.029715255 0.76100004 2.341585e-38
0.047233328 0.029793359 0.76299995 2.3417648e-38
0.048941899 0.029949538 0.76700002 2.3416216e-38
0.050468575 0.029988587 0.76800001 2.3322589e-38
0.051931437 0.029988572 0.76800001 2.3139996e-38
0.053394306 0.029988579 0.76800001 2.3323667e-38
0.054857146 0.029988572 0.76800001 2.3416939e-38
0.071326666 0.032136232 0.82299995 2.3924733e-39
0.072717175 0.032058112 0.82099998 1.562721e-39
0.074280955 0.032058112 0.82099998 7.5236695e-40
0.075475246 0.031901926 0.81700003 6.5620607e-39
0.077031426 0.031901933 0.81699997 1.2352698e-38
0.078587614 0.031901933 0.81699997 1.2259765e-38
0.079947613 0.031823829 0.81500006 1.217153e-38
0.0814 0.031784773 0.81400001 1.2541756e-38
0.082950465 0.031784773 0.81399995 1.2909106e-38
-0.025599997 0.031451434 0.76800001 3.7796607e-39
-0.023980016 0.031246684 0.76300001 3.5952834e-39
-0.02252668 0.031246684 0.76300001 3.0428467e-39
-0.021018105 0.03116478 0.76100004 2.5808022e-39
-0.019568576 0.03116478 0.76100004 1.8410988e-39
-0.018095253 0.03112381 0.76000005 1.1024421e-39
-0.016603818 0.031041928 0.75800002 5.6335631e-39
-0.015160005 0.031041935 0.75800002 1.0159466e-38
-0.013680004 0.030960016 0.75600004 8.2224452e-39
-0.01224 0.030960009 0.75600004 6.2872941e-39
-0.01078573 0.030919068 0.75500005 4.9716738e-39
-0.0093228566 0.030837156 0.75300002 3.6807038e-39
-0.0078885797 0.030837148 0.75300002 7.4772768e-39
-0.0064457157 0.030796207 0.75200003 1.1249244e-38
-0.0049999855 0.030714311 0.75000006 6.0830352e-39
-0.0035714158 0.030714318 0.75 1.0120304e-39
-0.0021371194 0.030632399 0.74799997 1.9304218e-39
-0.00071140978 0.030591443 0.74699998 2.8473446e-39
0.0007095398 0.030509546 0.745 2.5725584e-39
0.0021285671 0.030509546 0.74500006 2.2963442e-39
0.0035381089 0.030427642 0.74300003 1.1946868e-39
0.0049533476 0.030427627 0.74300003 9.3022396e-41
0.0063685854 0.030427635 0.74300003 4.1524397e-39
0.0077838236 0.030427627 0.74300003 8.0995836e-39
0.0091990819 0.03042765 0.74299997 6.0688093e-39
0.01061432 0.030427635 0.74299997 4.043102e-39
0.01202953 0.03042765 0.74299997 6.8287124e-39
0.013444796 0.030427635 0.74299997 9.6902311e-39
0.014900012 0.030509539 0.74500006 5.4377275e-39
0.016319059 0.030509531 0.74500006 1.194677e-39
0.017738106 0.030509539 0.745 7.3661216e-40
0.019157153 0.030509554 0.745 2.7742346e-40
0.0205762 0.030509546 0.745 1.8521662e-40
0.021995246 0.030509546 0.745 9.2676275e-41
0.023477154 0.030591443 0.74700004 3.3094424e-39
0.02490001 0.030591443 0.74699998 6.521175e-39
0.026322866 0.030591451 0.74699998 7.5564767e-39
0.027782882 0.030632414 0.74799997 8.5652281e-39
0.029207621 0.030632392 0.74800003 5.0618418e-39
0.030714294 0.030714318 0.75 1.6535238e-39
0.032142892 0.030714318 0.75 2.6694512e-39
0.033571444 0.030714326 0.75 3.7880124e-39
0.035000041 0.030714311 0.75 5.3542703e-39
0.036525711 0.030796215 0.75200003 6.9215414e-39
0.037958071 0.030796207 0.75200003 7.1076927e-39
0.03939046 0.030796215 0.75200003 7.3936599e-39
0.040877145 0.030837156 0.75300002 1.0608677e-38
0.0424238 0.03091906 0.75500011 1.384089e-38
0.043920007 0.030960009 0.75600004 1.7435779e-38
0.045659993 0.031164773 0.76100004 2.1029925e-38
0.047233313 0.031246692 0.76300001 2.1393327e-38
0.048941892 0.0314105 0.76700002 2.1854301e-38
0.050468575 0.031451441 0.76799995 2.2588629e-38
0.051931445 0.031451441 0.76800001 2.3324026e-38
0.074280962 0.033621907 0.82100004 6.4493823e-39
0.075475223 0.033458121 0.81700003 1.1068813e-38
0.077031411 0.033458121 0.81700003 1.5661646e-38
0.078395255 0.033376217 0.815 1.3641604e-38
0.079947628 0.033376217 0.815 1.1715944e-38
0.081400007 0.033335261 0.81399995 1.2449924e-38
0.082950473 0.033335261 0.81399995 1.3093513e-38
-0.023980012 0.032700025 0.76299995 3.6871231e-39
-0.022526683 0.03270001 0.76300001 3.1346907e-39
-0.021018092 0.032614306 0.76100004 2.4868227e-39
-0.019542873 0.032571435 0.76000005 1.7453256e-39
-0.018047623 0.032485738 0.75800002 9.4036376e-40
-0.016603824 0.032485746 0.75800002 8.4253491e-39
-0.015120004 0.032399997 0.75600004 1.5852943e-38
-0.01368 0.032400005 0.75600004 8.9445133e-39
-0.012240008 0.032399997 0.75600004 1.9495313e-39
-0.010785714 0.032357164 0.75500005 4.5922541e-39
-0.0093228612 0.032271452 0.75300002 7.2863989e-39
-0.0078781089 0.032228597 0.75200003 1.0155607e-38
-0.0064457175 0.032228589 0.75200003 1.2904504e-38
-0.0049999929 0.032142878 0.75000006 7.4685635e-39
-0.0035618725 0.032057181 0.74799997 1.9483962e-39
-0.0021342686 0.032014303 0.74699998 3.6742662e-39
-0.00071143307 0.03201431 0.74700004 5.3420244e-39
0.0007095249 0.031928584 0.74500006 4.0427068e-39
0.0021285717 0.031928584 0.74500006 2.7620055e-39
0.0035380959 0.031842865 0.74300003 1.4698234e-39
0.0049533336 0.031842865 0.74300003 1.1998058e-40
0.0063685919 0.031842873 0.74299997 8.140587e-39
0.0077838292 0.03184288 0.74299997 1.611445e-38
0.009199067 0.031842873 0.74299997 1.2039568e-38
0.010614305 0.03184288 0.74299997 8.0272205e-39
0.012029544 0.031842865 0.74299997 1.24745e-38
0.013444781 0.03184288 0.74299997 1.6768075e-38
0.014860019 0.031842873 0.74299997 8.4712178e-39
0.016275257 0.03184288 0.74299997 9.807688e-41
0.017738109 0.031928591 0.745 9.2370792e-41
0.019157158 0.031928591 0.745 9.7698529e-41
0.020576203 0.031928606 0.745 9.2264293e-41
0.021995232 0.031928584 0.74500006 9.5913275e-41
0.02347715 0.032014303 0.74699998 6.5312756e-39
0.024900006 0.03201431 0.74699998 1.2991355e-38
0.026358107 0.032057174 0.74800003 1.4678142e-38
0.027782867 0.032057174 0.74799997 1.6303862e-38
0.029285723 0.032142892 0.75 9.7529967e-39
0.030714301 0.032142878 0.75000006 3.1404598e-39
0.032142874 0.032142892 0.75 4.5922274e-39
0.033571448 0.032142878 0.75000006 5.9996089e-39
0.035000023 0.032142885 0.75 8.4925147e-39
0.036525693 0.032228574 0.75200009 1.0883801e-38
0.037958097 0.032228582 0.75200003 1.2632239e-38
0.03944286 0.032271437 0.75300002 1.4287463e-38
0.04098573 0.032357164 0.75500005 1.4009477e-38
0.042479996 0.032400005 0.75600004 1.374727e-38
0.044036184 0.032485731 0.75800002 1.6145064e-38
0.045779981 0.032700025 0.76299995 1.8537094e-38
0.047357116 0.032785729 0.76500005 1.9363257e-38
0.048941914 0.03287144 0.76700002 2.0193362e-38
0.05046856 0.032914303 0.76800001 2.1852857e-38
0.05206668 0.033000022 0.77000004 2.3414421e-38
0.072717175 0.035185732 0.82099998 6.0616234e-39
0.074280955 0.035185732 0.82099998 1.2071511e-38
0.075475231 0.035014324 0.81699997 1.5510003e-38
0.077031426 0.035014302 0.81700003 1.8890993e-38
0.078587636 0.035014316 0.81699997 1.5112043e-38
0.079947621 0.03492859 0.81500006 1.1255312e-38
0.081399985 0.034885734 0.81400001 1.2265144e-38
0.08295045 0.034885734 0.81399995 1.3276798e-38
-0.022585748 0.034242876 0.76500005 2.3996564e-39
-0.021018116 0.034063831 0.76100004 1.2922522e-39
-0.019568572 0.034063824 0.76100004 3.4044714e-39
-0.018047627 0.033929549 0.75800002 5.5286213e-39
-0.016603813 0.033929542 0.75800002 1.0432946e-38
-0.015119996 0.033840023 0.75600004 1.5403486e-38
-0.01367999 0.033840008 0.75600004 1.0965193e-38
-0.012239999 0.033840008 0.75600004 6.6159518e-39
-0.01078572 0.033795245 0.75500005 9.1271081e-39
-0.009310483 0.033660978 0.75200003 1.1635388e-38
-0.0078781117 0.033660971 0.75200003 1.3471402e-38
-0.0064285486 0.033571452 0.75 1.5305569e-38
-0.0049999799 0.033571452 0.75 1.2449308e-38
-0.0035714158 0.033571459 0.75 9.688841e-39
-0.002134278 0.033437163 0.74700004 1.0146202e-38
-0.00071142189 0.033437163 0.74699998 1.0711586e-38
0.00070952956 0.033347629 0.745 7.0094869e-39
0.0021228767 0.033258118 0.74299997 3.3306216e-39
0.0035381285 0.033258125 0.74299997 5.907332e-39
0.0049533392 0.033258118 0.74299997 8.5918597e-39
0.006368605 0.03325811 0.74299997 1.2283707e-38
0.0077838143 0.033258118 0.74299997 1.5974253e-38
0.0091990801 0.033258125 0.74299997 1.4934195e-38
0.01061429 0.033258118 0.74299997 1.3929123e-38
0.01202953 0.033258118 0.74299997 1.6145108e-38
0.013444767 0.033258118 0.74299997 1.8344039e-38
0.014900023 0.033347636 0.745 1.2157958e-38
0.016319068 0.033347651 0.745 5.9698552e-39
0.017738117 0.033347644 0.745 6.6364094e-39
0.019157143 0.033347644 0.74500006 7.2752179e-39
0.020631436 0.03343717 0.74699998 4.0468897e-39
0.022054292 0.033437163 0.74699998 8.3060565e-40
0.023477156 0.033437163 0.74700004 8.4925217e-39
0.024933353 0.033481941 0.74800003 1.6245141e-38
0.026358115 0.033481933 0.74799997 1.6606438e-38
0.027782882 0.033481933 0.74800003 1.6974394e-38
0.029285731 0.033571467 0.75 1.4016541e-38
0.030714309 0.033571459 0.75000006 1.1164218e-38
0.032142881 0.033571459 0.75 1.1065882e-38
0.03357143 0.033571444 0.75000006 1.1074966e-38
0.035000026 0.033571459 0.75 1.2270736e-38
0.036525689 0.033660978 0.75200003 1.3559645e-38
0.037958097 0.033660978 0.75200003 1.3467793e-38
0.039442848 0.033705711 0.75300002 1.3380269e-38
0.040985707 0.033795252 0.75500005 1.3278037e-38
0.04259238 0.033929557 0.75800002 1.3197343e-38
0.04415236 0.03401906 0.76000005 1.5038378e-38
0.045779992 0.034153342 0.76300001 1.6967281e-38
0.047357142 0.034242876 0.76499999 1.706055e-38
0.04894191 0.034332395 0.76700002 1.7152021e-38
0.050468598 0.034377165 0.76800001 1.7891721e-38
0.052066673 0.034466691 0.76999998 1.8725784e-38
0.07271716 0.036749527 0.82100004 7.4607442e-39
0.074100003 0.036660016 0.81900001 1.4846738e-38
0.075475253 0.036570512 0.81699997 1.7985698e-38
