# .PCD v0.7 - Point Cloud Data file format
VERSION 0.7
FIELDS x y z rgb
SIZE 4 4 4 4
TYPE F F F F
COUNT 1 1 1 1
WIDTH 971
HEIGHT 1
VIEWPOINT 0 0 0 1 0 0 0
POINTS 971
DATA ascii
-0.033085704 0.031615227 0.77200007 9.4925962e-39
-0.031615231 0.03161522 0.77200007 8.9433909e-39
-0.022585709 0.031328551 0.76500005 1.5659763e-39
-0.021073328 0.031246655 0.76300001 1.1971979e-39
-0.019568559 0.031164743 0.76100004 1.0120906e-39
-0.01809524 0.031123802 0.76000005 8.280679e-40
-0.016647611 0.031123802 0.76000011 7.3695688e-40
-0.015159981 0.031041875 0.75800008 5.5399494e-40
-0.013716173 0.031041883 0.75800008 4.6250837e-40
-0.012239984 0.030959986 0.7560001 3.7174627e-40
-0.010785706 0.030919023 0.75500011 5.5469699e-40
-0.0093228556 0.030837141 0.75300002 7.3800224e-40
-0.0078885723 0.030837141 0.75300002 6.4615834e-40
-0.0064542852 0.030837148 0.75300002 5.5469279e-40
-0.0050200024 0.030837148 0.75300002 4.6214963e-40
-0.0035809476 0.03079617 0.75200009 3.7032255e-40
-0.002142854 0.030714281 0.75000006 2.7741786e-40
-0.00071427971 0.030714273 0.75000006 1.848649e-40
0.00071239332 0.030632369 0.74800009 3.6889462e-40
0.0021371562 0.030632369 0.74800009 5.5256001e-40
0.0035619186 0.030632362 0.74800009 7.3694286e-40
0.0049866815 0.030632362 0.74800009 9.2097539e-40
0.0064114439 0.030632354 0.74800009 7.3658974e-40
0.0078361966 0.030632369 0.74800003 4.6107764e-40
0.009260959 0.030632369 0.74800003 5.5290753e-40
0.010714289 0.030714273 0.75000006 6.4510596e-40
0.012142857 0.030714281 0.75000006 5.5327327e-40
0.013571431 0.030714259 0.75000006 5.5290193e-40
0.014999998 0.030714273 0.75000006 3.6850086e-40
0.016428571 0.030714266 0.75000006 9.2313339e-41
0.017857146 0.030714281 0.75000006 8.1218558e-39
0.01928572 0.030714273 0.75000006 1.6240756e-38
0.020769529 0.030796185 0.75200003 1.2351806e-38
0.022201909 0.030796178 0.75200003 8.471711e-39
0.023665711 0.030837156 0.75300002 1.041205e-38
0.025100002 0.030837134 0.75300002 1.2453999e-38
0.026604775 0.03091903 0.75500011 1.4113899e-38
0.02804286 0.03091903 0.75500005 1.5869147e-38
0.029520012 0.030959979 0.7560001 1.4207827e-38
0.030960014 0.030959986 0.7560001 1.2558032e-38
0.032400008 0.030959994 0.7560001 1.244935e-38
0.033929534 0.031041883 0.75800008 1.2366511e-38
0.035466682 0.031123795 0.76000011 1.4484854e-38
0.036914296 0.031123802 0.76000005 1.6602077e-38
0.038412385 0.03116475 0.76100004 1.8722169e-38
0.039966676 0.031246655 0.76300001 2.0747963e-38
0.041528579 0.031328566 0.76500005 2.0562172e-38
0.043098114 0.031410471 0.76700008 2.0380279e-38
0.044559058 0.031410463 0.76700008 2.0286276e-38
-0.04190857 0.033085711 0.77200001 2.3416904e-38
-0.040438101 0.033085704 0.77200001 2.3231079e-38
-0.038967613 0.033085704 0.77200001 2.2941506e-38
-0.037399996 0.032999992 0.7700001 1.5565535e-38
-0.035933323 0.032999985 0.7700001 8.117907e-39
-0.034556184 0.033085696 0.77200007 9.6891703e-39
-0.033085711 0.033085696 0.77200007 1.1248949e-38
-0.031615224 0.033085689 0.77200007 9.9668474e-39
-0.028674267 0.033085704 0.77200007 4.9663391e-39
-0.027203795 0.033085696 0.77200007 1.2011048e-39
-0.022585714 0.032785699 0.76500005 1.4737722e-39
-0.021073325 0.032699995 0.76300001 1.1053512e-39
-0.019619996 0.032700002 0.76300001 9.1916771e-40
-0.018119046 0.032614268 0.76100004 6.4474723e-40
-0.016647613 0.03257142 0.76000005 5.5363761e-40
-0.015159989 0.032485686 0.75800002 4.6251397e-40
-0.013716171 0.032485694 0.75800008 3.7031274e-40
-0.012272364 0.032485686 0.75800008 2.7883878e-40
-0.010799994 0.03239999 0.7560001 4.6107624e-40
-0.0093228547 0.032271415 0.75300002 5.5399074e-40
-0.0078885667 0.032271437 0.75300002 6.454689e-40
-0.0064542843 0.032271422 0.75300002 6.4690103e-40
-0.0050133253 0.032228552 0.75200003 4.6214963e-40
-0.0035809532 0.032228567 0.75200003 2.7848705e-40
-0.0021428573 0.032142848 0.75000006 1.8522363e-40
-0.00071238028 0.032057121 0.74800003 9.3738459e-41
0.00071238261 0.032057129 0.74800003 3.6959527e-40
0.0021371525 0.032057136 0.74800003 5.5327047e-40
0.0035619149 0.032057129 0.74800003 7.373044e-40
0.0049866773 0.032057114 0.74800009 9.2097679e-40
0.0064114411 0.032057129 0.74800009 6.4475424e-40
0.007836204 0.032057121 0.74800009 2.7739824e-40
0.0092609664 0.032057121 0.74800009 2.7738563e-40
0.01068572 0.032057129 0.74800003 1.8627881e-40
0.012142859 0.03214284 0.75000006 2.7812552e-40
0.013571434 0.032142848 0.75000006 3.6888341e-40
0.015000003 0.03214284 0.75000006 2.7597032e-40
0.016428577 0.032142848 0.75000006 1.2071345e-40
0.017857144 0.03214284 0.75000006 9.8169674e-39
0.019285718 0.032142833 0.75000006 1.9439954e-38
0.020714292 0.032142848 0.75000006 1.194172e-38
0.022201914 0.032228552 0.75200009 4.536069e-39
0.023634292 0.032228559 0.75200003 1.1261965e-38
0.025100011 0.032271422 0.75300002 1.7974935e-38
0.026604772 0.032357126 0.75500011 1.8253321e-38
0.028042866 0.032357112 0.75500011 1.8442e-38
0.029520012 0.032399975 0.7560001 1.5504326e-38
0.030960009 0.032399997 0.7560001 1.254478e-38
0.032400005 0.03239999 0.7560001 1.2528993e-38
0.033929538 0.032485686 0.75800008 1.2548028e-38
0.035373338 0.032485701 0.75800008 1.4485923e-38
0.036914296 0.032571413 0.76000011 1.6416979e-38
0.038412392 0.032614261 0.7610001 1.7250315e-38
0.039966673 0.032699987 0.76300001 1.8076124e-38
0.041528579 0.032785699 0.76500005 1.7702689e-38
0.043154299 0.032914259 0.76800007 1.7247089e-38
0.044617157 0.032914266 0.76800007 1.7150221e-38
-0.0374 0.034466654 0.7700001 1.5756079e-38
-0.036026649 0.034556188 0.77200007 8.2976627e-39
-0.03455618 0.03455618 0.77200007 9.594109e-39
-0.033085708 0.03455618 0.77200007 1.0979897e-38
-0.03161522 0.034556173 0.77200007 9.5937587e-39
-0.03014476 0.034556188 0.77200001 8.2014566e-39
-0.028674288 0.03455618 0.77200001 4.7869799e-39
-0.027203802 0.034556195 0.77200001 1.2943808e-39
-0.022585718 0.034242846 0.76500005 1.6577907e-39
-0.021128563 0.034242839 0.76500005 1.3819241e-39
-0.019619994 0.034153335 0.76300001 1.1046212e-39
-0.018119041 0.034063779 0.7610001 8.2840842e-40
-0.01666951 0.034063786 0.7610001 8.2985456e-40
-0.015159988 0.033929512 0.75800002 9.2276345e-40
-0.013716179 0.033929504 0.75800002 1.1057128e-39
-0.012272376 0.03392949 0.75800008 1.3808675e-39
-0.010799984 0.033839978 0.7560001 1.1050093e-39
-0.0093476148 0.033795215 0.75500005 7.3839741e-40
-0.0079095205 0.03379523 0.75500011 6.4729059e-40
-0.0064542792 0.033705704 0.75300002 5.5759067e-40
-0.0050133206 0.033660948 0.75200003 4.6430203e-40
-0.0035809488 0.033660941 0.75200003 3.7175748e-40
-0.0021428596 0.033571415 0.75000006 3.7032955e-40
-0.00071237609 0.033481896 0.74800003 4.617895e-40
0.0007123868 0.033481896 0.74800003 6.4508354e-40
0.0021371497 0.033481888 0.74800003 8.2876995e-40
0.0035619121 0.033481896 0.74800003 9.2097819e-40
0.0049866745 0.033481888 0.74800003 1.1046492e-39
0.0064114374 0.033481881 0.74800003 8.2842383e-40
0.0078362003 0.033481888 0.74800009 4.6034476e-40
0.0092609627 0.033481896 0.74800009 4.6139994e-40
0.010685725 0.033481888 0.74800009 4.6249576e-40
0.012142857 0.033571407 0.75000006 3.6924355e-40
0.013571432 0.033571407 0.75000006 2.7598293e-40
0.015000006 0.033571407 0.75000006 3.0389483e-39
0.016428573 0.033571415 0.75000006 5.90964e-39
0.017857147 0.033571407 0.75000006 1.3112743e-38
0.019285714 0.033571415 0.75000006 2.0290533e-38
0.020769527 0.033660941 0.75200003 1.6221343e-38
0.022201907 0.033660948 0.75200003 1.2182822e-38
0.023634285 0.033660948 0.75200003 1.4121857e-38
0.025100008 0.033705704 0.75300002 1.6155127e-38
0.02660477 0.03379523 0.75500011 1.5590816e-38
0.028080013 0.033839971 0.7560001 1.5049133e-38
0.029520011 0.033839986 0.7560001 1.2916829e-38
0.030960012 0.033839986 0.7560001 1.0780915e-38
0.032485727 0.033929504 0.75800002 1.2166676e-38
0.033929527 0.033929512 0.75800002 1.3565033e-38
0.035466678 0.034019046 0.76000011 1.4944017e-38
0.036914293 0.034019046 0.76000005 1.6410891e-38
0.038412388 0.034063794 0.76100004 1.6877617e-38
0.040071424 0.034242846 0.76500005 1.733821e-38
0.041691452 0.034377135 0.76800007 1.696762e-38
0.043266676 0.034466639 0.7700001 1.6601708e-38
0.044733353 0.034466639 0.7700001 1.6323326e-38
0.046320006 0.034556173 0.77200007 1.6138941e-38
-0.036026642 0.036026649 0.77200007 8.4863448e-39
-0.034600958 0.036073305 0.77300012 9.5937573e-39
-0.033128571 0.03607332 0.77300006 1.0606106e-38
-0.031656187 0.036073305 0.77300012 9.2267853e-39
-0.030183798 0.036073312 0.77300006 7.7390533e-39
-0.028674282 0.036026657 0.77200001 4.5939791e-39
-0.027133321 0.035933308 0.7700001 1.3826262e-39
-0.025666663 0.035933308 0.7700001 1.6595872e-39
-0.024105702 0.035793304 0.76700008 1.9347406e-39
-0.022585707 0.035699978 0.7650001 1.7500004e-39
-0.021128567 0.035699978 0.76500005 1.5656049e-39
-0.019620005 0.035606667 0.76300001 1.2890152e-39
-0.018119045 0.035513304 0.76100004 9.2167884e-40
-0.016647616 0.035466649 0.76000005 1.1057142e-39
-0.015199986 0.035466664 0.76000011 1.2890208e-39
-0.013716177 0.035373315 0.75800002 1.9318637e-39
-0.012272359 0.035373308 0.75800008 2.4825277e-39
-0.01079999 0.035279989 0.7560001 1.747855e-39
-0.0093476065 0.035233319 0.75500011 9.2205999e-40
-0.0079095224 0.035233319 0.75500011 7.3983094e-40
-0.0064542782 0.035139993 0.75300002 4.6430343e-40
-0.0050199954 0.03514 0.75300008 4.6500128e-40
-0.0035809544 0.035093345 0.75200003 4.6358036e-40
-0.0021428484 0.034999982 0.75000006 6.465465e-40
-0.00071236119 0.034906656 0.74800009 7.3801626e-40
0.00071239099 0.034906648 0.74800003 9.2024391e-40
0.002137146 0.034906663 0.74800003 1.0124494e-39
0.0035619084 0.03490667 0.74800003 1.1964889e-39
0.0049866708 0.034906656 0.74800003 1.288323e-39
0.0064114342 0.034906648 0.74800003 1.0113802e-39
0.0078361975 0.034906656 0.74800003 6.4438149e-40
0.0092609599 0.034906656 0.74800003 6.4544368e-40
0.010714295 0.034999974 0.75000006 6.4545068e-40
0.012142862 0.034999982 0.75000006 3.6887501e-40
0.013571437 0.034999989 0.75000006 9.2673473e-41
0.015000004 0.034999989 0.75000006 5.8779748e-39
0.016428579 0.034999982 0.75000006 1.1706405e-38
0.017857146 0.034999989 0.75000006 1.643317e-38
0.01928572 0.034999974 0.75000006 2.1116723e-38
0.020769531 0.035093315 0.75200003 2.0470946e-38
0.022201911 0.03509333 0.75200003 1.9724817e-38
0.023728583 0.035233319 0.75500011 1.6978756e-38
0.025166685 0.035233304 0.75500011 1.4201447e-38
0.02660477 0.035233326 0.75500011 1.2905344e-38
0.028080013 0.035279974 0.7560001 1.1626477e-38
0.029598106 0.035373315 0.75800002 1.0332902e-38
0.031041924 0.035373308 0.75800008 8.9546335e-39
0.032485731 0.035373315 0.75800008 1.1700355e-38
0.033929531 0.035373315 0.75800002 1.4483416e-38
0.035513345 0.035513319 0.7610001 1.5498285e-38
0.03706 0.03560666 0.76300001 1.6416636e-38
0.038513333 0.035606652 0.76300001 1.6510261e-38
0.040176198 0.035793312 0.76700008 1.6600653e-38
0.041691445 0.035839975 0.76800007 1.6227923e-38
0.043266676 0.035933316 0.7700001 1.5862371e-38
0.044733349 0.035933308 0.7700001 1.5493948e-38
0.04632001 0.036026657 0.77200007 1.5125887e-38
-0.034600951 0.037545696 0.77300006 8.116863e-39
-0.03329999 0.037739977 0.77700007 8.3995512e-39
-0.031738095 0.037642848 0.7750001 8.1193881e-39
-0.030261897 0.037642863 0.77500004 7.9241634e-39
-0.028674275 0.037497126 0.77200007 4.5082378e-39
-0.027203804 0.037497126 0.77200007 1.1964412e-39
-0.025666665 0.037399977 0.7700001 1.6595858e-39
-0.024105707 0.037254266 0.76700008 2.1209297e-39
-0.02258572 0.037157133 0.76500005 1.7514493e-39
-0.02112858 0.037157133 0.76500005 1.3826612e-39
-0.019619999 0.037059993 0.76300001 1.0142318e-39
-0.018119048 0.036962837 0.76100004 6.4653109e-40
-0.016647607 0.036914282 0.76000011 9.2167884e-40
-0.015199987 0.036914282 0.76000011 1.195742e-39
-0.013716174 0.036817119 0.75800008 1.4719575e-39
-0.012272381 0.036817133 0.75800002 1.8385975e-39
-0.010799996 0.036719978 0.7560001 1.288316e-39
-0.0093599847 0.036719993 0.7560001 8.2913989e-40
-0.0079095131 0.036671408 0.75500011 7.38382e-40
-0.0064542876 0.036574289 0.75300002 6.4616535e-40
-0.0050199898 0.036574282 0.75300002 5.5538363e-40
-0.0035857072 0.036574267 0.75300002 5.5432705e-40
-0.0021428512 0.036428563 0.75000006 7.3837499e-40
-0.00071427692 0.036428563 0.75000006 9.2276625e-40
0.00071428344 0.036428563 0.75000006 1.0135269e-39
0.0021371534 0.036331408 0.74800009 1.1964875e-39
0.0035619056 0.036331423 0.74800003 1.1968518e-39
0.004986668 0.03633143 0.74800003 1.1979266e-39
0.0064114304 0.036331423 0.74800003 1.0124592e-39
0.0078361938 0.036331415 0.74800003 9.1989639e-40
0.0092609571 0.036331415 0.74800003 7.3693305e-40
0.01068572 0.036331415 0.74800003 6.4616955e-40
0.012142866 0.036428563 0.75000006 3.6886379e-40
0.013571433 0.036428556 0.75000006 1.8415444e-40
0.015000007 0.036428548 0.75000006 3.1361999e-39
0.016428575 0.036428556 0.75000006 6.1148531e-39
0.017857149 0.036428556 0.75000006 8.3286875e-39
0.019285724 0.036428563 0.75000006 1.0649299e-38
0.02071429 0.036428563 0.75000006 1.0620213e-38
0.022142865 0.036428541 0.75000006 1.0532306e-38
0.023728579 0.036671408 0.75500011 1.2633025e-38
0.025166681 0.0366714 0.75500011 1.4714769e-38
0.026604775 0.036671408 0.75500011 1.5477812e-38
0.028080015 0.036719985 0.7560001 1.6207858e-38
0.029520012 0.036719985 0.7560001 1.5673372e-38
0.030960007 0.036719978 0.7560001 1.5035174e-38
0.032485735 0.036817126 0.75800008 1.5406807e-38
0.034019057 0.036914289 0.76000005 1.57921e-38
0.035513341 0.036962837 0.76100004 1.559481e-38
0.036962867 0.03696283 0.76100004 1.5502233e-38
0.038513333 0.03706 0.76300001 1.6418769e-38
0.040176205 0.037254266 0.76700008 1.7427889e-38
0.041691445 0.037302852 0.76800007 1.6874369e-38
0.043154299 0.037302852 0.76800007 1.6411241e-38
0.044733349 0.037399992 0.7700001 1.5860583e-38
0.04632001 0.03749714 0.77200001 1.5399609e-38
0.047790479 0.03749714 0.77200001 1.503298e-38
-0.034869514 0.039320942 0.7790001 6.6431426e-39
-0.033385694 0.039320935 0.7790001 6.1904658e-39
-0.031820003 0.039220002 0.77700001 7.1110152e-39
-0.030261904 0.039119028 0.7750001 8.0152955e-39
-0.028711423 0.039018065 0.77300012 4.5014275e-39
-0.0272038 0.038967609 0.77200007 1.0149226e-39
-0.025666665 0.038866654 0.7700001 1.6617326e-39
-0.024105702 0.038715217 0.76700008 2.212384e-39
-0.022585711 0.038614273 0.76500005 1.7524877e-39
-0.021128571 0.038614277 0.76500005 1.198972e-39
-0.019619986 0.038513318 0.76300007 7.3800925e-40
-0.018119045 0.038412366 0.7610001 2.7883597e-40
-0.016669512 0.038412359 0.7610001 7.3801766e-40
-0.015199992 0.038361896 0.76000011 1.1049953e-39
-0.013716173 0.038260929 0.75800008 1.104631e-39
-0.012272364 0.038260926 0.75800002 1.1049995e-39
-0.010828557 0.038260933 0.75800002 9.2098099e-40
-0.0093599902 0.03816 0.7560001 7.3802747e-40
-0.0079199839 0.038159981 0.7560001 7.3802747e-40
-0.0064714164 0.038109496 0.75500005 7.3908965e-40
-0.0050199996 0.038008563 0.75300002 7.3943437e-40
-0.0035857165 0.038008571 0.75300002 6.4689262e-40
-0.0021428545 0.037857123 0.75000006 9.2133552e-40
-0.00071427971 0.03785713 0.75000006 1.1057226e-39
0.00071429461 0.037857126 0.75000006 1.1975581e-39
0.002142862 0.037857134 0.75000006 1.2886817e-39
0.0035619205 0.037756179 0.74800009 1.1957756e-39
0.0050000036 0.03785713 0.75000006 1.1053737e-39
0.0064114351 0.037756186 0.74800003 1.1039373e-39
0.0078571457 0.037857119 0.75000006 1.1035716e-39
0.009285721 0.037857126 0.75000006 8.2841682e-40
0.010714288 0.037857126 0.75000006 5.5291174e-40
0.012142862 0.03785713 0.75000006 4.6035878e-40
0.013571437 0.037857123 0.75000006 2.7707174e-40
0.015000003 0.037857115 0.75000012 3.6821499e-40
0.016428577 0.037857119 0.75000006 3.8725444e-40
0.017857144 0.037857134 0.75000012 3.0046922e-40
0.019362859 0.038008571 0.75300002 1.2078492e-40
0.020714294 0.037857123 0.75000006 7.367691e-40
0.022290492 0.038109504 0.75500011 1.3308384e-39
0.023728577 0.038109507 0.75500011 8.3056824e-39
0.025166681 0.038109496 0.75500011 1.5212006e-38
0.026640004 0.038159993 0.75600004 1.8082589e-38
0.028080011 0.038159974 0.7560001 2.0830121e-38
0.029520009 0.038159989 0.7560001 2.1025273e-38
0.030960012 0.038159981 0.7560001 2.1107422e-38
0.032571435 0.0383619 0.76000005 1.909888e-38
0.034019057 0.038361903 0.76000011 1.7057328e-38
0.035513341 0.038412377 0.76100004 1.5769833e-38
0.03706 0.038513333 0.76300001 1.4481622e-38
0.038513336 0.038513336 0.76300001 1.6326939e-38
0.040176202 0.038715228 0.76700008 1.8164376e-38
0.041691445 0.038765691 0.76800007 1.7614448e-38
0.04326668 0.038866647 0.7700001 1.6966571e-38
0.044733346 0.038866647 0.7700001 1.6321565e-38
0.046379998 0.039018087 0.77300006 1.5586878e-38
-0.035003811 0.040961895 0.78200006 8.5687706e-39
-0.033385694 0.040804744 0.7790001 1.0047185e-38
-0.031901903 0.040804751 0.7790001 9.1335723e-39
-0.030340005 0.040699985 0.77700001 8.1168308e-39
-0.028711423 0.040490452 0.77300012 4.5121937e-39
-0.027239051 0.040490456 0.77300006 9.2452067e-40
-0.025733333 0.040438097 0.77200001 1.5695314e-39
-0.024199994 0.040333319 0.7700001 2.2116455e-39
-0.022644756 0.040176183 0.76700008 1.7513736e-39
-0.021128573 0.040071417 0.76500005 1.2900718e-39
-0.019619983 0.039966647 0.76300007 9.2239771e-40
-0.018166658 0.039966639 0.76300007 6.4618216e-40
-0.016669517 0.039861877 0.76100004 7.3802607e-40
-0.015199993 0.039809518 0.76000011 9.2169566e-40
-0.013716181 0.039704759 0.75800002 1.0138871e-39
-0.012272363 0.03970474 0.75800008 1.1982811e-39
-0.01082857 0.039704744 0.75800002 9.2242153e-40
-0.0093599958 0.039599992 0.75600004 7.3874914e-40
-0.0079095168 0.039547607 0.75500011 7.3910647e-40
-0.006454281 0.039442856 0.75300002 8.3273142e-40
-0.0050199982 0.039442856 0.75300002 8.3200835e-40
-0.0035857004 0.039442845 0.75300002 9.2313059e-40
-0.0021485649 0.039390471 0.75200003 1.1064471e-39
-0.00071428297 0.039285693 0.75000012 1.3812333e-39
0.00071429135 0.03928569 0.75000006 1.656737e-39
0.0021428666 0.039285697 0.75000012 2.0237258e-39
0.0035714335 0.03928569 0.75000012 1.56527e-39
0.0050000083 0.039285701 0.75000012 1.1990042e-39
0.0064285751 0.039285686 0.75000012 1.1968504e-39
0.0078571504 0.039285697 0.75000012 1.1032171e-39
0.0092857247 0.03928569 0.75000012 8.280651e-40
0.010714292 0.039285704 0.75000012 6.4440111e-40
0.012142866 0.039285693 0.75000012 3.6961769e-40
0.013571433 0.039285693 0.75000012 1.8739564e-40
0.015000007 0.039285697 0.75000012 1.8525586e-40
0.016428581 0.039285682 0.75000012 2.7597172e-40
0.017928576 0.039442848 0.75300002 3.6835274e-39
0.019362858 0.039442871 0.75300002 7.0718657e-39
0.020769536 0.039390467 0.75200009 8.4875331e-39
0.022290492 0.039547596 0.75500011 9.992452e-39
0.023728577 0.039547611 0.75500005 1.256173e-38
0.025166679 0.039547604 0.75500011 1.5244325e-38
0.026640017 0.039599985 0.7560001 1.4403092e-38
0.028080013 0.039599989 0.7560001 1.3585876e-38
0.029520011 0.039599996 0.7560001 1.2465529e-38
0.031123813 0.039809521 0.76000005 1.13628e-38
0.032571439 0.03980951 0.76000011 9.9644736e-39
0.034019049 0.039809529 0.76000005 8.5689821e-39
0.035513341 0.039861884 0.7610001 1.013626e-38
0.036962867 0.039861877 0.7610001 1.1705017e-38
0.038513333 0.039966665 0.76300001 1.4758567e-38
0.040176205 0.040176172 0.76700008 1.7889597e-38
0.041800011 0.040333319 0.7700001 1.7244609e-38
0.043266676 0.040333319 0.7700001 1.6601036e-38
0.044733342 0.040333312 0.7700001 1.6323727e-38
0.046380002 0.040490463 0.77300012 1.6051091e-38
-0.035003807 0.042451411 0.78200012 1.051209e-38
-0.033428561 0.042342823 0.78000009 1.3915069e-38
-0.031820007 0.042179987 0.77700001 1.1075388e-38
-0.030261906 0.042071413 0.77500004 8.2050747e-39
-0.028711431 0.041962843 0.77300006 4.506091e-39
-0.027203798 0.041908566 0.77200001 8.3412571e-40
-0.025733327 0.041908562 0.77200001 1.4805825e-39
-0.024199996 0.041799989 0.7700001 2.1201898e-39
-0.02267427 0.041691408 0.76800007 1.7506828e-39
-0.021183804 0.041637119 0.76700008 1.2908033e-39
-0.019671421 0.041528556 0.76500005 1.1064302e-39
-0.018166652 0.04141999 0.76300001 9.2205299e-40
-0.016669521 0.041311421 0.76100004 8.2986857e-40
-0.015199994 0.041257143 0.76000005 6.4619197e-40
-0.013716178 0.041148562 0.75800002 1.0138871e-39
-0.012272361 0.041148543 0.75800008 1.2904782e-39
-0.010799997 0.041039992 0.7560001 1.0156976e-39
-0.0093600005 0.041039985 0.75600004 6.4727517e-40
-0.0079095187 0.040985703 0.75500011 8.3094336e-40
-0.0064542801 0.040877141 0.75300002 9.2420959e-40
-0.0050200075 0.040877141 0.75300002 1.0160423e-39
-0.0035857102 0.040877145 0.75300002 1.1078834e-39
-0.0021485602 0.040822852 0.75200003 1.3837556e-39
-0.00071618846 0.040822845 0.75200003 1.5652686e-39
0.00071428902 0.040714268 0.75000012 2.1155599e-39
0.0021428624 0.040714275 0.75000012 2.6676533e-39
0.0035714372 0.040714264 0.75000012 2.0266027e-39
0.005000005 0.040714264 0.75000012 1.290481e-39
0.0064285798 0.040714271 0.75000012 1.1972078e-39
0.0078571467 0.04071426 0.75000012 1.1039289e-39
0.0092857219 0.040714268 0.75000012 9.1989078e-40
0.010714296 0.040714268 0.75000012 6.4475004e-40
0.012175242 0.040822841 0.75200003 3.6925055e-40
0.01357144 0.040714271 0.75000012 9.4111205e-41
0.015000007 0.040714264 0.75000012 9.3400747e-41
0.016428581 0.040714268 0.75000012 9.6288823e-41
0.017928574 0.040877149 0.75300002 7.0865653e-39
0.019362858 0.040877141 0.75300002 1.3999416e-38
0.020769531 0.04082286 0.75200003 1.6333047e-38
0.022290491 0.040985692 0.75500011 1.8533878e-38
0.023728583 0.040985689 0.75500011 1.6887663e-38
0.025166675 0.0409857 0.75500011 1.5116205e-38
0.026640018 0.041039977 0.7560001 1.0699812e-38
0.028080013 0.041039992 0.7560001 6.1941134e-39
0.029598106 0.041148551 0.75800002 3.8885192e-39
0.031123817 0.041257132 0.76000011 1.5861718e-39
0.032571428 0.041257136 0.76000005 8.270912e-40
0.034063816 0.041311409 0.76100004 9.9213333e-41
0.035513341 0.041311409 0.76100004 4.5004914e-39
0.037060004 0.041419994 0.76300001 8.8573554e-39
0.038614288 0.041528553 0.76500005 1.3204535e-38
0.040176205 0.04163713 0.76700008 1.7519733e-38
0.041800007 0.041799992 0.7700001 1.6873663e-38
0.04326668 0.041799992 0.7700001 1.6231173e-38
0.044849537 0.041908562 0.77200007 1.6321573e-38
0.046380002 0.04196284 0.77300006 1.6416639e-38
-0.03509333 0.044053324 0.78400004 9.5923658e-39
-0.033428557 0.043828554 0.78000009 1.1902971e-38
-0.031819988 0.043659989 0.77700007 9.873989e-39
-0.030261897 0.043547608 0.7750001 7.8366524e-39
-0.028711431 0.043435223 0.77300012 4.3274367e-39
-0.027203809 0.043379035 0.77200007 9.2453189e-40
-0.025733322 0.043379031 0.77200007 1.3855339e-39
-0.0242 0.04326665 0.7700001 1.9361811e-39
-0.022674281 0.043154269 0.76800007 1.7514255e-39
-0.021183809 0.043098085 0.76700008 1.4755645e-39
-0.019671425 0.0429857 0.76500005 1.106433e-39
-0.018166663 0.042873319 0.76300001 8.2986296e-40
-0.016647603 0.042704754 0.76000011 6.4620458e-40
-0.015199997 0.042704754 0.76000011 4.6180772e-40
-0.013716176 0.042592362 0.75800008 1.0138871e-39
-0.012272368 0.042592358 0.75800002 1.6585404e-39
-0.010799986 0.042479996 0.7560001 1.0149843e-39
-0.0093599921 0.042479992 0.75600004 4.6324825e-40
-0.0079095205 0.042423796 0.75500011 6.476311e-40
-0.0064714262 0.042423785 0.75500011 9.2457112e-40
-0.0050199921 0.042311423 0.75300002 1.0156878e-39
-0.003585709 0.042311423 0.75300002 1.1078904e-39
-0.0021485705 0.042255241 0.75200009 1.2908509e-39
-0.0007161838 0.042255234 0.75200003 1.3808872e-39
0.00071620196 0.04225523 0.75200003 1.7485809e-39
0.0021485742 0.042255223 0.75200003 2.1170018e-39
0.0035809609 0.042255238 0.75200003 1.6581859e-39
0.0050133397 0.042255245 0.75200003 1.2897635e-39
0.006428584 0.042142835 0.75000012 1.1050107e-39
0.0078571523 0.042142846 0.75000012 1.0113689e-39
0.0092857266 0.042142838 0.75000012 9.2023831e-40
0.010714293 0.042142831 0.75000012 8.2912868e-40
0.012142869 0.042142835 0.75000012 5.536306e-40
0.013571436 0.042142849 0.75000012 2.7740945e-40
0.015000011 0.042142838 0.75000012 2.7705212e-40
0.016472392 0.042255234 0.75200009 1.842189e-40
0.017928574 0.042311419 0.75300002 3.9717941e-39
0.019414302 0.042423788 0.75500011 7.7819359e-39
0.020797146 0.042311423 0.75300002 8.5069775e-39
0.022290487 0.042423803 0.75500011 9.3406506e-39
0.023728583 0.042423788 0.75500011 8.4861276e-39
0.025200009 0.042480003 0.75600004 7.6229487e-39
0.026640013 0.042479984 0.7560001 5.7058127e-39
0.028080007 0.042479984 0.7560001 3.8576079e-39
0.029598106 0.042592365 0.75800008 3.3159052e-39
0.031123808 0.042704757 0.76000005 2.8473824e-39
0.032571439 0.04270475 0.76000011 1.8407597e-39
0.034063816 0.042760942 0.76100004 8.269861e-40
0.035513338 0.042760942 0.76100004 5.0639774e-39
0.037060019 0.042873319 0.76300007 9.3251004e-39
0.038614295 0.042985696 0.76500005 1.3198074e-38
0.040228583 0.043154269 0.76800007 1.7152022e-38
0.041800003 0.043266647 0.77000004 1.6598498e-38
0.04326668 0.043266661 0.7700001 1.6046059e-38
0.044849541 0.043379027 0.77200007 1.5863112e-38
0.046500012 0.043547612 0.77500004 1.5772356e-38
-0.03509333 0.045546658 0.78400004 8.7647576e-39
-0.033428565 0.045314256 0.78000009 9.8689345e-39
-0.031819995 0.045139983 0.77700007 8.6800953e-39
-0.030261897 0.045023806 0.77500004 7.4646328e-39
-0.028711436 0.044907615 0.77300006 4.2259196e-39
-0.027203804 0.044849515 0.77200007 9.2345569e-40
-0.025733333 0.044849515 0.77200007 1.3844549e-39
-0.0242 0.044733319 0.77000004 1.751794e-39
-0.022674264 0.04461712 0.76800007 1.7514325e-39
-0.021183804 0.044559024 0.76700008 1.6581621e-39
-0.019671429 0.04444284 0.7650001 1.1975497e-39
-0.018166659 0.044326652 0.76300001 6.4654089e-40
-0.016647618 0.044152379 0.76000011 4.6251397e-40
-0.015199997 0.044152379 0.76000005 2.7847444e-40
-0.013716173 0.044036176 0.75800008 1.1046254e-39
-0.012272366 0.04403618 0.75800002 1.9322364e-39
-0.010799992 0.043919995 0.7560001 1.1057338e-39
-0.0093599865 0.043919984 0.7560001 2.7957166e-40
-0.0079095121 0.043861873 0.75500011 5.5543688e-40
-0.0064714281 0.043861896 0.75500011 8.3201676e-40
-0.0050200014 0.043745711 0.75300002 1.0146074e-39
-0.0035857037 0.043745715 0.75300002 1.1075246e-39
-0.0021485765 0.043687612 0.75200003 1.1986483e-39
-0.00071618985 0.043687619 0.75200003 1.1986427e-39
0.00071619637 0.043687608 0.75200003 1.3812333e-39
0.0021485682 0.043687623 0.75200003 1.5663392e-39
0.0035809577 0.043687604 0.75200009 1.3830269e-39
0.0050133439 0.043687604 0.75200003 1.1982783e-39
0.0064457231 0.043687612 0.75200003 1.1046492e-39
0.0078781033 0.043687601 0.75200003 9.2059984e-40
0.0092857135 0.043571413 0.75000006 9.2058022e-40
0.010742863 0.043687608 0.75200003 9.213145e-40
0.012175241 0.043687608 0.75200003 7.3802046e-40
0.013607628 0.043687612 0.75200003 4.6215944e-40
0.015039999 0.043687612 0.75200003 3.6889462e-40
0.016472386 0.043687619 0.75200003 2.7889203e-40
0.017928572 0.043745723 0.75300002 8.3424903e-40
0.019362861 0.043745708 0.75300002 1.4017833e-39
0.020797152 0.043745719 0.75300002 7.560846e-40
0.022290479 0.043861896 0.75500011 1.1394238e-40
0.023728581 0.043861885 0.75500011 9.2408627e-41
0.025166675 0.043861896 0.75500011 9.3100869e-41
0.026640017 0.043919981 0.7560001 8.2704355e-40
0.028080011 0.043919992 0.7560001 1.4745457e-39
0.029598109 0.044036172 0.75800008 2.853862e-39
0.031123817 0.044152368 0.76000011 4.1431281e-39
0.032614287 0.044210441 0.7610001 2.8610002e-39
0.03406382 0.044210453 0.7610001 1.5652742e-39
0.035606679 0.044326652 0.76300007 5.6035403e-39
0.037060015 0.044326648 0.76300007 9.6849258e-39
0.038614292 0.04444284 0.76500005 1.3293861e-38
0.040228583 0.044617131 0.76800007 1.6785033e-38
0.041800011 0.044733319 0.77000004 1.6321541e-38
0.04326668 0.044733331 0.7700001 1.5771255e-38
0.04484953 0.044849522 0.77200001 1.5496476e-38
0.046500012 0.04502381 0.77500004 1.5129849e-38
-0.031819988 0.046619982 0.77700001 5.9106475e-39
-0.030340008 0.046619985 0.77700001 6.7277811e-39
-0.028711434 0.046379987 0.77300006 4.3263675e-39
-0.027239038 0.046379983 0.77300012 1.8428882e-39
-0.025733326 0.046319995 0.77200007 1.8432708e-39
-0.024199987 0.046199989 0.77000004 1.8425561e-39
-0.022674274 0.046079978 0.76800007 1.8421988e-39
-0.021183796 0.046019986 0.76700002 1.8404009e-39
-0.019671429 0.045899995 0.76500005 1.381578e-39
-0.018119039 0.045659993 0.76100004 8.3055941e-40
-0.016669523 0.045659989 0.76100004 6.4688281e-40
-0.015199988 0.045599993 0.76000011 4.6248314e-40
-0.013716171 0.045479983 0.75800008 9.2200815e-40
-0.012272364 0.045479979 0.75800008 1.3797731e-39
-0.01082857 0.045479979 0.75800002 9.2205159e-40
-0.0093599772 0.04535998 0.7560001 4.6323844e-40
-0.0079199811 0.045359973 0.7560001 5.5579561e-40
-0.00647143 0.045299988 0.75500011 7.4089593e-40
-0.0050333207 0.045299981 0.75500011 1.0163968e-39
-0.0035857132 0.04518 0.75300002 1.383743e-39
-0.0021485714 0.045120001 0.75200003 1.2004335e-39
-0.00071618473 0.045119993 0.75200003 1.1085938e-39
0.00071620103 0.04511999 0.75200003 1.1997077e-39
0.0021485724 0.045119997 0.75200003 1.3833773e-39
0.0035809516 0.045119993 0.75200003 1.2918977e-39
0.0050133304 0.045120005 0.75200003 1.1993475e-39
0.0064457171 0.045120001 0.75200003 9.2240892e-40
0.0078780968 0.045119993 0.75200003 6.4580101e-40
0.0093104756 0.045120001 0.75200003 7.3796861e-40
0.010742866 0.045119986 0.75200009 8.2983073e-40
0.012175245 0.045119997 0.75200009 6.465437e-40
0.013607625 0.04511999 0.75200003 4.6359858e-40
0.015040004 0.045119982 0.75200003 5.5508235e-40
0.01647239 0.045119993 0.75200003 7.3839461e-40
0.017928582 0.045179993 0.75300002 1.1071715e-39
0.019362852 0.045180012 0.75300002 1.4698458e-39
0.02079715 0.04518 0.75300002 1.2007923e-39
0.022290489 0.045299977 0.75500011 8.269931e-40
0.023728581 0.045299977 0.75500011 1.012099e-39
0.025166675 0.045299985 0.75500011 1.1968672e-39
0.026640009 0.045359988 0.7560001 1.6592943e-39
0.028080013 0.045359984 0.7560001 2.2160428e-39
0.029598113 0.045479972 0.75800008 3.136546e-39
0.03112381 0.045599993 0.76000005 4.1528181e-39
0.032614291 0.045659978 0.76100004 2.4925877e-39
0.03415335 0.045779988 0.76300007 8.2702113e-40
0.035606682 0.045779984 0.76300007 7.3595649e-39
0.037060011 0.045779981 0.76300007 1.4007311e-38
0.038614292 0.045899983 0.7650001 1.7060915e-38
0.04022859 0.046079993 0.76800007 2.0096488e-38
0.041800007 0.046199992 0.77000004 1.8257603e-38
0.043266673 0.046199985 0.7700001 1.6506284e-38
0.04484953 0.046319991 0.77200001 1.6139672e-38
0.046500012 0.046500001 0.7750001 1.5864875e-38
-0.030340001 0.048100002 0.77700001 5.994525e-39
-0.028785719 0.047976188 0.77500004 4.4174953e-39
-0.027239045 0.047852375 0.77300006 2.7626809e-39
-0.025766663 0.047852367 0.77300012 2.3953572e-39
-0.02426286 0.047790471 0.77200001 1.9358238e-39
-0.022674285 0.04754284 0.76800007 2.0265873e-39
-0.021211421 0.047542855 0.76800007 2.0251481e-39
-0.019619996 0.047233317 0.76300001 1.5656091e-39
-0.018119032 0.047109503 0.7610001 1.0149535e-39
-0.016669516 0.0471095 0.7610001 8.3199854e-40
-0.015200003 0.047047615 0.76000005 6.4796321e-40
-0.01371618 0.046923798 0.75800002 7.408693e-40
-0.012272362 0.046923783 0.75800008 8.3056782e-40
-0.010799988 0.046799984 0.75600004 7.3910787e-40
-0.0093599828 0.046799988 0.7560001 5.5544388e-40
-0.0079199867 0.046799984 0.7560001 5.5581102e-40
-0.0064714211 0.046738073 0.75500011 5.5759207e-40
-0.0050333221 0.046738077 0.75500011 1.1096686e-39
-0.0035857123 0.046614286 0.75300002 1.5692133e-39
-0.0021485775 0.046552371 0.75200003 1.29479e-39
-0.00071618054 0.046552368 0.75200009 1.0178429e-39
0.00071620569 0.046552364 0.75200003 1.1093141e-39
0.0021485775 0.046552375 0.75200003 1.1089512e-39
0.0035809577 0.046552371 0.75200003 1.2015013e-39
0.0050133364 0.046552368 0.75200003 1.2000706e-39
0.0064457231 0.046552371 0.75200003 7.3910226e-40
0.0078781033 0.046552368 0.75200003 2.7990937e-40
0.0093104811 0.046552375 0.75200003 5.5611651e-40
0.010757149 0.046614289 0.75300002 7.3908265e-40
0.012175239 0.046552368 0.75200003 5.5506693e-40
0.013607618 0.046552375 0.75200003 3.7246793e-40
0.015039997 0.046552371 0.75200003 8.3271741e-40
0.016472394 0.046552371 0.75200009 1.2004279e-39
0.017928571 0.046614293 0.75300002 1.3859038e-39
0.019362863 0.046614282 0.75300002 1.5670609e-39
0.020797152 0.046614274 0.75300002 1.5670595e-39
0.022290487 0.046738084 0.75500011 1.5648987e-39
0.023728579 0.046738088 0.75500011 1.9318735e-39
0.025166672 0.046738081 0.75500011 2.301033e-39
0.026640011 0.046799991 0.7560001 2.5805107e-39
0.028080005 0.046799988 0.7560001 2.8596088e-39
0.029598106 0.046923801 0.75800002 3.5067676e-39
0.031123813 0.047047608 0.76000011 4.0591819e-39
0.032614291 0.047109514 0.76100004 2.1288106e-39
0.034153342 0.047233321 0.76300007 9.629723e-41
0.035606671 0.047233317 0.76300007 9.1841312e-39
0.037157137 0.047357135 0.76500005 1.8241464e-38
0.038715255 0.047480933 0.76700008 2.0846278e-38
0.04022859 0.04754284 0.76800007 2.341228e-38
0.041800003 0.04766665 0.77000004 2.0289863e-38
0.043266673 0.047666658 0.77000004 1.7155607e-38
0.04484953 0.047790475 0.77200007 1.6874349e-38
0.046500012 0.047976185 0.77500004 1.659956e-38
-0.030418083 0.049707599 0.7790001 7.1040773e-39
-0.028860003 0.049579989 0.77700001 4.6065571e-39
-0.027309526 0.049452383 0.77500004 2.2105946e-39
-0.025833329 0.049452379 0.77500004 2.0287285e-39
-0.024262855 0.049260937 0.77200001 1.8461393e-39
-0.022733334 0.049133327 0.77000004 1.7521556e-39
-0.021211417 0.049005698 0.76800001 1.7496416e-39
-0.019671421 0.048814274 0.76500005 1.2904614e-39
-0.018119035 0.04855904 0.76100004 8.3164542e-40
-0.016669519 0.048559036 0.76100004 7.3945399e-40
-0.015199994 0.048495229 0.76000011 6.4797723e-40
-0.013716177 0.048367612 0.75800002 6.4761849e-40
-0.01227237 0.048367608 0.75800002 6.4655351e-40
-0.010799994 0.048239991 0.75600004 7.3875754e-40
-0.0093599884 0.048239995 0.7560001 7.3876875e-40
-0.0079199923 0.048239991 0.7560001 6.4873813e-40
-0.006471423 0.048176166 0.75500011 6.5051217e-40
-0.005019994 0.048048571 0.75300002 9.2599904e-40
-0.0035857214 0.048048571 0.75300002 1.2944298e-39
-0.0021485728 0.047984764 0.75200003 1.2022468e-39
-0.00071618659 0.047984757 0.75200003 1.1093281e-39
0.0007161852 0.047984753 0.75200003 1.1096784e-39
0.0021485724 0.047984764 0.75200003 1.1093155e-39
0.0035809511 0.047984757 0.75200003 1.2015055e-39
0.0050133304 0.047984764 0.75200003 1.2933452e-39
0.0064457273 0.047984745 0.75200009 9.2385506e-40
0.007878107 0.047984742 0.75200003 5.5543127e-40
0.0093104858 0.047984753 0.75200003 6.4797723e-40
0.010757151 0.048048563 0.75300002 7.4017145e-40
0.012175245 0.047984757 0.75200003 5.5614173e-40
0.013607623 0.047984753 0.75200003 4.6500828e-40
0.015040004 0.047984749 0.75200003 8.3305092e-40
0.016472388 0.04798476 0.75200003 1.2936857e-39
0.01792858 0.048048563 0.75300002 1.2025887e-39
0.019362859 0.048048563 0.75300002 1.20223e-39
0.02079715 0.048048571 0.75300002 1.2919117e-39
0.022290483 0.048176177 0.75500011 1.4737722e-39
0.023728587 0.048176173 0.75500011 1.9329329e-39
0.025166672 0.048176177 0.75500011 2.3932146e-39
0.026640017 0.048239984 0.7560001 2.6723364e-39
0.028080011 0.04823998 0.7560001 3.0436399e-39
0.029598106 0.048367605 0.75800002 3.5064187e-39
0.031164771 0.048559029 0.7610001 4.0602525e-39
0.032614294 0.048559025 0.7610001 2.1251994e-39
0.034153346 0.048686653 0.76300001 9.2366588e-41
0.035606675 0.048686646 0.76300001 7.9253924e-39
0.037157152 0.048814278 0.76500005 1.5795305e-38
0.038715247 0.048941899 0.76700008 1.9652435e-38
0.040228583 0.049005702 0.76800001 2.3416973e-38
0.041800022 0.049133308 0.7700001 2.1299734e-38
0.043266669 0.049133334 0.77000004 1.9176003e-38
0.044907626 0.049324755 0.77300006 1.7701219e-38
-0.030418083 0.051191404 0.7790001 8.2050467e-39
-0.028859999 0.051059987 0.77700001 4.8781133e-39
-0.027309516 0.050928559 0.7750001 1.5695314e-39
-0.025833331 0.050928563 0.77500004 1.6624515e-39
-0.024262849 0.050731421 0.77200007 1.6624641e-39
-0.022733323 0.050599985 0.77000004 1.569565e-39
-0.021211416 0.050468564 0.76800007 1.3833759e-39
-0.019722844 0.050402842 0.76700008 1.0153108e-39
-0.018119039 0.050008561 0.76100004 6.4689122e-40
-0.016647615 0.049942851 0.76000011 6.4617375e-40
-0.015199994 0.049942851 0.76000005 6.4689682e-40
-0.013716175 0.049811412 0.75800008 5.5542567e-40
-0.012272367 0.049811408 0.75800002 4.6287831e-40
-0.010799999 0.049679995 0.75600004 7.3839181e-40
-0.009359993 0.04967998 0.7560001 9.2278447e-40
-0.007919983 0.04967998 0.7560001 8.3274684e-40
-0.0064714248 0.049614262 0.75500011 6.4977229e-40
-0.0050333156 0.049614269 0.75500011 8.327048e-40
-0.0035857058 0.049482845 0.75300002 9.2527738e-40
-0.0021485686 0.049417134 0.75200003 1.0182087e-39
-0.0007161824 0.049417131 0.75200003 1.1100414e-39
0.00071618939 0.049417138 0.75200003 1.1103987e-39
0.0021485765 0.049417134 0.75200003 1.1093183e-39
0.0035809553 0.049417131 0.75200003 1.201151e-39
0.0050133346 0.049417138 0.75200003 1.2922704e-39
0.0064285733 0.049285702 0.75000006 1.1071673e-39
0.0078781005 0.049417146 0.75200003 8.3129929e-40
0.0093228677 0.049482845 0.75300002 7.3981973e-40
0.010742859 0.049417138 0.75200003 6.476227e-40
0.01217525 0.049417131 0.75200009 6.4726116e-40
0.013607628 0.049417138 0.75200009 5.5613753e-40
0.015040007 0.049417134 0.75200009 9.245501e-40
0.016472392 0.049417131 0.75200003 1.2933438e-39
0.017904764 0.049417127 0.75200003 1.0196492e-39
0.019362861 0.049482852 0.75300002 7.4234487e-40
0.020797141 0.049482856 0.75300002 1.0164122e-39
0.022290483 0.049614277 0.75500011 1.2904712e-39
0.023728587 0.049614266 0.75500011 1.8411142e-39
0.025166679 0.049614258 0.75500011 2.3939377e-39
0.026640009 0.049679995 0.7560001 2.7630901e-39
0.028080011 0.049679987 0.7560001 3.1351068e-39
0.029598109 0.049811404 0.75800008 3.5986017e-39
0.031164767 0.05000855 0.76100004 4.0584644e-39
0.032614291 0.050008547 0.76100004 2.1273757e-39
0.034153342 0.050139997 0.76300001 1.0060482e-40
0.035700005 0.050271407 0.76500005 6.7217975e-39
0.037254304 0.050402835 0.76700008 1.3289175e-38
0.038715255 0.050402835 0.76700008 1.8366736e-38
0.04022859 0.050468553 0.76800007 2.3416254e-38
0.041691437 0.050468571 0.76800001 2.2315661e-38
0.043154296 0.050468568 0.76800007 2.1103835e-38
0.044907626 0.050797131 0.77300012 1.8614562e-38
-0.030418094 0.052675225 0.7790001 7.5643703e-39
-0.028860003 0.052539997 0.77700001 4.4221588e-39
-0.027309518 0.052404758 0.77500004 1.3840597e-39
-0.025833324 0.05240475 0.7750001 1.570246e-39
-0.024262844 0.052201904 0.77200007 1.8464896e-39
-0.022733338 0.052066658 0.77000004 1.8439981e-39
-0.021211427 0.051931426 0.76800007 1.9329539e-39
-0.019671425 0.051728573 0.76500005 1.3812137e-39
-0.018166672 0.051593322 0.76300001 8.2840421e-40
-0.016669517 0.051458079 0.7610001 9.2095297e-40
-0.015199999 0.051390462 0.76000011 9.2168164e-40
-0.013716173 0.051255215 0.75800008 8.2949722e-40
-0.012272366 0.051255215 0.75800008 7.373058e-40
-0.010828557 0.051255211 0.75800002 1.0131724e-39
-0.0093599837 0.051119976 0.7560001 1.289395e-39
-0.0079199886 0.051119987 0.7560001 1.0153206e-39
-0.006479993 0.051119983 0.7560001 8.3342086e-40
-0.0050333175 0.051052365 0.75500011 9.237976e-40
-0.0035952225 0.051052354 0.75500011 1.0145849e-39
-0.0021514175 0.050917149 0.75300002 1.2007937e-39
-0.00071713468 0.050917141 0.75300002 1.294427e-39
0.00071713794 0.050917141 0.75300002 1.2933536e-39
0.0021514352 0.050917134 0.75300002 1.2919173e-39
0.0035809595 0.05084952 0.75200009 1.3841087e-39
0.0050133388 0.050849516 0.75200003 1.4759442e-39
0.006445718 0.050849508 0.75200003 1.1068072e-39
0.0078780977 0.05084952 0.75200003 7.383904e-40
0.0093104839 0.050849516 0.75200003 6.476311e-40
0.010742863 0.050849523 0.75200003 5.5543127e-40
0.012175242 0.050849516 0.75200003 5.5542567e-40
0.013607621 0.050849512 0.75200003 5.5543127e-40
0.015040002 0.050849523 0.75200003 9.2385366e-40
0.016472386 0.05084952 0.75200003 1.2919271e-39
0.017928578 0.050917137 0.75300002 1.1093449e-39
0.019362858 0.050917137 0.75300002 1.016785e-39
0.02079715 0.050917145 0.75300002 1.2912069e-39
0.022290479 0.051052369 0.75500011 1.5656315e-39
0.023728583 0.051052362 0.75500011 1.7496543e-39
0.025166677 0.051052365 0.75500011 2.0266013e-39
0.026604772 0.051052369 0.75500005 2.6723252e-39
0.028080005 0.051119998 0.7560001 3.3191282e-39
0.029676193 0.051390465 0.76000011 3.8730194e-39
0.031123813 0.051390484 0.76000005 4.5187237e-39
0.032614287 0.051458083 0.76100004 2.4003934e-39
0.034153339 0.05159333 0.76300001 3.6892405e-40
0.035699993 0.051728562 0.76500005 6.4509055e-39
0.037157148 0.051728562 0.7650001 1.254765e-38
0.038715243 0.051863797 0.76700008 1.6147616e-38
0.040228583 0.051931426 0.76800007 1.9739602e-38
0.041800015 0.052066654 0.7700001 1.8994155e-38
0.043435242 0.052269503 0.77300006 1.8247611e-38
0.044907618 0.052269507 0.77300006 1.7238115e-38
0.046740007 0.052675229 0.7790001 1.6321924e-38
-0.030418096 0.054159045 0.7790001 6.8210711e-39
-0.028934278 0.054159045 0.7790001 4.0454758e-39
-0.027239036 0.053741887 0.77300012 1.2014621e-39
-0.025766663 0.053741895 0.77300006 1.5720495e-39
-0.024262849 0.053672381 0.77200001 1.9372517e-39
-0.022733316 0.053533316 0.7700001 2.2099009e-39
-0.021211423 0.053394288 0.76800001 2.3921258e-39
-0.019722845 0.05332474 0.76700008 1.7481913e-39
-0.018166669 0.053046655 0.76300001 1.0124129e-39
-0.016713325 0.053046651 0.76300001 1.1035141e-39
-0.01521999 0.052907594 0.76100004 1.1964468e-39
-0.01375237 0.05283808 0.76000011 1.1039149e-39
-0.012272364 0.052699033 0.75800008 9.2096978e-40
-0.010828556 0.052699029 0.75800002 1.287244e-39
-0.0093847485 0.052699029 0.75800002 1.6560195e-39
-0.0079409452 0.052699033 0.75800008 1.2893936e-39
-0.0064971382 0.052699033 0.75800008 9.2347671e-40
-0.0050399774 0.052559976 0.7560001 1.0149437e-39
-0.003599982 0.052559979 0.7560001 1.1071533e-39
-0.0021514269 0.052351434 0.75300002 1.292276e-39
-0.00071714353 0.052351423 0.75300002 1.4766673e-39
0.00071715331 0.05235143 0.75300002 1.4770302e-39
0.0021514259 0.05235143 0.75300002 1.4763086e-39
0.0035809544 0.052281909 0.75200003 1.5667049e-39
0.0050133336 0.052281901 0.75200003 1.566342e-39
0.0064457129 0.052281912 0.75200003 1.1057268e-39
0.0078781024 0.052281894 0.75200009 5.5471661e-40
0.0093228575 0.05235143 0.75300002 4.6431884e-40
0.010742867 0.052281901 0.75200003 3.7175748e-40
0.012175247 0.052281894 0.75200003 4.6322583e-40
0.013607626 0.052281905 0.75200003 5.5506974e-40
0.015060007 0.05235143 0.75300002 9.2278026e-40
0.016494298 0.052351423 0.75300002 1.1993714e-39
0.017928571 0.052351434 0.75300002 1.2926516e-39
0.019362859 0.052351426 0.75300002 1.2912111e-39
0.020852394 0.052490462 0.75500011 1.5656357e-39
0.022290489 0.052490454 0.75500011 1.8411366e-39
0.023728581 0.052490454 0.75500011 1.7485781e-39
0.025200009 0.052559976 0.7560001 1.5674238e-39
0.026640004 0.052559987 0.7560001 2.580131e-39
0.028154295 0.052699033 0.75800002 3.5020789e-39
0.029676193 0.052838095 0.76000005 4.2385621e-39
0.031164769 0.052907597 0.7610001 4.8839091e-39
0.032614291 0.052907594 0.7610001 2.7698878e-39
0.034153342 0.053046662 0.76300001 6.5124786e-40
0.035700005 0.053185705 0.76500005 6.1646398e-39
0.037157144 0.053185701 0.76500005 1.1713594e-38
0.038715251 0.053324748 0.76700008 1.3936024e-38
0.040228579 0.053394273 0.76800001 1.6050384e-38
0.041800015 0.053533323 0.7700001 1.5674067e-38
0.043379053 0.053672384 0.77200001 1.5309945e-38
0.045140009 0.05401998 0.77700001 1.5952428e-38
0.04674001 0.054159038 0.7790001 1.6598513e-38
0.048223823 0.05415903 0.7790001 1.6875103e-38
-0.030418081 0.055642851 0.7790001 7.091191e-39
-0.028859995 0.055499978 0.77700007 4.0494078e-39
-0.027239034 0.055214271 0.77300012 1.0177897e-39
-0.025766661 0.055214275 0.77300012 1.3865946e-39
-0.02426286 0.055142846 0.77200001 1.661748e-39
-0.02273332 0.054999989 0.7700001 1.8429121e-39
-0.021211423 0.05485712 0.76800007 1.9318679e-39
-0.019671433 0.054642841 0.76500005 1.4723205e-39
-0.018166665 0.054499988 0.76300001 9.1984034e-40
-0.016713323 0.054499991 0.76300001 9.2016684e-40
-0.015219995 0.05435713 0.76100004 1.0131108e-39
-0.013752386 0.054285701 0.76000005 9.2166483e-40
-0.012304756 0.054285705 0.76000011 9.2275644e-40
-0.010828554 0.054142833 0.75800008 1.1053652e-39
-0.0093847467 0.054142848 0.75800002 1.2890362e-39
-0.0079409424 0.054142833 0.75800008 1.0142472e-39
-0.0064971359 0.054142836 0.75800008 6.4726677e-40
-0.005039983 0.053999983 0.7560001 9.2313479e-40
-0.0035999874 0.053999998 0.7560001 1.1990056e-39
-0.0021514264 0.053785719 0.75300002 1.3830395e-39
-0.00071712863 0.053785712 0.75300002 1.5667147e-39
0.00071714399 0.053785726 0.75300002 1.5688713e-39
0.0021514343 0.053785715 0.75300002 1.5688643e-39
0.0035857148 0.053785719 0.75300002 1.3837514e-39
0.0050133378 0.053714275 0.75200003 1.2897579e-39
0.0064457171 0.053714272 0.75200003 9.2169285e-40
0.0078780958 0.053714279 0.75200003 6.4547451e-40
0.0093104756 0.05371429 0.75200003 5.5471941e-40
0.010742861 0.053714283 0.75200003 4.6359017e-40
0.012175241 0.053714279 0.75200003 4.6286009e-40
0.01362572 0.053785712 0.75300002 3.7103861e-40
0.015060007 0.05378573 0.75300002 8.3058884e-40
0.016494287 0.053785719 0.75300002 1.2901293e-39
0.017928578 0.053785712 0.75300002 1.4745219e-39
0.019414298 0.053928569 0.75500011 1.6574726e-39
0.020852394 0.053928554 0.75500011 1.8414996e-39
0.022290489 0.053928562 0.75500011 2.1166417e-39
0.023728579 0.053928562 0.75500011 1.8414884e-39
0.025266672 0.054142833 0.75800002 1.659618e-39
0.026710492 0.05414284 0.75800008 2.3975362e-39
0.028228575 0.054285713 0.76000005 3.2280045e-39
0.029676195 0.054285701 0.76000011 3.8726481e-39
0.031164765 0.054357119 0.76100004 4.5179992e-39
0.03270001 0.054499991 0.76300001 2.6773349e-39
0.034153346 0.054499991 0.76300001 7.3949743e-40
0.035700001 0.054642841 0.76500005 6.1771969e-39
0.037254296 0.054785699 0.76700008 1.1726506e-38
0.038715243 0.054785699 0.76700008 1.4209728e-38
0.04022859 0.054857124 0.76800007 1.6780749e-38
0.041800011 0.054999977 0.7700001 1.6505946e-38
0.043435238 0.055214275 0.77300006 1.623296e-38
0.045023814 0.055357147 0.77500004 1.659995e-38
0.046740014 0.05564284 0.7790001 1.7060208e-38
-0.030418081 0.057126656 0.7790001 7.2748508e-39
-0.02885999 0.056979991 0.77700007 4.0429352e-39
-0.027239043 0.056686658 0.77300006 8.3339143e-40
-0.02576666 0.056686655 0.77300012 1.1114441e-39
-0.024262855 0.056613326 0.77200007 1.3858758e-39
-0.02273332 0.056466643 0.7700001 1.4755603e-39
-0.02126666 0.056466639 0.7700001 1.4741197e-39
-0.019722847 0.056246657 0.76700008 1.19753e-39
-0.018166661 0.05595332 0.76300001 8.2873772e-40
-0.016713332 0.055953331 0.76300001 8.2836357e-40
-0.015219988 0.055806641 0.7610001 7.3834416e-40
-0.013770471 0.055806652 0.7610001 8.3091814e-40
-0.012304756 0.055733331 0.76000005 9.2240331e-40
-0.010828552 0.055586632 0.75800008 9.2205299e-40
-0.0093847439 0.055586651 0.75800008 9.2241452e-40
-0.0079409508 0.055586647 0.75800002 6.476283e-40
-0.0064799944 0.055439994 0.75600004 3.7248895e-40
-0.0050399881 0.055439994 0.7560001 8.3095738e-40
-0.0035999927 0.05543999 0.7560001 1.1990154e-39
-0.0021571331 0.055366646 0.75500011 1.3819676e-39
-0.0007190383 0.05536665 0.75500011 1.5681581e-39
0.00071906112 0.055366654 0.75500011 1.570679e-39
0.0021571554 0.055366658 0.75500011 1.5692343e-39
0.0035857228 0.055220004 0.75300002 1.2930019e-39
0.0050200135 0.055219997 0.75300002 1.0153458e-39
0.0064542857 0.055220008 0.75300002 8.2988398e-40
0.0078781005 0.055146657 0.75200003 6.4548992e-40
0.0093228566 0.05522 0.75300002 6.4548572e-40
0.010742867 0.055146661 0.75200003 5.5436068e-40
0.012191436 0.055219993 0.75300002 3.7032535e-40
0.013625716 0.055220012 0.75300002 1.8737743e-40
0.015060009 0.05522 0.75300002 8.3059024e-40
0.016494296 0.055219993 0.75300002 1.3823249e-39
0.017976204 0.055366654 0.75500011 1.6574768e-39
0.019414306 0.055366646 0.75500011 1.933698e-39
0.020852389 0.05536665 0.75500011 2.1173662e-39
0.022290485 0.055366654 0.75500011 2.300677e-39
0.023760019 0.055439983 0.7560001 2.0248104e-39
0.025200013 0.05543999 0.7560001 1.7525339e-39
0.026710484 0.055586651 0.75800002 2.3064196e-39
0.028228577 0.055733323 0.76000011 2.8606625e-39
0.029715249 0.055806648 0.7610001 3.5063809e-39
0.031246679 0.055953328 0.76300001 4.1510132e-39
0.032700006 0.055953324 0.76300001 2.4979659e-39
