# .PCD v0.7 - Point Cloud Data file format
VERSION 0.7
FIELDS x y z rgb
SIZE 4 4 4 4
TYPE F F F F
COUNT 1 1 1 1
WIDTH 961
HEIGHT 1
VIEWPOINT 0 0 0 1 0 0 0
POINTS 961
DATA ascii
-0.009260932 -0.00071237236 0.74800003 7.3620298e-40
-0.0078361379 -0.00071237236 0.74800009 7.3907704e-40
-0.0064114053 -0.00071237236 0.74800009 7.4087631e-40
-0.0049799737 -0.00071143359 0.7470001 5.5469979e-40
-0.0035476207 -0.00070952624 0.74500012 3.7067427e-40
-0.0021228192 -0.00070761144 0.74300009 1.7550254e-39
-0.00070760195 -0.00070762634 0.74300003 3.2391406e-39
0.00070765259 -0.00070761889 0.74300009 4.2515213e-39
0.0021200033 -0.00070665777 0.74200004 5.2642383e-39
0.0035333338 -0.00070665032 0.74200004 5.4457709e-39
0.0049466807 -0.00070665777 0.7420001 5.6301328e-39
0.006360013 -0.00070667267 0.7420001 4.2457564e-39
0.0077733425 -0.00070666522 0.7420001 2.8635198e-39
0.0091866739 -0.00070667267 0.7420001 1.8425253e-39
0.010600006 -0.00070666522 0.7420001 9.1949842e-40
0.012013338 -0.00070666522 0.7420001 7.3653649e-40
0.013426667 -0.00070666522 0.7420001 6.4471781e-40
0.014839999 -0.00070665777 0.74200004 8.2876294e-40
0.016275275 -0.00070761889 0.74300009 1.0120864e-39
0.017690491 -0.00070761144 0.74300003 1.1964861e-39
0.019105745 -0.00070761144 0.74300009 1.3787277e-39
0.020520998 -0.00070763379 0.74300009 1.1954211e-39
0.021936215 -0.00070761889 0.74300003 1.1035772e-39
0.023414291 -0.00070951879 0.74500012 9.2025512e-40
0.024766684 -0.00070761144 0.74300003 7.3694566e-40
0.026252378 -0.00070951134 0.74500012 8.2950003e-40
0.027671441 -0.00070953369 0.74500012 1.0153234e-39
0.029090503 -0.00070952624 0.74500012 1.7532346e-39
0.030591436 -0.00071142614 0.7470001 2.4918618e-39
0.032057174 -0.00071237981 0.74800009 3.0439468e-39
0.033481933 -0.00071238726 0.74800003 3.6886015e-39
0.035000011 -0.00071427971 0.75000012 4.0541624e-39
0.036525719 -0.00071617216 0.75200003 4.5122343e-39
0.038008589 -0.00071714073 0.75300008 3.5920549e-39
0.039442867 -0.00071714073 0.75300008 2.7633816e-39
0.040985741 -0.00071905553 0.75500011 5.5320769e-39
0.042480022 -0.00071997941 0.75600004 8.3854289e-39
0.043920022 -0.00071999431 0.7560001 8.7567113e-39
0.045360014 -0.00071998686 0.75600004 9.2212473e-39
0.047109552 -0.00072474778 0.76100004 9.6786073e-39
-0.026957106 0.00072857738 0.7650001 2.3981892e-39
-0.025433317 0.00072666258 0.76300007 2.11981e-39
-0.023885697 0.00072380155 0.76000011 1.8450196e-39
-0.022379005 0.00072190166 0.75800008 1.5684369e-39
-0.020935208 0.00072190911 0.75800002 1.2918711e-39
-0.019439986 0.00072000921 0.75600004 1.1989762e-39
-0.01799996 0.00072000921 0.75600004 1.1056974e-39
-0.016538039 0.00071904808 0.75500011 8.2910626e-40
-0.015039994 0.00071620196 0.75200003 4.6104121e-40
-0.013607585 0.00071619451 0.75200009 4.6067687e-40
-0.012142828 0.00071427971 0.75000012 4.6140134e-40
-0.010714265 0.00071429461 0.75000012 4.6033075e-40
-0.0092609236 0.00071238726 0.74800003 3.6920851e-40
-0.0078361891 0.00071238726 0.74800003 6.4650446e-40
-0.0064113969 0.00071238726 0.74800009 8.3126566e-40
-0.0049800184 0.00071143359 0.7470001 7.3800925e-40
-0.0035571472 0.00071143359 0.7470001 6.4761849e-40
-0.0021228453 0.00070762634 0.74300003 1.8439995e-39
-0.00070759078 0.00070761889 0.74300003 3.0475705e-39
0.00070766377 0.00070762634 0.74300009 4.0681866e-39
0.0021200015 0.00070667267 0.7420001 4.984392e-39
0.0035333319 0.00070668012 0.7420001 4.7085296e-39
0.004946664 0.00070666522 0.7420001 4.3375877e-39
0.0063599944 0.00070666522 0.74200004 3.2298108e-39
0.0077733267 0.00070666522 0.74200004 2.1220227e-39
0.0091866562 0.00070667267 0.74200004 1.3801417e-39
0.010599989 0.00070667267 0.74200004 5.5361239e-40
0.012013358 0.00070667267 0.7420001 7.3655751e-40
0.013426689 0.00070666522 0.7420001 9.2059704e-40
0.01484002 0.00070665777 0.7420001 9.1988938e-40
0.016275249 0.00070762634 0.74300003 8.2949442e-40
0.017690502 0.00070762634 0.74300009 1.0142472e-39
0.019105757 0.00070762634 0.74300009 1.1050163e-39
0.020520974 0.00070763379 0.74300003 1.1043087e-39
0.021936227 0.00070761889 0.74300003 1.1050149e-39
0.023414288 0.00070953369 0.74500012 8.2877836e-40
0.024766697 0.00070761889 0.74300003 4.6143918e-40
0.026252408 0.00070951134 0.74500012 6.4511297e-40
0.027671436 0.00070951879 0.74500006 8.3129509e-40
0.029168583 0.00071144104 0.7470001 1.5684916e-39
0.030632427 0.00071237981 0.74800009 2.2152819e-39
0.032057159 0.00071237236 0.74800009 2.8606373e-39
0.033571441 0.00071429461 0.75000012 3.4120174e-39
0.035000041 0.00071429461 0.75000012 3.7786504e-39
0.036525726 0.00071619451 0.75200003 4.0537785e-39
0.038008593 0.00071715564 0.75300008 3.4098328e-39
0.039547659 0.00071904063 0.75500011 2.6772928e-39
0.040985759 0.00071904808 0.75500011 5.4438287e-39
0.042480037 0.00072000921 0.75600004 8.1113573e-39
0.043920003 0.00072000921 0.75600004 8.6641597e-39
0.045360029 0.00072000921 0.75600004 9.1269133e-39
0.046923853 0.00072190166 0.75800008 9.863021e-39
-0.026957132 0.0021857172 0.7650001 2.4918156e-39
-0.025433287 0.0021799952 0.76300007 2.2152273e-39
-0.023885678 0.002171427 0.76000011 1.9393592e-39
-0.022379007 0.0021657124 0.75800008 1.6620549e-39
-0.020935211 0.0021657199 0.75800002 1.3851289e-39
-0.019491399 0.0021657199 0.75800008 1.1989608e-39
-0.017999982 0.0021600202 0.75600004 1.0134933e-39
-0.016538076 0.0021571293 0.75500011 7.3690783e-40
-0.015059985 0.0021514222 0.75300002 4.6031954e-40
-0.013607574 0.0021485612 0.75200009 3.691945e-40
-0.012142836 0.0021428615 0.75000012 3.7063784e-40
-0.010714235 0.002142854 0.75000012 4.6140555e-40
-0.0092856707 0.0021428615 0.75000012 6.4398633e-40
-0.0078361826 0.0021371543 0.74800003 9.2198993e-40
-0.0064113885 0.0021371469 0.74800009 1.1989552e-39
-0.0049866335 0.002137132 0.74800009 9.2275364e-40
-0.0035618765 0.0021371394 0.74800003 6.476213e-40
-0.0021228304 0.0021228641 0.74300003 1.3833955e-39
-0.00070757588 0.0021228641 0.74300009 2.1202402e-39
0.00070767681 0.0021228641 0.74300009 2.6780761e-39
0.0021200238 0.0021199882 0.7420001 3.3255797e-39
0.0035333561 0.0021199957 0.7420001 3.2297884e-39
0.0049466863 0.0021199957 0.7420001 3.2305086e-39
0.0063600168 0.0021199957 0.7420001 2.489729e-39
0.0077733491 0.0021199957 0.7420001 1.7493025e-39
0.0091866804 0.0021200031 0.7420001 1.1057324e-39
0.010600011 0.0021200106 0.74200004 4.6359157e-40
0.012013342 0.0021199957 0.74200004 9.2168305e-40
0.013426674 0.0021200031 0.74200004 1.3812235e-39
0.014840006 0.0021200031 0.74200004 1.0131668e-39
0.016275261 0.0021228641 0.74300003 7.3837779e-40
0.017690517 0.0021228567 0.74300009 1.1060785e-39
0.01910577 0.0021228567 0.74300009 1.5649127e-39
0.020520987 0.0021228641 0.74300003 1.3819732e-39
0.021936242 0.0021228641 0.74300009 1.2908411e-39
0.023414321 0.0021285787 0.74500012 1.1050023e-39
0.024833346 0.0021285713 0.74500012 9.2025792e-40
0.026252408 0.0021285638 0.74500012 1.0131724e-39
0.027745729 0.0021342859 0.7470001 1.1068044e-39
0.029168596 0.0021342859 0.7470001 1.6606886e-39
0.030632412 0.002137132 0.74800009 2.3071202e-39
0.03214287 0.0021428689 0.75000012 2.9521169e-39
0.033571471 0.002142854 0.75000012 3.5960458e-39
0.035000034 0.0021428615 0.75000012 3.7797209e-39
0.0365743 0.0021514371 0.75300008 3.9630234e-39
0.038008571 0.0021514222 0.75300008 3.685712e-39
0.039547645 0.0021571517 0.75500011 3.5005907e-39
0.040985752 0.0021571517 0.75500011 5.6257047e-39
0.042480014 0.0021600202 0.75600004 7.8394395e-39
0.044036239 0.0021657199 0.75800008 8.4830013e-39
0.045480035 0.0021657273 0.75800002 9.0343744e-39
0.047109533 0.0021742955 0.76100004 9.2191216e-39
-0.026957117 0.0036428571 0.7650001 2.4925484e-39
-0.025433294 0.0036333203 0.76300007 2.3092236e-39
-0.023885701 0.003619045 0.76000011 2.0319094e-39
-0.022379009 0.0036095306 0.75800008 1.75567e-39
-0.020990474 0.003619045 0.76000011 1.3844044e-39
-0.019491402 0.0036095232 0.75800008 1.1064092e-39
-0.017999968 0.0036000162 0.75600004 8.2910766e-40
-0.016538091 0.0035952404 0.75500011 6.4471781e-40
-0.015059983 0.0035857186 0.75300002 4.6104261e-40
-0.013607601 0.0035809577 0.75200003 3.6920291e-40
-0.012175212 0.0035809577 0.75200009 1.8661512e-40
-0.010714245 0.0035714358 0.75000012 5.5360538e-40
-0.0092857024 0.0035714433 0.75000012 8.2982092e-40
-0.007857101 0.0035714209 0.75000012 1.1989496e-39
-0.0064113811 0.0035619065 0.74800009 1.5655895e-39
-0.0049866252 0.0035618991 0.74800009 1.1060701e-39
-0.0035571528 0.003557153 0.74700004 6.4618496e-40
-0.0021228415 0.003538087 0.74300009 9.2170126e-40
-0.00070758705 0.0035380945 0.74300009 1.1982896e-39
0.00070762838 0.0035380945 0.74300003 1.3819662e-39
0.002122883 0.0035381019 0.74300009 1.5681413e-39
0.0035381375 0.0035380945 0.74300009 1.8382598e-39
0.0049466696 0.003533341 0.74200004 2.1184312e-39
0.00636 0.003533341 0.74200004 1.7485781e-39
0.0077733314 0.0035333484 0.74200004 1.289039e-39
0.0091866786 0.003533341 0.7420001 8.2950143e-40
0.010600009 0.0035333261 0.7420001 3.7103721e-40
0.01201334 0.0035333261 0.7420001 1.1053596e-39
0.013426672 0.0035333335 0.7420001 1.7478508e-39
0.014860058 0.003538087 0.74300009 1.1964805e-39
0.016275251 0.0035380945 0.74300009 5.5470119e-40
0.017690506 0.003538087 0.74300009 1.2897383e-39
0.019105721 0.0035381019 0.74300003 1.9333168e-39
0.020520978 0.0035381019 0.74300009 1.7510948e-39
0.02193623 0.0035381019 0.74300009 1.4741422e-39
0.023414318 0.0035476238 0.74500012 1.379427e-39
0.02483332 0.0035476163 0.74500012 1.2886705e-39
0.026322871 0.0035571381 0.7470001 1.289032e-39
0.027745742 0.0035571381 0.7470001 1.2911872e-39
0.029168552 0.0035571456 0.74700004 1.8436379e-39
0.030632423 0.0035618916 0.74800009 2.3978809e-39
0.032142896 0.0035714209 0.75000012 3.0439594e-39
0.033571459 0.0035714358 0.75000012 3.6878925e-39
0.035000023 0.0035714433 0.75000006 3.7808112e-39
0.036574304 0.0035857186 0.75300002 3.8708306e-39
0.038109526 0.003595233 0.75500011 4.0526855e-39
0.039547633 0.0035952404 0.75500005 4.2392137e-39
0.041040041 0.0036000088 0.75600004 5.9019258e-39
0.042480007 0.0036000088 0.75600004 7.5614373e-39
0.044036239 0.0036095306 0.75800008 8.3025953e-39
0.045480072 0.0036095306 0.75800008 8.9443522e-39
0.047233347 0.0036333352 0.76300007 8.5752025e-39
-0.026886638 0.0050866604 0.76300007 2.5858357e-39
-0.025433302 0.0050866678 0.76300007 2.3999913e-39
-0.02391714 0.0050733387 0.76100004 2.2145014e-39
-0.022438075 0.0050666779 0.76000011 1.8446217e-39
-0.020990456 0.0050666705 0.76000011 1.5651999e-39
-0.019491404 0.0050533339 0.75800008 1.2890054e-39
-0.017999975 0.0050399974 0.7560001 1.103182e-39
-0.016538069 0.0050333366 0.75500011 8.2875033e-40
-0.015060004 0.00502 0.75300008 6.4543667e-40
-0.013607612 0.0050133392 0.75200009 6.4543527e-40
-0.012175241 0.0050133392 0.75200003 6.4615834e-40
-0.010714253 0.0050000027 0.75000006 7.3799944e-40
-0.0092856754 0.0049999952 0.75000012 8.3019227e-40
-0.0078571094 0.0049999952 0.75000012 1.0138605e-39
-0.0064114118 0.0049866736 0.74800003 1.2886593e-39
-0.0049866401 0.0049866512 0.74800009 8.2877275e-40
-0.003557136 0.0049799979 0.74700004 4.6000144e-40
-0.0021228285 0.0049533322 0.74300009 7.3658974e-40
-0.00070757215 0.0049533322 0.74300009 1.1032171e-39
0.00070764328 0.0049533397 0.74300003 1.1961316e-39
0.0021228979 0.0049533397 0.74300009 1.3790809e-39
0.0035381133 0.0049533471 0.74300003 1.4723471e-39
0.0049533676 0.0049533397 0.74300009 1.5645399e-39
0.0063599981 0.0049466789 0.7420001 1.3805088e-39
0.0077733304 0.004946664 0.7420001 1.1961189e-39
0.0091866609 0.0049466714 0.74200004 8.2949302e-40
0.010599993 0.0049466714 0.74200004 5.5542567e-40
0.012013323 0.0049466789 0.74200004 9.2205299e-40
0.013426654 0.0049466789 0.74200004 1.2883174e-39
0.014840025 0.0049466714 0.7420001 8.3021469e-40
0.016275266 0.0049533322 0.74300009 3.7174346e-40
0.017690521 0.0049533173 0.74300009 9.2274383e-40
0.01915716 0.0049666762 0.74500012 1.5659622e-39
0.020576226 0.0049666688 0.74500012 1.3830199e-39
0.021936204 0.0049533397 0.74300003 1.1993433e-39
0.02341429 0.0049666539 0.74500012 1.0145891e-39
0.02483335 0.0049666613 0.74500012 8.3092094e-40
0.026252378 0.0049666688 0.74500012 1.0145947e-39
0.027745698 0.0049800053 0.7470001 1.2007811e-39
0.029168569 0.0049800053 0.7470001 1.8443498e-39
0.030632392 0.0049866587 0.74800003 2.4890003e-39
0.032142885 0.0050000027 0.75000012 3.0428902e-39
0.033571448 0.0050000101 0.75000006 3.6871848e-39
0.035000052 0.0050000027 0.75000012 3.779749e-39
0.036574304 0.00502 0.75300002 3.8708334e-39
0.038109548 0.0050333291 0.75500011 3.9608402e-39
0.039547652 0.0050333366 0.75500011 4.0523085e-39
0.041039992 0.0050400123 0.75600004 5.07074e-39
0.042480022 0.0050400198 0.75600004 6.1814106e-39
0.043920007 0.0050400123 0.75600004 7.6565533e-39
0.045360014 0.0050399974 0.75600004 9.1301966e-39
0.047233373 0.0050866678 0.76300007 9.2191328e-39
-0.028525678 0.0065828636 0.76800001 3.2268905e-39
-0.027027566 0.0065742955 0.76700008 2.5836707e-39
-0.025499946 0.0065571442 0.7650001 2.490389e-39
-0.023885701 0.006514281 0.76000011 2.3045516e-39
-0.022379015 0.0064971521 0.75800008 2.0265214e-39
-0.02093518 0.0064971447 0.75800008 1.6577711e-39
-0.019491408 0.0064971447 0.75800002 1.4734093e-39
-0.017999999 0.0064800084 0.75600004 1.2886523e-39
-0.016538082 0.0064714327 0.75500011 1.1049729e-39
-0.01509998 0.0064714327 0.75500011 8.294678e-40
-0.013625704 0.006454289 0.75300008 1.012064e-39
-0.012175228 0.0064457357 0.75200003 1.1049771e-39
-0.010742819 0.0064457133 0.75200009 1.0135031e-39
-0.0092856837 0.006428577 0.75000012 8.294748e-40
-0.0078571197 0.006428577 0.75000006 9.2095297e-40
-0.0064285193 0.0064285696 0.75000012 9.2095297e-40
-0.0049866326 0.0064114183 0.74800009 6.4437168e-40
-0.0035618765 0.0064114183 0.74800009 2.7739544e-40
-0.0021285655 0.0063857138 0.74500012 6.454633e-40
-0.00070950371 0.0063857138 0.74500012 9.2025652e-40
0.00070765632 0.00636857 0.74300009 1.0117389e-39
0.0021229091 0.00636857 0.74300009 1.1046478e-39
0.0035381264 0.0063685775 0.74300003 1.1067988e-39
0.0049533807 0.0063685775 0.74300009 1.0135255e-39
0.0063685738 0.0063685849 0.74300003 1.013164e-39
0.0077733528 0.0063599944 0.7420001 1.0127941e-39
0.0091990819 0.00636857 0.74300009 9.2094736e-40
0.010614299 0.0063685775 0.74300003 7.3836798e-40
0.012029553 0.00636857 0.74300009 8.3093636e-40
0.013426676 0.0063600093 0.7420001 8.3057342e-40
0.014840009 0.0063600168 0.74200004 5.5542146e-40
0.016275279 0.0063685775 0.74300009 1.8807667e-40
0.017690493 0.00636857 0.74300003 6.4761009e-40
0.019105747 0.00636857 0.74300009 1.1067918e-39
0.020521004 0.00636857 0.74300009 1.0149619e-39
0.021936219 0.0063685775 0.74300003 9.2311938e-40
0.023414284 0.0063857064 0.74500012 6.4868208e-40
0.024833344 0.0063857138 0.74500012 3.7209239e-40
0.026252408 0.0063857138 0.74500012 7.3799384e-40
0.027745716 0.0064028502 0.7470001 1.0163828e-39
0.029207641 0.0064114258 0.74800009 1.8443498e-39
0.030632395 0.0064114258 0.74800003 2.5811904e-39
0.032057192 0.0064114258 0.74800009 3.1343613e-39
0.033571482 0.006428577 0.75000012 3.5956996e-39
0.035000045 0.0064285696 0.75000006 3.7804552e-39
0.036574285 0.0064542815 0.75300008 3.8708306e-39
0.038008586 0.006454289 0.75300008 3.8675768e-39
0.039547641 0.0064714327 0.75500005 3.7775363e-39
0.040985741 0.0064714327 0.75500005 4.331422e-39
0.042479996 0.0064800233 0.75600004 4.7999377e-39
0.043920022 0.0064800084 0.75600004 7.0111769e-39
0.045600019 0.006514281 0.76000011 9.2184321e-39
0.04704766 0.006514281 0.76000011 9.8619729e-39
0.048686706 0.0065400004 0.76300007 1.0504823e-38
-0.028599925 0.0080666691 0.7700001 3.3172714e-39
-0.027062839 0.0080457255 0.76800001 2.857731e-39
-0.025499972 0.008014299 0.7650001 2.6733384e-39
-0.023885682 0.0079619065 0.76000011 2.578633e-39
-0.022379017 0.0079409704 0.75800002 2.2109323e-39
-0.020935183 0.0079409555 0.75800008 1.8418191e-39
-0.019491408 0.0079409555 0.75800002 1.5652588e-39
-0.017999984 0.007919997 0.75600004 1.2886593e-39
-0.016538059 0.0079095289 0.75500011 1.1053288e-39
-0.015099956 0.0079095289 0.75500011 9.2237949e-40
-0.013625702 0.0078885779 0.75300008 8.29472e-40
-0.012175216 0.0078781024 0.75200003 8.29472e-40
-0.010742844 0.0078781098 0.75200003 8.2911187e-40
-0.0092856931 0.0078571513 0.75000006 8.2875734e-40
-0.0078570908 0.0078571439 0.75000012 9.2095577e-40
-0.0064285267 0.0078571513 0.75000012 1.0127843e-39
-0.0049999859 0.0078571364 0.75000012 7.3691063e-40
-0.0035713844 0.0078571439 0.75000012 4.6177409e-40
-0.002128571 0.0078047663 0.74500012 7.3729038e-40
-0.00070950744 0.0078047588 0.74500012 1.0124451e-39
0.00070955436 0.0078047588 0.74500012 1.012092e-39
0.0021228625 0.0077838078 0.74300003 1.1039275e-39
0.003538117 0.0077838153 0.74300009 1.0128095e-39
0.0049533714 0.0077838078 0.74300009 9.2097119e-40
0.0063685868 0.0077838153 0.74300003 9.2096698e-40
0.0077838423 0.0077838078 0.74300009 1.0127815e-39
0.0091990959 0.0077838004 0.74300009 1.1971489e-39
0.010614312 0.0077838004 0.74300003 1.3812052e-39
0.012029566 0.0077838078 0.74300009 1.1068016e-39
0.013426675 0.0077733248 0.7420001 9.2348371e-40
0.014860038 0.0077838153 0.74300009 6.4725275e-40
0.01627529 0.0077838153 0.74300009 3.7103441e-40
0.01769051 0.0077838227 0.74300003 8.3057622e-40
0.019105762 0.0077838004 0.74300009 1.3823053e-39
0.020576192 0.0078047737 0.74500012 1.2893922e-39
0.021995258 0.0078047514 0.74500012 1.1971909e-39
0.023414321 0.0078047514 0.74500012 9.2239491e-40
0.024833344 0.0078047663 0.74500012 6.4759047e-40
0.026322862 0.0078257173 0.7470001 9.2308014e-40
0.027782898 0.0078361928 0.74800009 1.2929557e-39
0.029207652 0.0078361854 0.74800009 2.0287369e-39
0.030714301 0.0078571588 0.75000006 2.765576e-39
0.032142907 0.0078571439 0.75000012 3.1357907e-39
0.033571448 0.0078571439 0.75000012 3.5971262e-39
0.035000011 0.0078571439 0.75000006 3.7808027e-39
0.036574293 0.0078885704 0.75300008 3.9648171e-39
0.038008586 0.0078885779 0.75300008 4.0537659e-39
0.039547659 0.0079095215 0.75500011 4.1448965e-39
0.041040026 0.0079200119 0.7560001 4.6087501e-39
0.042480011 0.0079200119 0.75600004 5.1651329e-39
0.04392004 0.0079200044 0.75600004 6.7320648e-39
0.045480043 0.0079409555 0.75800008 8.2982709e-39
0.047109537 0.007972382 0.76100004 8.5751913e-39
0.048559044 0.0079723895 0.76100004 8.8517768e-39
0.050008569 0.0079723969 0.76100004 8.7585078e-39
-0.028599953 0.0095333308 0.77000004 3.4101775e-39
-0.027133293 0.0095333382 0.7700001 3.1346724e-39
-0.025433287 0.0094466582 0.76300007 2.9502854e-39
-0.023917148 0.0094219148 0.76100004 2.7648235e-39
-0.022467583 0.0094219148 0.76100004 2.3964067e-39
-0.020990478 0.009409532 0.76000011 2.0258432e-39
-0.019491374 0.0093847662 0.75800008 1.6567159e-39
-0.017999969 0.0093600005 0.75600004 1.2886495e-39
-0.016538074 0.0093476176 0.75500011 1.1049715e-39
-0.015059995 0.0093228519 0.75300002 9.2130329e-40
-0.013625698 0.0093228519 0.75300002 7.3763651e-40
-0.012175206 0.0093104765 0.75200009 5.5360538e-40
-0.010742857 0.0093104765 0.75200003 7.3655751e-40
-0.0093104457 0.0093104765 0.75200009 8.2876294e-40
-0.007857101 0.0092857108 0.75000012 1.0135213e-39
-0.0064285602 0.0092857182 0.75000012 1.1049897e-39
-0.004999957 0.0092857108 0.75000012 8.2839721e-40
-0.0035713927 0.0092857182 0.75000012 5.5325365e-40
-0.0021342763 0.0092485771 0.7470001 8.2948321e-40
-0.00071140734 0.0092485696 0.7470001 1.1042792e-39
0.00070952642 0.0092238039 0.74500012 1.1039289e-39
0.002128592 0.0092238039 0.74500012 1.0117347e-39
0.0035476147 0.0092238188 0.74500012 9.1989919e-40
0.0049533453 0.009199053 0.74300003 8.2841963e-40
0.006368598 0.009199053 0.74300009 9.1989499e-40
0.0077838534 0.009199053 0.74300009 9.2095717e-40
0.0091990707 0.0091990605 0.74300003 1.4737498e-39
0.010614324 0.0091990605 0.74300009 1.9336588e-39
0.012029579 0.0091990456 0.74300009 1.4755701e-39
0.013444794 0.0091990456 0.74300003 9.234683e-40
0.01486005 0.0091990456 0.74300009 7.387085e-40
0.016275242 0.009199053 0.74300003 5.5469699e-40
0.017690498 0.009199053 0.74300009 1.104652e-39
0.019157166 0.0092238113 0.74500012 1.5649057e-39
0.020576227 0.0092238039 0.74500012 1.4716338e-39
0.021995252 0.0092238039 0.74500012 1.3801515e-39
0.023477137 0.0092485771 0.7470001 1.1953973e-39
0.024833355 0.0092238039 0.74500012 9.2167884e-40
0.026322879 0.0092485696 0.7470001 1.1978972e-39
0.027782906 0.0092609599 0.74800009 1.4752086e-39
0.02920766 0.0092609674 0.74800009 2.2113387e-39
0.030714329 0.0092857108 0.75000012 2.8577787e-39
0.032142896 0.0092857182 0.75000006 3.2290709e-39
0.033660978 0.0093104839 0.75200003 3.5038613e-39
0.035093363 0.0093104765 0.75200009 3.780444e-39
0.036574293 0.0093228593 0.75300008 4.056298e-39
0.038109545 0.0093476251 0.75500011 4.2370865e-39
0.039547648 0.0093476325 0.75500011 4.4200457e-39
0.04104 0.0093600079 0.75600004 4.9771613e-39
0.042480025 0.0093600079 0.75600004 5.4399247e-39
0.043920014 0.0093600079 0.75600004 6.3611481e-39
0.045600016 0.0094095245 0.76000011 7.2852218e-39
0.047233354 0.0094466656 0.76300007 7.288072e-39
0.048559051 0.0094219148 0.76100004 7.1951659e-39
0.05000858 0.0094219148 0.76100004 7.651119e-39
0.051458083 0.0094219148 0.76100004 8.1124293e-39
0.052907653 0.0094219074 0.76100004 8.1102573e-39
-0.028599946 0.011 0.7700001 3.5023661e-39
-0.026886608 0.010899998 0.76300007 3.2286603e-39
-0.025499946 0.010928564 0.7650001 2.9510084e-39
-0.023917139 0.010871433 0.76100004 2.7659067e-39
-0.022467611 0.010871433 0.76100004 2.3042223e-39
-0.020990459 0.010857143 0.76000011 1.8414505e-39
-0.019491376 0.010828577 0.75800008 1.5648594e-39
-0.017999994 0.010800004 0.75600004 1.2875635e-39
-0.01653805 0.010785714 0.75500011 1.0120598e-39
-0.015099947 0.010785714 0.75500011 7.3655751e-40
-0.013625696 0.010757141 0.75300002 5.5324805e-40
-0.012175195 0.010742866 0.75200009 3.7029172e-40
-0.010742845 0.010742866 0.75200009 5.5360118e-40
-0.0093104737 0.010742873 0.75200003 6.4438009e-40
-0.0078571336 0.010714293 0.75000012 7.3802747e-40
-0.0064285314 0.010714293 0.75000012 7.3873512e-40
-0.0049999673 0.010714293 0.75000012 6.4545349e-40
-0.0035714039 0.0107143 0.75000006 5.5289912e-40
-0.0021342614 0.010671429 0.7470001 7.3656872e-40
-0.00071145018 0.010671437 0.7470001 8.2805529e-40
0.00071142073 0.010671437 0.7470001 9.1989919e-40
0.0021285845 0.010642864 0.74500012 9.1954046e-40
0.0035476482 0.010642864 0.74500012 7.362282e-40
0.0049533565 0.010614291 0.74300003 6.4403397e-40
0.0063686129 0.010614291 0.74300009 6.443913e-40
0.0077838656 0.010614283 0.74300009 7.3657993e-40
0.0091990819 0.010614291 0.74300003 1.2893796e-39
0.010614313 0.010614291 0.74300009 1.8429037e-39
0.01202953 0.010614276 0.74300003 1.198979e-39
0.013444784 0.010614283 0.74300009 5.5539344e-40
0.014860039 0.010614283 0.74300009 4.6246212e-40
0.016275257 0.010614291 0.74300003 3.7101759e-40
0.01769051 0.010614291 0.74300009 7.3767294e-40
0.01915716 0.010642849 0.74500012 1.0146144e-39
0.020576222 0.010642856 0.74500012 9.209852e-40
0.021995246 0.010642856 0.74500006 7.373086e-40
0.023477152 0.010671437 0.7470001 6.4475004e-40
0.024900023 0.010671429 0.7470001 5.5399494e-40
0.026322857 0.010671429 0.74700004 6.4583464e-40
0.027782908 0.010685712 0.74800009 8.3058323e-40
0.029207643 0.010685705 0.74800009 1.1078848e-39
0.030714322 0.010714293 0.75000006 1.4806134e-39
0.032142863 0.010714293 0.75000006 1.6624963e-39
0.033571463 0.010714293 0.75000012 1.847598e-39
0.03500003 0.0107143 0.75000012 2.0316235e-39
0.036574297 0.010757156 0.75300008 2.2221034e-39
0.038109567 0.010785706 0.75500011 3.3183813e-39
0.039547674 0.010785714 0.75500011 4.4125123e-39
0.041040014 0.010799997 0.75600004 5.34629e-39
0.042480007 0.010800004 0.75600004 6.3579237e-39
0.043920033 0.010800004 0.75600004 6.8217718e-39
0.04566003 0.01087144 0.7610001 7.3767112e-39
0.047233351 0.010900006 0.76300007 7.3770503e-39
0.04868672 0.010899998 0.76300007 7.2848645e-39
0.050140057 0.010900006 0.76300007 8.1135433e-39
0.051593371 0.010900013 0.76300007 8.8456713e-39
-0.030066645 0.012466654 0.7700001 3.8653795e-39
-0.028599938 0.012466662 0.7700001 3.5949191e-39
-0.027133275 0.012466669 0.7700001 3.2279485e-39
-0.02549997 0.012385719 0.7650001 2.9513798e-39
-0.023979966 0.012353331 0.76300007 2.6740726e-39
-0.022585666 0.012385704 0.7650001 2.1205415e-39
-0.02107328 0.012353331 0.76300007 1.5670118e-39
-0.019568568 0.012320958 0.76100004 1.4730197e-39
-0.018047582 0.01227238 0.75800002 1.2879166e-39
-0.016559988 0.012240015 0.75600004 9.1950263e-40
-0.015099985 0.01222381 0.75500011 4.6105382e-40
-0.013625694 0.01219143 0.75300002 3.688722e-40
-0.012175244 0.01217524 0.75200003 1.8698366e-40
-0.010742833 0.01217524 0.75200009 3.7136231e-40
-0.0093104606 0.012175247 0.75200003 4.6247474e-40
-0.0078780511 0.012175247 0.75200009 4.6354533e-40
-0.0064285416 0.012142874 0.75000012 3.7100218e-40
-0.0049999775 0.012142867 0.75000006 4.6213002e-40
-0.003571375 0.012142867 0.75000012 5.5287951e-40
-0.0021343061 0.012094297 0.7470001 5.5251097e-40
-0.00071143528 0.012094282 0.7470001 5.5252918e-40
0.00071143563 0.012094282 0.7470001 7.3585966e-40
0.0021285808 0.012061916 0.74500012 8.2841542e-40
0.0035476445 0.012061909 0.74500012 6.454647e-40
0.0049533714 0.012029521 0.74300003 3.6960088e-40
0.0063686036 0.012029514 0.74300009 4.6107904e-40
0.007783819 0.012029529 0.74300003 5.5291454e-40
0.0091990735 0.012029521 0.74300009 1.104645e-39
0.010614329 0.012029529 0.74300009 1.6563628e-39
0.012029544 0.012029536 0.74300003 9.2166623e-40
0.013444799 0.012029529 0.74300009 1.8589625e-40
0.014860014 0.012029521 0.74300003 1.8445152e-40
0.016275268 0.012029521 0.74300009 1.8518439e-40
0.017690523 0.012029514 0.74300009 3.6815474e-40
0.019157134 0.012061901 0.74500012 4.607049e-40
0.020576198 0.012061901 0.74500012 2.7631504e-40
0.021995259 0.012061901 0.74500012 9.2995771e-41
0.02341428 0.012061916 0.74500012 9.2272701e-41
0.024833344 0.012061909 0.74500012 9.2997173e-41
0.026322849 0.012094289 0.7470001 9.2288116e-41
0.02774572 0.012094289 0.7470001 9.3372721e-41
0.029207647 0.012110487 0.74800009 9.2304931e-41
0.030714327 0.012142859 0.75000012 9.5178994e-41
0.032142889 0.012142867 0.75000012 9.2313339e-41
0.033660978 0.01217524 0.75200009 9.8060064e-41
0.035093348 0.01217524 0.75200003 1.8416425e-40
0.036574297 0.012191422 0.75300002 2.8927985e-40
0.038109552 0.012223817 0.75500011 2.4022207e-39
0.039547633 0.012223817 0.75500011 4.4344258e-39
0.041040033 0.01224 0.75600004 5.8205538e-39
0.042592429 0.012272388 0.75800008 7.1909018e-39
0.044036239 0.01227238 0.75800008 7.3752818e-39
0.045600012 0.012304761 0.76000011 7.4671187e-39
0.04704766 0.012304768 0.76000011 7.4664027e-39
0.048686713 0.012353331 0.76300007 7.3760203e-39
0.050140049 0.012353338 0.76300007 8.4884677e-39
0.05159336 0.012353338 0.76300007 9.5832826e-39
-0.031615209 0.013969526 0.77200007 2.7579361e-39
-0.030066591 0.013933346 0.7700001 3.2228828e-39
-0.028599968 0.013933346 0.77000004 3.2264995e-39
-0.027133308 0.013933353 0.7700001 3.2283128e-39
-0.025599999 0.013897151 0.76800001 2.76772e-39
-0.024042811 0.013842866 0.7650001 2.3985661e-39
-0.022644736 0.013879061 0.76700008 2.0290536e-39
-0.021073285 0.013806671 0.76300007 1.5673635e-39
-0.019568559 0.013770491 0.76100004 1.4733728e-39
-0.018047584 0.013716199 0.75800002 1.2875537e-39
-0.016559975 0.013680018 0.75600004 1.0127674e-39
-0.015099959 0.013661899 0.75500011 7.3728198e-40
-0.013625714 0.013625719 0.75300008 5.5434947e-40
-0.012175233 0.013607621 0.75200003 3.7245392e-40
-0.010742823 0.013607621 0.75200009 4.631936e-40
-0.0092856782 0.013571434 0.75000012 5.5464094e-40
-0.0078780781 0.013607629 0.75200003 5.5389265e-40
-0.0064285509 0.013571434 0.75000006 5.5356474e-40
-0.0049999477 0.013571426 0.75000012 5.5323544e-40
-0.0035714067 0.013571426 0.75000012 6.4397792e-40
-0.0021342894 0.013517134 0.7470001 5.5248294e-40
-0.00071141851 0.013517141 0.7470001 4.6067407e-40
0.00071141514 0.013517149 0.74700004 5.5289492e-40
0.0021285771 0.013480961 0.74500006 6.4545489e-40
0.0035476165 0.013480954 0.74500012 5.53625e-40
0.004953362 0.013444752 0.74300009 4.6179371e-40
0.0063686147 0.013444759 0.74300009 4.6107904e-40
0.007783832 0.013444766 0.74300003 4.6072592e-40
0.0091990847 0.013444759 0.74300009 6.4404378e-40
0.010614302 0.013444766 0.74300003 9.1880898e-40
0.012029556 0.013444766 0.74300003 2.1165913e-39
0.01344481 0.013444766 0.74300009 3.3065067e-39
0.014860027 0.013444759 0.74300003 2.4799872e-39
0.016275281 0.013444759 0.74300009 1.6534677e-39
0.017690498 0.013444766 0.74300003 2.6636582e-39
0.019157168 0.013480946 0.74500012 3.6738458e-39
0.02057619 0.013480954 0.74500012 3.1228287e-39
0.021995254 0.013480954 0.74500012 2.6636442e-39
0.023414319 0.013480954 0.74500012 2.9409359e-39
0.024899995 0.013517149 0.7470001 3.2150187e-39
0.026322866 0.013517149 0.7470001 4.4149898e-39
0.027782865 0.013535246 0.74800003 5.694245e-39
0.029207658 0.013535231 0.74800009 6.3457184e-39
0.030714316 0.013571419 0.75000012 6.980679e-39
0.032142881 0.013571426 0.75000012 7.3645255e-39
0.033660989 0.013607614 0.75200009 7.8187003e-39
0.035093363 0.013607621 0.75200003 7.7394387e-39
0.036574297 0.013625719 0.75300002 7.735515e-39
0.038109578 0.013661899 0.75500011 9.2203309e-39
0.039547659 0.013661899 0.75500011 1.070474e-38
0.041040011 0.013680004 0.75600004 8.7664826e-39
0.042480033 0.013680004 0.75600004 6.9143219e-39
0.044036236 0.013716176 0.75800008 7.096174e-39
0.045600034 0.013752379 0.76000011 7.3745728e-39
0.047047637 0.013752386 0.76000005 6.4508579e-39
-0.031615216 0.015439995 0.77200001 2.9394674e-39
-0.030144747 0.015440002 0.77200007 2.5796812e-39
-0.028674278 0.015439995 0.77200007 2.8591575e-39
-0.027133297 0.015400007 0.7700001 3.1350368e-39
-0.025666637 0.015400015 0.7700001 2.6765908e-39
-0.024137158 0.015360005 0.76800007 2.1230541e-39
-0.022674283 0.015360013 0.76800001 1.8457399e-39
-0.021128532 0.015300013 0.7650001 1.5673635e-39
-0.019619981 0.015260004 0.76300007 1.4730169e-39
-0.018047547 0.015160002 0.75800008 1.2893473e-39
-0.016559983 0.01512 0.75600004 1.1063952e-39
-0.015119994 0.015120007 0.75600004 9.2202076e-40
-0.013607592 0.015040003 0.75200009 7.3800505e-40
-0.01217522 0.015039995 0.75200009 4.6284748e-40
-0.010742849 0.015040003 0.75200003 5.5431444e-40
-0.0092856884 0.014999993 0.75000012 6.4578279e-40
-0.0078780893 0.015040003 0.75200003 6.4398212e-40
-0.0064456789 0.015040003 0.75200009 6.4507233e-40
-0.0050133066 0.015040003 0.75200009 6.4472761e-40
-0.0035714169 0.015000008 0.75000012 6.4472481e-40
-0.0021370964 0.014959998 0.74800009 5.5252778e-40
-0.00071234052 0.014959998 0.74800009 3.6958126e-40
0.0007114319 0.014940009 0.7470001 4.6178249e-40
0.002134301 0.014939994 0.7470001 4.617881e-40
0.0035476128 0.014900006 0.74500012 4.6179371e-40
0.0049533751 0.014859997 0.74300009 4.617895e-40
0.0063685905 0.014860012 0.74300003 4.607091e-40
0.0077838451 0.014859989 0.74300003 3.6849665e-40
0.0091991005 0.014859997 0.74300009 2.7592548e-40
0.010614316 0.014860004 0.74300003 1.0485776e-40
0.012029571 0.014860004 0.74300009 3.2269521e-39
0.013444786 0.014860012 0.74300003 6.3582965e-39
0.014860041 0.014860004 0.74300003 4.7758956e-39
0.016319038 0.014899999 0.74500012 3.1383158e-39
0.0177381 0.014899999 0.74500012 4.9596325e-39
0.019157164 0.014899999 0.74500012 6.815323e-39
0.020576227 0.014899999 0.74500012 5.9697599e-39
0.021995248 0.014900014 0.74500012 5.1622841e-39
0.02341431 0.014900006 0.74500012 5.7004135e-39
0.024900012 0.014939994 0.7470001 6.2707882e-39
0.026322844 0.014940001 0.74700004 8.7496193e-39
0.027782872 0.014960013 0.74800009 1.1240328e-38
0.029207665 0.014959998 0.74800009 1.2615737e-38
0.030714305 0.015000001 0.75000012 1.3911496e-38
0.032228589 0.01504001 0.75200009 1.475023e-38
0.033660963 0.01504001 0.75200003 1.5485283e-38
0.035140049 0.015059985 0.75300008 1.5311666e-38
0.036574304 0.015060008 0.75300002 1.5117949e-38
0.03810956 0.01510001 0.75500011 1.6039173e-38
0.039547641 0.01510001 0.75500011 1.6866381e-38
0.041040022 0.015120007 0.75600004 1.1718543e-38
0.042480011 0.015120015 0.75600004 6.5451961e-39
0.044036232 0.015160002 0.75800008 6.9045801e-39
0.045660019 0.015220001 0.76100004 7.2769527e-39
0.047109552 0.015220009 0.76100004 5.433794e-39
-0.030144757 0.016910478 0.77200007 3.226124e-39
-0.028674288 0.016910486 0.77200007 3.2261408e-39
-0.027203772 0.016910486 0.77200001 3.13252e-39
-0.025666632 0.016866654 0.7700001 2.7659039e-39
-0.024199968 0.016866662 0.7700001 2.3971186e-39
-0.022733262 0.016866662 0.7700001 1.9364978e-39
-0.021183755 0.01680094 0.76700008 1.4744533e-39
-0.019619988 0.016713344 0.76300007 1.2904249e-39
-0.018047573 0.016603805 0.75800008 1.1071127e-39
-0.016560007 0.016560011 0.75600004 1.0141996e-39
-0.01503997 0.016472392 0.75200003 9.2201235e-40
-0.013607621 0.016472392 0.75200003 7.3798823e-40
-0.01217521 0.016472384 0.75200009 5.5324104e-40
-0.010742838 0.016472392 0.75200003 6.4615133e-40
-0.0093104513 0.016472384 0.75200009 8.3019647e-40
-0.0078780791 0.016472392 0.75200009 6.4618076e-40
-0.0064457068 0.016472384 0.75200003 4.6250837e-40
-0.0050132954 0.016472384 0.75200009 6.4581923e-40
-0.0035713881 0.016428575 0.75000012 9.2169566e-40
-0.0021371113 0.016384751 0.74800009 7.3695968e-40
-0.0007114241 0.016362861 0.74700004 6.454717e-40
0.0007114468 0.016362861 0.7470001 6.4510036e-40
0.0021342954 0.016362846 0.7470001 6.4510596e-40
0.0035476463 0.016319036 0.74500012 5.5363341e-40
0.0049533863 0.016275242 0.74300009 3.7030853e-40
0.0063686036 0.016275249 0.74300003 2.770255e-40
0.0077838562 0.016275235 0.74300009 2.7590866e-40
0.0092238197 0.016319059 0.74500006 3.4076005e-39
0.01064286 0.016319051 0.74500012 6.6499431e-39
0.012061922 0.016319051 0.74500012 1.0706248e-38
0.013480945 0.016319051 0.74500012 1.4674124e-38
0.014900008 0.016319059 0.74500012 1.3923593e-38
0.01631907 0.016319044 0.74500012 1.3102879e-38
0.017738096 0.016319059 0.74500012 1.3554948e-38
0.019157158 0.016319051 0.74500012 1.3943395e-38
0.020631416 0.016362853 0.7470001 1.4110504e-38
0.022054287 0.016362853 0.7470001 1.421353e-38
0.023477159 0.016362853 0.7470001 1.4385792e-38
0.024933368 0.016384758 0.74800009 1.4489435e-38
0.026358126 0.016384766 0.74800009 1.5772229e-38
0.02778288 0.016384773 0.74800009 1.707483e-38
0.029207636 0.016384766 0.74800003 1.752293e-38
0.030714337 0.016428567 0.75000012 1.7901067e-38
0.0322286 0.016472377 0.75200009 1.8539643e-38
0.033660971 0.016472377 0.75200003 1.9285088e-38
0.035140049 0.016494274 0.75300008 1.8541077e-38
0.036574304 0.016494289 0.75300002 1.7803141e-38
0.038109563 0.016538091 0.75500011 1.7244928e-38
0.039547667 0.016538084 0.75500011 1.6696396e-38
0.041040033 0.016560003 0.75600004 1.1065342e-38
0.042592421 0.01660382 0.75800002 5.5106216e-39
0.044036232 0.01660382 0.75800008 6.3535349e-39
0.04566003 0.016669519 0.76100004 7.2830063e-39
0.047233358 0.016713344 0.76300007 5.8025135e-39
0.048686691 0.016713336 0.76300001 4.3227353e-39
0.050468557 0.016822867 0.76800001 3.9575373e-39
0.051931433 0.016822867 0.76800001 3.5855318e-39
0.053394284 0.016822867 0.76800001 3.7735076e-39
-0.02867426 0.018380955 0.77200007 3.5023661e-39
-0.027203782 0.018380962 0.77200001 3.1339634e-39
-0.025733313 0.018380962 0.77200001 2.8577562e-39
-0.024262844 0.018380962 0.77200001 2.5808022e-39
-0.022733292 0.018333353 0.77000004 2.0283417e-39
-0.021211434 0.018285736 0.76800001 1.3833436e-39
-0.019671384 0.018214278 0.7650001 1.1985978e-39
-0.017999956 0.018000007 0.75600004 9.2165362e-40
-0.01655999 0.018000007 0.75600004 9.2057462e-40
-0.01503998 0.017904758 0.75200009 9.2129629e-40
-0.013607608 0.017904766 0.75200003 7.3834696e-40
-0.012175199 0.017904758 0.75200009 5.5430603e-40
-0.010742826 0.017904766 0.75200003 7.3796581e-40
-0.0092856679 0.017857142 0.75000012 9.2202636e-40
-0.007878066 0.017904758 0.75200009 5.5650887e-40
-0.0064456938 0.017904773 0.75200003 1.8771514e-40
-0.0050132843 0.017904773 0.75200009 6.4651707e-40
-0.0035713974 0.017857134 0.75000012 1.1049897e-39
-0.0021371038 0.017809518 0.74800009 1.0120906e-39
-0.00071142783 0.017785721 0.7470001 9.2024812e-40
0.00071144308 0.017785721 0.7470001 9.1988238e-40
0.0021342749 0.017785721 0.7470001 8.2841542e-40
0.0035476408 0.017738089 0.74500012 5.5292014e-40
0.0049533397 0.01769048 0.74300003 2.7811851e-40
0.0063685942 0.017690472 0.74300009 1.851942e-40
0.0077838488 0.01769048 0.74300009 9.2656657e-41
0.0091990642 0.01769048 0.74300009 6.612635e-39
0.01061432 0.017690472 0.74300009 1.3184701e-38
0.012029535 0.017690472 0.74300003 1.8090455e-38
0.013444791 0.01769048 0.74300003 2.2953401e-38
0.014900005 0.017738096 0.74500012 2.3050226e-38
0.016319068 0.017738096 0.74500012 2.304057e-38
0.01773813 0.017738089 0.74500012 2.2030407e-38
0.019208562 0.017785713 0.7470001 2.1021985e-38
0.020631433 0.017785713 0.7470001 2.2131877e-38
0.022054303 0.017785713 0.7470001 2.3228198e-38
0.023477137 0.017785721 0.74700004 2.2955596e-38
0.024933379 0.017809525 0.74800009 2.2677205e-38
0.026358133 0.017809533 0.74800009 2.2774764e-38
0.027782891 0.017809533 0.74800009 2.2865186e-38
0.029207623 0.017809533 0.74800009 2.2407466e-38
0.030714326 0.017857149 0.75000012 2.185324e-38
0.032228611 0.017904766 0.75200009 2.2405704e-38
0.033705756 0.017928571 0.75300008 2.2958152e-38
0.035140049 0.017928571 0.75300008 2.1672814e-38
0.036671467 0.017976187 0.75500011 2.0378495e-38
0.038109548 0.017976187 0.75500011 1.8440251e-38
0.039600026 0.018000007 0.75600004 1.6414066e-38
0.041040014 0.018000014 0.75600004 1.0518593e-38
0.042592417 0.018047623 0.75800002 4.5179824e-39
0.044152409 0.018095247 0.76000011 5.8997272e-39
0.045780033 0.018166684 0.76300007 7.1868562e-39
0.047357164 0.018214293 0.7650001 6.1709247e-39
0.048814345 0.018214293 0.7650001 5.0692532e-39
0.050468545 0.018285722 0.76800001 5.9886802e-39
0.051931422 0.018285722 0.76800001 6.8162773e-39
0.053394273 0.018285722 0.76800001 6.9142112e-39
-0.031656183 0.019877143 0.77300012 2.4831555e-39
-0.030183807 0.019877158 0.77300006 3.9615184e-39
-0.028674267 0.019851424 0.77200007 3.4108894e-39
-0.027203754 0.019851439 0.77200007 2.9510197e-39
-0.025666652 0.0198 0.7700001 2.7659376e-39
-0.024199944 0.019800015 0.77000004 2.4889793e-39
-0.022644754 0.019722871 0.76700002 2.0276326e-39
-0.021128532 0.01967144 0.7650001 1.4744701e-39
-0.019619966 0.019620001 0.76300007 1.0135003e-39
-0.018000003 0.01944001 0.75600004 6.4436047e-40
-0.016559977 0.01944001 0.75600004 6.4507233e-40
-0.01505996 0.019362845 0.75300008 7.3726796e-40
-0.013607597 0.019337155 0.75200009 5.5467457e-40
-0.012175226 0.019337162 0.75200003 3.7170002e-40
-0.010742838 0.01933714 0.75200009 4.6279563e-40
-0.0093104662 0.019337155 0.75200003 6.4507934e-40
-0.0078780558 0.01933714 0.75200009 4.6288952e-40
-0.0064456835 0.01933714 0.75200003 3.710232e-40
-0.0050133336 0.01933714 0.75200003 6.4613872e-40
-0.0035714067 0.019285716 0.75000006 9.2130049e-40
-0.0021371336 0.019234285 0.74800003 9.2095437e-40
-0.00071141293 0.01920858 0.7470001 1.012071e-39
0.00071141886 0.019208565 0.74700004 9.2059143e-40
0.0021342898 0.019208565 0.7470001 8.2877275e-40
0.003547637 0.019157149 0.74500012 7.3767154e-40
0.0049533527 0.019105718 0.74300003 6.4654089e-40
0.0063686054 0.019105718 0.74300009 3.688694e-40
0.0077838227 0.019105725 0.74300003 9.2359582e-41
0.0091990773 0.019105725 0.74300009 7.4600786e-39
0.010614332 0.019105703 0.74300009 1.4773615e-38
0.012029547 0.01910571 0.74300003 1.8914881e-38
0.013480975 0.019157134 0.74500012 2.3142183e-38
0.014900038 0.019157141 0.74500012 2.3142183e-38
0.016319063 0.019157149 0.74500006 2.3234011e-38
0.017785707 0.01920858 0.7470001 2.2125519e-38
0.019208578 0.01920858 0.7470001 2.1023501e-38
0.020631451 0.019208565 0.7470001 2.2130558e-38
0.022054281 0.019208565 0.74700004 2.3142183e-38
0.023477154 0.019208565 0.74700004 2.3049631e-38
0.024933347 0.019234292 0.74800003 2.3050348e-38
0.026358141 0.019234292 0.74800009 2.2774842e-38
0.027782872 0.019234292 0.74800009 2.2499335e-38
0.02920763 0.019234277 0.74800009 2.1302604e-38
0.030714316 0.019285724 0.75000006 2.0106949e-38
0.032228585 0.019337147 0.75200003 2.0844861e-38
0.03370576 0.019362852 0.75300008 2.1672816e-38
0.035140052 0.019362859 0.75300008 2.0476443e-38
0.036671452 0.019414298 0.75500005 1.9280788e-38
0.038160015 0.019440003 0.75600004 1.6787598e-38
0.0396 0.01944001 0.75600004 1.4306865e-38
0.041148622 0.019491427 0.75800008 8.6700046e-39
0.042704806 0.019542851 0.76000011 3.0310114e-39
0.044210482 0.019568585 0.76100004 7.7335546e-39
0.045900054 0.019671433 0.7650001 1.2423982e-38
0.047357175 0.019671433 0.7650001 1.1789026e-38
0.048814319 0.01967144 0.7650001 1.1140796e-38
0.050468568 0.019748561 0.76800001 1.0224592e-38
0.051931448 0.019748583 0.76800001 9.3065976e-39
0.053394258 0.019748576 0.76800001 7.9200983e-39
-0.031656202 0.021349527 0.77300006 2.1136569e-39
-0.030144745 0.0213219 0.77200007 3.9590003e-39
-0.02867423 0.021321923 0.77200007 3.4119586e-39
-0.027203761 0.0213219 0.77200007 2.7676836e-39
-0.025666643 0.021266669 0.7700001 2.5825875e-39
-0.024199937 0.021266669 0.7700001 2.3967641e-39
-0.022644758 0.021183811 0.76700002 2.026911e-39
-0.021128519 0.021128573 0.7650001 1.5663042e-39
-0.019568548 0.02101811 0.76100004 9.2059003e-40
-0.017999988 0.020880006 0.75600004 2.7845342e-40
-0.016538061 0.020852387 0.75500011 3.6992458e-40
-0.015099958 0.020852387 0.75500011 4.6283907e-40
-0.013625702 0.020797141 0.75300002 2.7988695e-40
-0.012175214 0.020769529 0.75200003 9.6564878e-41
-0.010742826 0.020769529 0.75200009 2.805862e-40
-0.0093104541 0.020769529 0.75200009 3.7101199e-40
-0.0078780819 0.020769536 0.75200003 4.628727e-40
-0.0064456724 0.020769536 0.75200009 4.6249435e-40
-0.0050133234 0.020769529 0.75200009 5.5431163e-40
-0.0035809509 0.020769536 0.75200003 6.4651567e-40
-0.002137128 0.020659052 0.74800003 8.2983914e-40
-0.00071143528 0.020631433 0.7470001 1.0131542e-39
0.00071143563 0.020631425 0.7470001 9.2096278e-40
0.0021285864 0.020576186 0.74500012 7.3873933e-40
0.0035476109 0.020576194 0.74500012 9.2278306e-40
0.0049533639 0.020520948 0.74300009 1.0135284e-39
0.0063686185 0.020520948 0.74300009 5.51467e-40
0.0077838339 0.020520955 0.74300003 9.3446989e-41
0.0092238225 0.020576194 0.74500012 8.1782819e-39
0.010642885 0.020576201 0.74500012 1.6319762e-38
0.01202956 0.020520963 0.74300003 1.9836106e-38
0.013480948 0.020576186 0.74500012 2.3234019e-38
0.014900011 0.020576186 0.74500012 2.3325854e-38
0.016319074 0.020576186 0.74500012 2.3323339e-38
0.0177381 0.020576201 0.74500012 2.2213417e-38
0.019208595 0.020631418 0.7470001 2.1025658e-38
0.020631429 0.020631433 0.74700004 2.2040158e-38
0.0220543 0.020631433 0.7470001 2.3050348e-38
0.023477145 0.020631433 0.7470001 2.3234019e-38
0.024933355 0.020659059 0.74800003 2.3325854e-38
0.026358124 0.020659052 0.74800009 2.2683006e-38
0.02778288 0.020659037 0.74800009 2.2035844e-38
0.029207638 0.020659037 0.74800009 2.0196613e-38
0.030714326 0.020714283 0.75000012 1.8353097e-38
0.032228593 0.020769536 0.75200003 1.9376928e-38
0.03370576 0.020797148 0.75300008 2.0284521e-38
0.035140034 0.020797141 0.75300008 1.9186799e-38
0.036671456 0.02085238 0.75500011 1.8067517e-38
0.03816003 0.020880006 0.7560001 1.5122288e-38
0.039600018 0.020880006 0.75600004 1.2076937e-38
0.041148614 0.020935245 0.75800008 6.8232291e-39
0.042704761 0.020990483 0.76000011 1.5788822e-39
0.044210494 0.02101811 0.7610001 9.5792945e-39
0.045900032 0.02112858 0.76500005 1.7593021e-38
0.047480978 0.021183819 0.76700002 1.7420474e-38
0.049005706 0.02121143 0.76800001 1.7228187e-38
0.050468557 0.021211438 0.76800001 1.4553471e-38
0.051931433 0.021211438 0.76800001 1.1791932e-38
-0.031656183 0.022821911 0.77300012 2.0239696e-39
-0.030144755 0.022792377 0.77200007 3.9611471e-39
-0.028674239 0.022792391 0.77200001 3.5034269e-39
-0.02720377 0.022792391 0.77200007 3.0435264e-39
-0.025666635 0.022733338 0.7700001 2.7665794e-39
-0.024199929 0.022733338 0.7700001 2.4882198e-39
-0.022644723 0.022644773 0.76700008 2.1205359e-39
-0.021128543 0.02258572 0.76500005 1.8425267e-39
-0.019568538 0.022467628 0.76100004 1.2904445e-39
-0.018047584 0.022379048 0.75800008 7.3942596e-40
-0.016559985 0.022320025 0.75600004 7.3870149e-40
-0.015119959 0.022320025 0.75600004 7.3906303e-40
-0.013625698 0.022231437 0.75300002 5.5539484e-40
-0.012191427 0.02223143 0.75300008 3.7208538e-40
-0.010757131 0.02223143 0.75300008 4.6320621e-40
-0.009310443 0.022201903 0.75200009 6.4616395e-40
-0.0078780707 0.022201911 0.75200003 8.2947901e-40
-0.0064456845 0.022201903 0.75200009 1.0124269e-39
-0.0050133122 0.022201911 0.75200009 9.2166062e-40
-0.0035809397 0.022201911 0.75200003 8.316272e-40
-0.0021371187 0.022083811 0.74800003 9.223935e-40
-0.00071141851 0.0220543 0.7470001 1.0142374e-39
0.00071145239 0.022054292 0.7470001 9.2241032e-40
0.0021371657 0.022083819 0.74800009 9.2457252e-40
0.0035619198 0.022083819 0.74800003 1.0149815e-39
0.0049800035 0.022054277 0.7470001 1.1982783e-39
0.0063857306 0.021995246 0.74500012 6.4438009e-40
0.0078047924 0.021995239 0.74500012 9.2382003e-41
0.009248578 0.022054292 0.7470001 6.4553098e-39
0.010671447 0.022054292 0.7470001 1.2940513e-38
0.01206192 0.021995232 0.74500012 1.5051333e-38
0.013480945 0.021995246 0.74500012 1.7172876e-38
0.014939999 0.022054277 0.7470001 1.7717073e-38
0.01631907 0.021995239 0.74500012 1.8366738e-38
0.017785702 0.022054292 0.74700004 1.7809268e-38
0.019234302 0.022083804 0.74800009 1.7264712e-38
0.020659095 0.022083797 0.74800009 1.7347938e-38
0.022083851 0.022083811 0.74800009 1.7448383e-38
0.023508605 0.022083811 0.74800009 1.6427072e-38
0.024933338 0.022083811 0.74800009 1.5428002e-38
0.026358131 0.022083811 0.74800009 1.5413294e-38
0.027782887 0.022083819 0.74800009 1.5417939e-38
0.029207645 0.022083804 0.74800009 1.2364391e-38
0.030714314 0.022142857 0.75000012 9.2315987e-39
0.032228608 0.022201911 0.75200003 9.970247e-39
0.033705741 0.022231415 0.75300008 1.0707441e-38
0.035140038 0.022231422 0.75300008 1.0238217e-38
0.036671437 0.022290483 0.75500011 9.7714336e-39
0.038109541 0.022290491 0.75500011 9.1224124e-39
0.039600033 0.02232001 0.75600004 8.3815865e-39
0.041148614 0.022379048 0.75800002 5.8062017e-39
0.04270478 0.022438094 0.76000011 3.1361606e-39
0.044326711 0.022526659 0.76300007 1.1807443e-38
0.045780048 0.022526667 0.76300007 2.0570564e-38
0.047481012 0.022644758 0.76700008 2.0470125e-38
0.048941944 0.022644766 0.76700008 2.0379711e-38
0.050468549 0.022674292 0.76800001 1.8991046e-38
0.051931422 0.022674292 0.76800001 1.7613118e-38
0.053394277 0.022674292 0.76800001 1.6126136e-38
0.054785743 0.022644773 0.76700002 1.4657529e-38
0.056246713 0.022644758 0.76700008 1.4097589e-38
-0.027203782 0.02426286 0.77200001 3.3204888e-39
-0.025733311 0.024262868 0.77200007 2.9524266e-39
-0.024199959 0.024200015 0.77000004 2.5829406e-39
-0.022585675 0.024042852 0.7650001 2.3074425e-39
-0.0210733 0.023979992 0.76300007 2.02799e-39
-0.019542804 0.023885719 0.76000011 1.5666615e-39
-0.018047586 0.023822866 0.75800008 1.1064036e-39
-0.01655997 0.023760021 0.75600004 1.0142052e-39
-0.015119983 0.023760006 0.75600004 9.2201655e-40
-0.013661869 0.023728572 0.75500011 8.305454e-40
-0.012191423 0.023665726 0.75300008 6.4688421e-40
-0.010757128 0.023665726 0.75300008 7.3801065e-40
-0.0093104327 0.023634292 0.75200009 8.2983774e-40
-0.0078780605 0.023634292 0.75200003 1.1964539e-39
-0.0064457105 0.0236343 0.75200003 1.5645133e-39
-0.0050133001 0.023634292 0.75200009 1.2882893e-39
-0.0035809276 0.023634292 0.75200003 9.223907e-40
-0.0021371113 0.023508579 0.74800003 9.2168305e-40
-0.00071139989 0.023477159 0.7470001 9.2204738e-40
0.00071140769 0.023477145 0.7470001 1.0138899e-39
0.0021371695 0.023508579 0.74800009 1.1064471e-39
0.0035619272 0.023508579 0.74800003 1.1982868e-39
0.0049800202 0.023477137 0.7470001 1.2901166e-39
0.0064028539 0.023477145 0.74700004 7.3550933e-40
0.0078362096 0.023508571 0.74800009 9.6982465e-41
0.0092485938 0.023477152 0.7470001 4.7931638e-39
0.010671404 0.023477137 0.74700004 9.4101312e-39
0.012094275 0.023477145 0.7470001 1.0256102e-38
0.013480978 0.023414291 0.74500012 1.0983255e-38
0.014940016 0.023477145 0.7470001 1.2186447e-38
0.016319066 0.023414291 0.74500012 1.337529e-38
