# .PCD v0.7 - Point Cloud Data file format
VERSION 0.7
FIELDS x y z rgb
SIZE 4 4 4 4
TYPE F F F F
COUNT 1 1 1 1
WIDTH 938
HEIGHT 1
VIEWPOINT 0 0 0 1 0 0 0
POINTS 938
DATA ascii
0.014619997 -0.01740478 0.73100001 1.4234904e-38
0.016034275 -0.017428569 0.73199999 1.4234891e-38
0.01742856 -0.017428569 0.73200005 1.4235236e-38
0.018874276 -0.017476186 0.73399997 1.4327423e-38
0.0203276 -0.017523818 0.736 1.4422838e-38
0.021759029 -0.017547607 0.73700005 1.4510376e-38
0.023162842 -0.017547615 0.73700005 1.4616207e-38
0.024633318 -0.017595239 0.73900002 1.4802765e-38
0.026076177 -0.017619066 0.74000001 1.4355441e-38
0.027559992 -0.017666683 0.7420001 1.400172e-38
0.028973322 -0.01766669 0.74200004 1.2068499e-38
0.030509513 -0.017738104 0.74500006 1.0139953e-38
0.032014273 -0.017785721 0.74699998 7.8307893e-39
0.033437125 -0.017785713 0.74699998 5.6213747e-39
0.034906667 -0.017809525 0.74800003 5.9901684e-39
0.036428552 -0.017857142 0.75000006 6.3575076e-39
0.037857134 -0.017857142 0.75000006 6.3582222e-39
-0.042255264 -0.016472377 0.75199997 7.2560986e-39
-0.040714309 -0.016428575 0.75000006 7.5376979e-39
-0.039180975 -0.016384766 0.74800003 7.9193836e-39
-0.037705734 -0.016362868 0.74700004 8.191328e-39
-0.036282878 -0.016362853 0.74700004 4.8720023e-39
-0.034766689 -0.016319066 0.74500006 1.5698565e-39
-0.033347633 -0.016319059 0.74500006 4.7876721e-39
-0.031714302 -0.016209535 0.73999995 7.9158481e-39
-0.03026383 -0.016187616 0.73900002 8.294699e-39
-0.028856207 -0.016187616 0.73900002 8.6494419e-39
-0.027448593 -0.016187616 0.73899996 5.9754085e-39
-0.025970496 -0.016143806 0.73700005 3.217115e-39
-0.024533356 -0.016121916 0.73600006 3.0309343e-39
-0.023068592 -0.0160781 0.73399997 2.7680325e-39
-0.021670489 -0.016078085 0.73399997 8.3969531e-39
-0.020217154 -0.016034283 0.73199999 1.400325e-38
-0.018822879 -0.016034283 0.73200005 1.4186229e-38
-0.01740478 -0.016012393 0.73100001 1.4375292e-38
-0.015968591 -0.015968576 0.72900003 1.5122184e-38
-0.014580007 -0.015968576 0.72900003 1.574917e-38
-0.013227634 -0.0160124 0.73099995 1.453299e-38
-0.011835242 -0.0160124 0.73100001 1.3325492e-38
-0.010414287 -0.015968598 0.72900003 1.3408357e-38
-0.0090257181 -0.015968576 0.72900003 1.3408362e-38
-0.0076371492 -0.015968576 0.72900003 1.3683874e-38
-0.0062485798 -0.015968569 0.72900003 1.3867545e-38
-0.00486001 -0.015968569 0.72900003 1.4051216e-38
-0.0034714304 -0.015968584 0.72900009 1.4143059e-38
-0.0020800238 -0.015946671 0.72800004 1.4234901e-38
-0.00069334073 -0.015946664 0.72800004 1.4326728e-38
0.00069332082 -0.015946656 0.72800004 1.4418557e-38
0.0020828475 -0.015968584 0.72900003 1.4418546e-38
0.0034714178 -0.015968576 0.72900003 1.4234865e-38
0.0048599974 -0.015968584 0.72900009 1.4051195e-38
0.0062485668 -0.015968591 0.72900003 1.4051198e-38
0.0076371366 -0.015968584 0.72900003 1.4051197e-38
0.009025706 -0.015968576 0.72900003 1.4051195e-38
0.010414276 -0.015968576 0.72900003 1.3960074e-38
0.011835231 -0.016012385 0.73100001 1.4051191e-38
0.013227606 -0.0160124 0.73099995 1.4057301e-38
0.014619987 -0.016012393 0.73099995 1.4051213e-38
0.016034273 -0.01603429 0.73200005 1.405874e-38
0.017476184 -0.0160781 0.73400003 1.4143035e-38
0.018925693 -0.016121909 0.736 1.4243481e-38
0.020327594 -0.016121902 0.736 1.4893507e-38
0.021759037 -0.016143806 0.73700005 1.5457439e-38
0.023225702 -0.016187623 0.73900002 1.5927383e-38
0.024633314 -0.016187608 0.73899996 1.6296525e-38
0.026076173 -0.016209528 0.73999995 1.5478981e-38
0.027559994 -0.016253352 0.74200004 1.4553799e-38
0.029012358 -0.016275235 0.74299997 1.2344715e-38
0.030509509 -0.016319051 0.74500006 1.0133847e-38
0.032014281 -0.016362868 0.74700004 7.7321337e-39
0.033481888 -0.016384766 0.74799997 5.3451381e-39
0.034999996 -0.016428582 0.75000006 6.0816269e-39
0.036525711 -0.016472392 0.75200003 6.724481e-39
0.037958074 -0.016472377 0.75199997 6.6326525e-39
-0.042255256 -0.015040003 0.75200003 7.3500697e-39
-0.040714301 -0.015000008 0.75000012 7.5348183e-39
-0.039180968 -0.014960006 0.74799997 8.0047577e-39
-0.037705738 -0.014939994 0.74699998 8.4668289e-39
-0.036185723 -0.014900006 0.74500006 5.2454343e-39
-0.034766681 -0.014899999 0.74500006 2.1215729e-39
-0.033258114 -0.014860004 0.74299997 3.5916387e-39
-0.03180002 -0.014840014 0.74200004 4.9756745e-39
-0.030304782 -0.014800012 0.74000001 6.267156e-39
-0.028856216 -0.01478 0.73899996 7.4659907e-39
-0.027374301 -0.014740013 0.73700005 4.6007445e-39
-0.025970489 -0.014740005 0.73700005 1.7459534e-39
-0.024566688 -0.01473999 0.73700005 2.2980426e-39
-0.023131443 -0.014720008 0.73600006 2.7565264e-39
-0.021729542 -0.01472 0.73600006 6.820987e-39
-0.020272397 -0.014679991 0.73399997 1.0970511e-38
-0.018822873 -0.014640003 0.73200005 1.1244648e-38
-0.01740477 -0.014620014 0.73100001 1.1524839e-38
-0.016012389 -0.014619999 0.73100001 1.2166991e-38
-0.01458002 -0.014580011 0.72900003 1.2807955e-38
-0.013227641 -0.014620006 0.73099995 1.3252333e-38
-0.011802871 -0.014580004 0.72900003 1.3696797e-38
-0.0104143 -0.014580004 0.72900003 1.3319764e-38
-0.0090257311 -0.014580019 0.72900003 1.2949197e-38
-0.0076371478 -0.014580011 0.72900003 1.3224708e-38
-0.006248578 -0.014580004 0.72900003 1.3592043e-38
-0.0048733461 -0.014620014 0.73100001 1.3775707e-38
-0.003471429 -0.014580011 0.72900003 1.3959386e-38
-0.0020828592 -0.014580011 0.72900003 1.4051229e-38
-0.00069428975 -0.014580011 0.72900003 1.4143057e-38
0.00069427263 -0.014580011 0.72900003 1.4143049e-38
0.0020828419 -0.014580011 0.72900003 1.4234876e-38
0.0034714187 -0.014580004 0.72900003 1.4328854e-38
0.0048599984 -0.014580019 0.72900009 1.4510371e-38
0.0062485687 -0.014580019 0.72900003 1.4973135e-38
0.007637138 -0.014580011 0.72900003 1.5428725e-38
0.009025706 -0.014580004 0.72900003 1.5994446e-38
0.010442841 -0.014619999 0.73099995 1.6533621e-38
0.011835232 -0.014620006 0.73100001 1.636645e-38
0.013227614 -0.014620006 0.73100001 1.6187444e-38
0.014619987 -0.014620014 0.73099995 1.5919113e-38
0.016034279 -0.014639996 0.73200005 1.5734365e-38
0.017476179 -0.014679998 0.73399997 1.4981384e-38
0.018925698 -0.014720008 0.73600006 1.4252453e-38
0.020327607 -0.014720008 0.73600006 1.5741562e-38
0.021759037 -0.014740005 0.73700005 1.7141697e-38
0.023225691 -0.014779992 0.73899996 1.7227796e-38
0.024666658 -0.01480002 0.74000001 1.7232099e-38
0.026076183 -0.014800005 0.74000001 1.5939584e-38
0.027559984 -0.014840022 0.74200004 1.4644909e-38
0.029012371 -0.014860004 0.74300003 1.2527659e-38
0.030509515 -0.014900006 0.74500006 1.0410782e-38
0.032014269 -0.014939994 0.74699998 7.9193864e-39
0.033437125 -0.014940009 0.74699998 5.43481e-39
0.034999996 -0.015000001 0.75000006 5.988697e-39
0.0365257 -0.015039995 0.75199997 6.6315609e-39
-0.040714297 -0.013571434 0.75000006 7.5366175e-39
-0.039180964 -0.013535246 0.74800003 8.0976722e-39
-0.037705734 -0.013517141 0.74700004 8.6494125e-39
-0.036185727 -0.013480961 0.74500006 5.704588e-39
-0.034766681 -0.013480954 0.74500006 2.6700691e-39
-0.03325811 -0.013444759 0.74299997 2.3902578e-39
-0.031714305 -0.013390481 0.73999995 2.0293997e-39
-0.030304778 -0.013390474 0.73999995 4.14846e-39
-0.028856203 -0.013372377 0.73900002 6.2574156e-39
-0.027374309 -0.013336182 0.73700005 3.3078855e-39
-0.025970481 -0.013336197 0.73700011 2.7802602e-40
-0.02453335 -0.013318099 0.73600006 1.5665886e-39
-0.023131449 -0.013318107 0.73600006 2.7654835e-39
-0.021729546 -0.013318107 0.73600006 5.3440633e-39
-0.0202724 -0.013281904 0.73399997 7.830481e-39
-0.018822867 -0.013245724 0.73200005 8.2961605e-39
-0.017404772 -0.013227619 0.73099995 8.6588376e-39
-0.016012395 -0.013227627 0.73100001 9.2120016e-39
-0.014620014 -0.013227634 0.73100001 9.7687094e-39
-0.013227632 -0.013227627 0.73099995 1.1971999e-38
-0.011835251 -0.013227619 0.73099995 1.4065566e-38
-0.0104143 -0.013191439 0.72900003 1.32247e-38
-0.0090257311 -0.013191439 0.72900003 1.2398179e-38
-0.0076371618 -0.013191439 0.72900003 1.2857355e-38
-0.0062485919 -0.013191432 0.72900003 1.3230788e-38
-0.0048733386 -0.013227634 0.73100001 1.3500189e-38
-0.0034809574 -0.013227634 0.73100001 1.3689245e-38
-0.0020828587 -0.013191432 0.72900003 1.3775704e-38
-0.00069428881 -0.013191447 0.72900003 1.3872916e-38
0.00069427356 -0.013191439 0.72900003 1.3959367e-38
0.0020828429 -0.013191432 0.72900003 1.396154e-38
0.0034714225 -0.013191439 0.72900009 1.4426837e-38
0.0048599918 -0.013191447 0.72900003 1.48939e-38
0.0062657013 -0.013227627 0.73099995 1.5901572e-38
0.0076580858 -0.013227634 0.73100001 1.6841094e-38
0.0090504661 -0.013227619 0.73100001 1.8055404e-38
0.010442842 -0.013227612 0.73099995 1.9144509e-38
0.011835224 -0.013227627 0.73099995 1.8693575e-38
0.013227615 -0.013227634 0.73100001 1.8236558e-38
0.014639981 -0.013245709 0.73199999 1.7794969e-38
0.016078088 -0.013281897 0.73400003 1.7300254e-38
0.017476175 -0.013281897 0.73399997 1.5796067e-38
0.018925702 -0.013318099 0.73600006 1.4259997e-38
0.020355223 -0.013336197 0.73700005 1.6586399e-38
0.021759037 -0.013336197 0.73700005 1.8794043e-38
0.023257133 -0.013390481 0.74000001 1.8517823e-38
0.024666656 -0.013390489 0.74000001 1.8151899e-38
0.026146656 -0.013426669 0.74200004 1.6402703e-38
0.027559988 -0.013426684 0.74200004 1.4647072e-38
0.029012371 -0.013444766 0.74300003 1.2618446e-38
0.03050952 -0.013480969 0.74500006 1.0590166e-38
0.032014277 -0.013517156 0.74700004 8.0991212e-39
0.033437133 -0.013517149 0.74700004 5.5288175e-39
0.034999993 -0.013571426 0.75000006 5.9901614e-39
0.036525697 -0.013607621 0.75199997 6.4493347e-39
-0.039285731 -0.012142852 0.75000006 8.4650156e-39
-0.037756216 -0.012110472 0.74799997 9.3901837e-39
-0.036428582 -0.012142867 0.75000012 6.3517174e-39
-0.034766696 -0.012061901 0.74500006 3.4022378e-39
-0.033258121 -0.012029521 0.74299997 2.8494479e-39
-0.031714294 -0.011980966 0.74000001 2.2970098e-39
-0.030263826 -0.011964761 0.73900002 3.7717686e-39
-0.028856203 -0.011964761 0.73900002 5.2396876e-39
-0.027374301 -0.011932373 0.73700005 3.7677931e-39
-0.0259705 -0.01193238 0.73699999 2.2973377e-39
-0.024533354 -0.011916183 0.73600006 4.69904e-39
-0.023131453 -0.011916205 0.73600006 7.0881978e-39
-0.021729536 -0.011916198 0.73600006 6.4396096e-39
-0.020272397 -0.011883803 0.73399997 5.7921201e-39
-0.018874306 -0.011883795 0.73399997 6.9892311e-39
-0.017428581 -0.01185143 0.73200005 8.1737431e-39
-0.016012397 -0.011835232 0.73099995 1.0216342e-38
-0.014620005 -0.011835255 0.73100001 1.2337528e-38
-0.013227624 -0.011835255 0.73100001 1.3162972e-38
-0.011835258 -0.01183524 0.73099995 1.4063045e-38
-0.010442875 -0.011835232 0.73099995 1.3962612e-38
-0.0090504847 -0.01183524 0.73100001 1.3959735e-38
-0.0076581025 -0.011835255 0.73100001 1.5176188e-38
-0.0062657213 -0.01183524 0.73099995 1.6462956e-38
-0.0048733545 -0.011835232 0.73099995 1.5637506e-38
-0.0034809629 -0.011835247 0.73100001 1.4807758e-38
-0.0020828727 -0.01180286 0.72900003 1.4995375e-38
-0.00069430325 -0.011802875 0.72900003 1.5174382e-38
0.00069427356 -0.01180286 0.72900003 1.451575e-38
0.0020828429 -0.011802867 0.72900003 1.3775735e-38
0.0034714234 -0.011802875 0.72900003 1.5456088e-38
0.0048733209 -0.011835247 0.73099995 1.7032347e-38
0.0062657022 -0.011835247 0.73099995 1.7032334e-38
0.007658076 -0.01183524 0.73099995 1.7152154e-38
0.0090504689 -0.011835247 0.73100001 1.76942e-38
0.010442842 -0.011835247 0.73099995 1.8244842e-38
0.011835225 -0.011835247 0.73099995 1.7962507e-38
0.0132457 -0.01185143 0.73199999 1.7789973e-38
0.014639987 -0.01185143 0.73200005 1.7325071e-38
0.016078083 -0.011883803 0.73399997 1.6752491e-38
0.017476181 -0.01188381 0.73399997 1.5537062e-38
0.018925697 -0.01191619 0.73600006 1.4262161e-38
0.020355223 -0.01193238 0.73700005 1.6212981e-38
0.021759035 -0.011932388 0.73700005 1.8246641e-38
0.023257125 -0.011980951 0.73999995 1.7878228e-38
0.024666654 -0.011980973 0.74000001 1.7515519e-38
0.02614665 -0.012013339 0.74200004 1.6034281e-38
0.027559992 -0.012013353 0.7420001 1.4647083e-38
0.029012367 -0.012029529 0.74300003 1.2526278e-38
0.030509509 -0.012061916 0.74500006 1.0405437e-38
0.031928562 -0.012061901 0.74500006 8.0098052e-39
0.033437122 -0.012094289 0.74699998 5.7132242e-39
0.034999996 -0.012142859 0.75000006 6.0820249e-39
0.036525704 -0.012175232 0.75199997 6.4500633e-39
0.037958086 -0.01217524 0.75200003 6.4500409e-39
-0.040822882 -0.010742858 0.75200003 7.6291943e-39
-0.039285731 -0.01071427 0.75000006 8.9321314e-39
-0.037756212 -0.010685712 0.74800003 1.0126708e-38
-0.036331456 -0.010685705 0.74799997 7.0929062e-39
-0.034860019 -0.010671437 0.74700004 4.0526336e-39
-0.033347636 -0.010642864 0.74500006 3.3078911e-39
-0.031714309 -0.010571428 0.73999995 2.4813787e-39
-0.030304782 -0.010571428 0.73999995 3.3093401e-39
-0.028856214 -0.010557137 0.73899996 4.1362085e-39
-0.027374296 -0.010528572 0.73700005 4.2258832e-39
-0.025970493 -0.010528572 0.73699999 4.3274325e-39
-0.024533359 -0.010514289 0.73600006 7.8444744e-39
-0.023131443 -0.010514289 0.73600006 1.1314833e-38
-0.021729542 -0.010514282 0.73600006 7.5341358e-39
-0.020327639 -0.010514304 0.73600006 3.768156e-39
-0.018874303 -0.010485716 0.73399997 5.7860202e-39
-0.017428592 -0.010457136 0.73200005 7.7281947e-39
-0.016012404 -0.010442868 0.73099995 1.1325921e-38
-0.014620023 -0.01044286 0.73099995 1.4826787e-38
-0.01322763 -0.010442868 0.73100001 1.4462312e-38
-0.011835249 -0.010442868 0.73099995 1.3973719e-38
-0.010442868 -0.010442853 0.73099995 1.4785889e-38
-0.0090257293 -0.010414295 0.72900003 1.5549658e-38
-0.0076581095 -0.010442868 0.73100001 1.7608452e-38
-0.0062657283 -0.010442868 0.73100001 1.961409e-38
-0.004873347 -0.010442853 0.73099995 1.7779497e-38
-0.0034809653 -0.010442846 0.73099995 1.5933848e-38
-0.0020828722 -0.010414295 0.72900003 1.6223375e-38
-0.00069430232 -0.010414287 0.72900003 1.6471947e-38
0.00069427449 -0.010414295 0.72900003 1.5061382e-38
0.002082854 -0.010414302 0.72900009 1.3608917e-38
0.0034809485 -0.010442875 0.73100001 1.6405281e-38
0.0048733223 -0.010442875 0.73100001 1.9153505e-38
0.0062657036 -0.010442868 0.73099995 1.8226517e-38
0.0076580774 -0.010442853 0.73099995 1.7317143e-38
0.0090504698 -0.01044286 0.73100001 1.7323973e-38
0.010442852 -0.010442875 0.73100001 1.7227125e-38
0.011835225 -0.010442868 0.73099995 1.7305697e-38
0.013245706 -0.010457136 0.73200005 1.7322912e-38
0.014639991 -0.010457158 0.73200005 1.6778352e-38
0.016078077 -0.010485716 0.73399997 1.6198602e-38
0.017523792 -0.010514297 0.73600006 1.5245054e-38
0.0189257 -0.010514289 0.73600006 1.426109e-38
0.020355221 -0.010528557 0.73700005 1.593964e-38
0.021759033 -0.010528579 0.73700005 1.7599839e-38
0.023257129 -0.010571435 0.74000001 1.7232126e-38
0.024666654 -0.010571428 0.74000001 1.6864047e-38
0.026146663 -0.01060003 0.7420001 1.5755903e-38
0.027559994 -0.010600023 0.74200004 1.4554159e-38
0.029012365 -0.010614291 0.74300003 1.2433703e-38
0.030509513 -0.010642856 0.74500006 1.0218161e-38
0.032014277 -0.010671437 0.74700004 8.004413e-39
0.033481888 -0.010685712 0.74800003 5.8043254e-39
0.035093322 -0.010742858 0.75199997 6.1741953e-39
0.036574274 -0.010757133 0.75299996 6.4496906e-39
0.038008571 -0.010757141 0.75300002 6.5415163e-39
0.039599989 -0.010799997 0.75599998 6.6337175e-39
-0.040822875 -0.0093104839 0.75200003 7.6241903e-39
-0.039285723 -0.0092857331 0.75000012 8.6523664e-39
-0.037756208 -0.0092609525 0.74799997 9.7647942e-39
-0.036331438 -0.0092609525 0.74800003 7.2784171e-39
-0.034860022 -0.0092485771 0.74699998 4.8867019e-39
-0.033347636 -0.0092238188 0.74500006 3.128148e-39
-0.031800009 -0.0091866776 0.74200004 1.3782569e-39
-0.030304771 -0.0091619119 0.74000001 2.5739162e-39
-0.028856214 -0.0091495141 0.73900002 3.8610439e-39
-0.027374305 -0.0091247633 0.73700005 3.951799e-39
-0.025970502 -0.0091247708 0.73700005 4.0440633e-39
-0.02453335 -0.0091123804 0.73600006 7.3670702e-39
-0.023131447 -0.0091123879 0.73600006 1.0669884e-38
-0.021729546 -0.0091123879 0.73600006 8.4564691e-39
-0.020327644 -0.0091123879 0.73600006 6.2452089e-39
-0.018874306 -0.0090876296 0.73400003 8.919524e-39
-0.017428596 -0.009062849 0.73199999 1.1596764e-38
-0.016034303 -0.009062849 0.73200005 1.3820924e-38
-0.014640011 -0.0090628564 0.73200005 1.5946765e-38
-0.013245719 -0.0090628639 0.73200005 1.5101943e-38
-0.011835255 -0.009050481 0.73100001 1.423631e-38
-0.010442873 -0.009050481 0.73100001 1.4798431e-38
-0.0090504913 -0.0090504885 0.73099995 1.5477217e-38
-0.0076581109 -0.0090504736 0.73099995 1.7329774e-38
-0.0062657194 -0.009050481 0.73100001 1.9167138e-38
-0.0048733377 -0.009050481 0.73100001 1.6942216e-38
-0.0034809713 -0.0090504885 0.73099995 1.4740734e-38
-0.0020828717 -0.0090257227 0.72900003 1.5852503e-38
-0.00069430185 -0.0090257153 0.72900003 1.7041285e-38
0.00069617626 -0.009050481 0.73100001 1.5168284e-38
0.0020885575 -0.0090504736 0.73099995 1.3325513e-38
0.0034809387 -0.009050481 0.73099995 1.6119716e-38
0.0048733228 -0.0090504885 0.73100001 1.8979853e-38
0.0062657041 -0.0090504885 0.73100001 1.7210906e-38
0.0076580858 -0.009050481 0.73099995 1.5464263e-38
0.0090504605 -0.0090504885 0.73099995 1.6399144e-38
0.010442853 -0.0090504959 0.73100001 1.7227848e-38
0.011835226 -0.0090504885 0.73100001 1.7128152e-38
0.013245704 -0.0090628639 0.73200005 1.7049925e-38
0.014639985 -0.009062849 0.73199999 1.6863002e-38
0.016078083 -0.0090876296 0.73400003 1.6661362e-38
0.017523792 -0.0091123879 0.73600006 1.5353031e-38
0.018925697 -0.0091123804 0.73600006 1.4168902e-38
0.020355221 -0.0091247559 0.73700005 1.6029334e-38
0.021818087 -0.0091495365 0.73900002 1.7878567e-38
0.023257133 -0.0091619194 0.74000001 1.7046993e-38
0.024666658 -0.0091619119 0.74000001 1.6218315e-38
0.026146665 -0.0091866851 0.74200004 1.5202735e-38
0.027559984 -0.0091866776 0.74200004 1.4278281e-38
0.02901236 -0.0091990381 0.74300003 1.1968045e-38
0.030509511 -0.0092238188 0.74500006 9.753944e-39
0.032014269 -0.0092485696 0.74699998 8.0069129e-39
0.033481888 -0.009260945 0.74799997 6.1720079e-39
0.035093326 -0.009310469 0.75199997 6.2656482e-39
0.036574278 -0.0093228593 0.75300002 6.449678e-39
0.038008556 -0.0093228444 0.75300002 6.4500367e-39
0.039547611 -0.0093476176 0.75500005 6.4500549e-39
-0.039285719 -0.0078571513 0.75000006 8.4715274e-39
-0.037756208 -0.0078362003 0.74800003 9.2991161e-39
-0.036331449 -0.0078361928 0.74800003 7.4609656e-39
-0.034860015 -0.0078257248 0.74700004 5.6145615e-39
-0.03334764 -0.0078047737 0.74500006 2.9402044e-39
-0.031842887 -0.0077837929 0.74299997 1.8512974e-40
-0.030386681 -0.0077733546 0.7420001 1.8388777e-39
-0.028895251 -0.0077523962 0.74000001 3.4926313e-39
-0.027448598 -0.0077418983 0.73899996 3.6759422e-39
-0.025970494 -0.0077209473 0.73700005 3.772842e-39
-0.024533354 -0.0077104717 0.73600006 6.9092814e-39
-0.023162879 -0.0077209473 0.73700005 1.0026278e-38
-0.021759067 -0.0077209473 0.73700005 9.3769428e-39
-0.020355266 -0.0077209547 0.73700005 8.6422785e-39
-0.018925732 -0.0077104717 0.73600006 1.2049897e-38
-0.017476199 -0.0076895207 0.73399997 1.5467925e-38
-0.016034298 -0.0076685697 0.73200005 1.6322093e-38
-0.014640007 -0.0076685697 0.73200005 1.7048877e-38
-0.013245724 -0.0076685697 0.73199999 1.5762095e-38
-0.011851446 -0.0076685771 0.73200005 1.4438677e-38
-0.010442865 -0.0076581091 0.73100001 1.4877711e-38
-0.0090504838 -0.0076581091 0.73099995 1.5287808e-38
-0.0076581179 -0.0076581016 0.73099995 1.706575e-38
-0.0062743011 -0.0076685697 0.73199999 1.8696144e-38
-0.0048800083 -0.0076685697 0.73200005 1.6081657e-38
-0.0034857313 -0.0076685697 0.73200005 1.3538624e-38
-0.0020885821 -0.0076581016 0.73099995 1.5588442e-38
-0.00069619989 -0.0076580867 0.73099995 1.7491477e-38
0.00069618464 -0.0076580942 0.73100001 1.5245052e-38
0.0020885584 -0.0076581091 0.73099995 1.2976101e-38
0.0034809397 -0.0076581016 0.73099995 1.5951457e-38
0.0048733135 -0.0076580867 0.73099995 1.8782911e-38
0.0062657059 -0.0076580942 0.73100001 1.6172753e-38
0.0076580872 -0.0076580942 0.73100001 1.3626125e-38
0.0090504624 -0.0076581091 0.73099995 1.5488321e-38
0.01045713 -0.0076685846 0.73200005 1.7222104e-38
0.011851422 -0.0076685846 0.73200005 1.7021245e-38
0.013245698 -0.0076685622 0.73199999 1.6767258e-38
0.014679981 -0.0076895133 0.73399997 1.6962761e-38
0.016078077 -0.0076895282 0.73399997 1.702836e-38
0.017523788 -0.0077104792 0.73600006 1.5520559e-38
0.018925697 -0.0077104717 0.73600006 1.4079566e-38
0.020355219 -0.0077209473 0.73700005 1.6130115e-38
0.021818075 -0.0077418983 0.73899996 1.8147957e-38
0.023257125 -0.0077523887 0.74000001 1.6858286e-38
0.024666652 -0.0077523887 0.74000001 1.5474687e-38
0.026146656 -0.0077733546 0.74200004 1.4742545e-38
0.027559986 -0.0077733472 0.74200004 1.3896629e-38
0.029012363 -0.0077838078 0.74299997 1.1589594e-38
0.030509517 -0.0078047737 0.74500006 9.2904771e-39
0.032057129 -0.0078361779 0.74799997 7.9136607e-39
0.0334819 -0.0078362003 0.74800003 6.5397198e-39
0.035093326 -0.0078781024 0.75200003 6.4500395e-39
0.036525704 -0.0078780875 0.75199997 6.3582012e-39
0.038109522 -0.0079095215 0.75500005 6.3581998e-39
0.039442848 -0.007888563 0.75300002 6.2663699e-39
0.04087713 -0.0078885555 0.75299996 6.5429596e-39
-0.042423826 -0.0064714327 0.75500005 7.1675113e-39
-0.040877156 -0.0064542815 0.75300002 7.4412171e-39
-0.039390489 -0.0064457208 0.75199997 8.1877323e-39
-0.037958115 -0.0064457133 0.75200003 9.0199802e-39
-0.036525734 -0.0064457208 0.75199997 6.7179832e-39
-0.034860022 -0.0064028576 0.74699998 4.5075063e-39
-0.033347636 -0.0063857138 0.745 3.3136771e-39
-0.031842873 -0.00636857 0.74300003 2.0218579e-39
-0.030386686 -0.0063600093 0.74200004 2.481729e-39
-0.028895264 -0.0063428581 0.74000001 2.9419841e-39
-0.027448585 -0.0063342825 0.73900002 2.7575956e-39
-0.025970504 -0.0063171312 0.73700005 2.5746561e-39
-0.024533357 -0.006308578 0.73600006 4.0515714e-39
-0.023162873 -0.0063171387 0.73700005 5.6181334e-39
-0.021759061 -0.0063171461 0.73700005 6.8966319e-39
-0.020355258 -0.0063171461 0.73700005 8.1831206e-39
-0.018925738 -0.006308578 0.73600006 1.1137715e-38
-0.017523836 -0.006308578 0.73600006 1.4188766e-38
-0.016078122 -0.0062914193 0.73399997 1.5391268e-38
-0.014640012 -0.0062742755 0.73199999 1.6582967e-38
-0.013245733 -0.0062742829 0.73200005 1.5658145e-38
-0.011851442 -0.0062742904 0.73200005 1.4622748e-38
-0.010457149 -0.0062742978 0.73200005 1.4894571e-38
-0.0090628807 -0.0062742755 0.73199999 1.5107725e-38
-0.0076581091 -0.0062657222 0.73099995 1.6870961e-38
-0.006274296 -0.0062742904 0.73200005 1.861294e-38
-0.0048800181 -0.0062742904 0.73200005 1.5821617e-38
-0.0034857253 -0.0062742978 0.73200005 1.3069765e-38
-0.0020885873 -0.0062657222 0.73100001 1.5388953e-38
-0.00069620594 -0.0062657148 0.73099995 1.7591188e-38
0.00069618557 -0.0062657222 0.73100001 1.59166e-38
0.0020885593 -0.0062657222 0.73100001 1.4270042e-38
0.0034809406 -0.0062657222 0.73099995 1.6583529e-38
0.0048733219 -0.0062657148 0.73099995 1.8884075e-38
0.0062656966 -0.0062657073 0.73099995 1.6375812e-38
0.0076580886 -0.0062657222 0.73100001 1.3990606e-38
0.0090504624 -0.0062657222 0.73099995 1.5663738e-38
0.010457125 -0.0062742829 0.73199999 1.7406131e-38
0.011883799 -0.0062914267 0.73399997 1.7211008e-38
0.013281897 -0.0062914267 0.73400003 1.6953453e-38
0.01471998 -0.0063085705 0.73600006 1.7418742e-38
0.016143803 -0.0063171461 0.73700005 1.7867094e-38
0.017547604 -0.0063171536 0.73700005 1.6007e-38
0.018951418 -0.0063171461 0.73700005 1.4172108e-38
0.020410458 -0.0063342899 0.73899996 1.5286712e-38
0.021818083 -0.0063342825 0.73900002 1.6398042e-38
0.023257136 -0.006342873 0.74000001 1.5374196e-38
0.024733329 -0.0063600168 0.74200004 1.4354391e-38
0.02614665 -0.0063600093 0.74200004 1.3888468e-38
0.027597122 -0.0063685551 0.74299997 1.3507084e-38
0.029012363 -0.0063685775 0.74299997 1.1487727e-38
0.030591406 -0.0064028502 0.74699998 9.5581069e-39
0.032057133 -0.0064114258 0.74800003 8.0962737e-39
0.033571422 -0.0064285696 0.75000006 6.7248355e-39
0.035093326 -0.0064457059 0.75200003 6.5415191e-39
0.036671415 -0.0064714253 0.75500005 6.3578439e-39
0.038109519 -0.0064714327 0.75500011 6.1738085e-39
0.039547615 -0.0064714327 0.75500005 6.0812514e-39
0.040985715 -0.0064714253 0.75500005 6.0830394e-39
-0.042423826 -0.0050333291 0.75500005 6.9834788e-39
-0.040877152 -0.0050199926 0.75300002 7.3522515e-39
-0.039390497 -0.0050133318 0.75200003 8.0022718e-39
-0.037857167 -0.0050000101 0.75000006 8.6458392e-39
-0.036525726 -0.0050133243 0.75199997 6.0669147e-39
-0.035000008 -0.0050000027 0.75000006 3.4090677e-39
-0.033437159 -0.0049800053 0.74700004 3.6928264e-39
-0.031842869 -0.0049533397 0.74300003 3.8696829e-39
-0.030427644 -0.0049533173 0.74299997 3.1235195e-39
-0.028895255 -0.0049333572 0.74000001 2.3891817e-39
-0.027448595 -0.0049266517 0.73899996 1.8370799e-39
-0.025970496 -0.0049133301 0.73700005 1.2875088e-39
-0.024533363 -0.0049066618 0.73600006 1.2871571e-39
-0.023131445 -0.0049066693 0.73600006 1.1988963e-39
-0.021729544 -0.0049066618 0.73600006 4.4088227e-39
-0.020355251 -0.0049133226 0.73700005 7.6324355e-39
-0.018925741 -0.0049066693 0.73600006 1.0220016e-38
-0.017523825 -0.0049066618 0.73600006 1.2802226e-38
-0.016078109 -0.0048933327 0.73400003 1.4471461e-38
-0.014680015 -0.0048933178 0.73399997 1.6120533e-38
-0.013245728 -0.0048799962 0.73200005 1.5480534e-38
-0.011851446 -0.0048799887 0.73199999 1.4810705e-38
-0.010457153 -0.0048800036 0.73199999 1.4877711e-38
-0.009062876 -0.0048800036 0.73200005 1.4917943e-38
-0.0076685837 -0.0048800036 0.73200005 1.6697669e-38
-0.0062742908 -0.0048799962 0.73200005 1.8415963e-38
-0.0048800241 -0.0048800036 0.73199999 1.5521317e-38
-0.0034857313 -0.0048800036 0.73200005 1.2615264e-38
-0.0020885793 -0.0048733354 0.73100001 1.5214675e-38
-0.00069619803 -0.0048733354 0.73099995 1.7677687e-38
0.00069617626 -0.0048733428 0.73099995 1.6559473e-38
0.0020885603 -0.0048733503 0.73100001 1.5472885e-38
0.0034809415 -0.0048733354 0.73100001 1.7228177e-38
0.0048733228 -0.0048733354 0.73099995 1.8874047e-38
0.0062656975 -0.0048733428 0.73099995 1.6548033e-38
0.007658089 -0.0048733503 0.73100001 1.4268664e-38
0.0090628434 -0.0048800036 0.73199999 1.5954007e-38
0.01045713 -0.0048799962 0.73200005 1.7583352e-38
0.011883794 -0.0048933253 0.73399997 1.7371681e-38
0.013281892 -0.0048933327 0.73399997 1.7128145e-38
0.014719976 -0.0049066693 0.736 1.7982691e-38
0.016121885 -0.0049066544 0.73600006 1.8689677e-38
0.017547604 -0.0049133375 0.73700005 1.6467613e-38
0.018951416 -0.0049133375 0.73700005 1.4256415e-38
0.020410463 -0.0049266666 0.73900002 1.4446572e-38
0.021818072 -0.0049266517 0.73899996 1.4534799e-38
0.023257131 -0.0049333349 0.74000001 1.3885471e-38
0.024733322 -0.0049466863 0.74200004 1.323621e-38
0.026181888 -0.0049533397 0.74300003 1.313294e-38
0.027597126 -0.0049533173 0.74299997 1.3043589e-38
0.02901236 -0.0049533248 0.74299997 1.1479848e-38
0.030632362 -0.0049866661 0.74799997 9.8332616e-39
0.032142852 -0.0050000101 0.75000012 8.371783e-39
0.033571422 -0.0049999952 0.75000006 6.8141585e-39
0.035233326 -0.0050333366 0.75500005 6.5407974e-39
0.03667143 -0.0050333366 0.75500005 6.2656454e-39
0.03816 -0.0050400198 0.75600004 6.0819702e-39
0.039547611 -0.0050333291 0.75500005 5.8071742e-39
-0.042423811 -0.0035952479 0.75500011 6.9816809e-39
-0.04087716 -0.0035857037 0.75299996 7.3486642e-39
-0.039390493 -0.0035809577 0.75200003 8.1812821e-39
-0.037958112 -0.0035809427 0.75199997 9.1057523e-39
-0.036525734 -0.0035809427 0.75199997 7.5442056e-39
-0.035000019 -0.0035714284 0.75000006 5.8889848e-39
-0.033437163 -0.0035571381 0.74699998 6.2670594e-39
-0.031842876 -0.0035381019 0.74300003 6.6401663e-39
-0.030427638 -0.0035380945 0.74299997 5.1536044e-39
-0.028973337 -0.0035333484 0.7420001 3.7656421e-39
-0.027448596 -0.0035190582 0.73899996 4.1372622e-39
-0.026040971 -0.0035190433 0.73900002 4.5932111e-39
-0.024566676 -0.0035095364 0.73700005 3.862832e-39
-0.023162875 -0.0035095289 0.73700005 3.2156787e-39
-0.021759063 -0.0035095215 0.73700005 4.1347511e-39
-0.02035526 -0.003509514 0.73700005 5.1467479e-39
-0.018951446 -0.0035095364 0.73700005 6.7176497e-39
-0.017523829 -0.003504768 0.73600006 8.1957043e-39
-0.016078107 -0.0034952387 0.73399997 1.0681796e-38
-0.014720026 -0.0035047606 0.73600006 1.3263202e-38
-0.013281913 -0.0034952462 0.73400003 1.4092918e-38
-0.011851442 -0.0034857094 0.73200005 1.4996867e-38
-0.010457149 -0.0034857094 0.73200005 1.4802377e-38
-0.0090628713 -0.0034857318 0.73200005 1.4733183e-38
-0.0076685785 -0.0034857243 0.73200005 1.6958801e-38
-0.0062742969 -0.0034857094 0.73199999 1.9250701e-38
-0.004880019 -0.0034857094 0.73200005 1.6846793e-38
-0.0034857262 -0.0034857243 0.73200005 1.4460955e-38
-0.0020885854 -0.0034809634 0.73100001 1.6210941e-38
-0.00069620361 -0.0034809634 0.73100001 1.8038975e-38
0.00069617719 -0.0034809634 0.73099995 1.7312835e-38
0.0020885584 -0.003480956 0.73099995 1.6680035e-38
0.0034809434 -0.0034809634 0.73100001 1.6768645e-38
0.0048733256 -0.003480956 0.73100001 1.6958074e-38
0.0062656994 -0.0034809634 0.73099995 1.5550426e-38
0.0076580807 -0.003480956 0.73099995 1.4254716e-38
0.0090628415 -0.0034857243 0.73200005 1.5190319e-38
0.010457134 -0.0034857169 0.73200005 1.6111121e-38
0.0118838 -0.0034952387 0.73400003 1.5911601e-38
0.013281887 -0.0034952313 0.73399997 1.5744865e-38
0.01471998 -0.0035047531 0.736 1.5925021e-38
0.016143801 -0.0035095289 0.73700011 1.6195779e-38
0.017547604 -0.0035095289 0.73700005 1.5260478e-38
0.018951423 -0.0035095364 0.73700005 1.4326733e-38
0.020410465 -0.0035190508 0.73900002 1.4425776e-38
0.021818079 -0.0035190359 0.73899996 1.4510418e-38
0.023257133 -0.0035238191 0.74000001 1.3964047e-38
0.024733331 -0.0035333559 0.7420001 1.3500226e-38
0.026181895 -0.0035381019 0.74300003 1.3409126e-38
0.027597126 -0.0035380945 0.74299997 1.3411277e-38
0.029012365 -0.0035380796 0.74299997 1.1757159e-38
0.030632369 -0.0035619065 0.74800003 1.0106983e-38
0.032142852 -0.0035714433 0.75000006 8.368916e-39
0.033660948 -0.0035809577 0.75200003 6.7212468e-39
0.035139993 -0.0035857111 0.75299996 6.5393569e-39
0.036671422 -0.003595233 0.75500005 6.357118e-39
0.038109515 -0.0035952404 0.75500005 6.081966e-39
0.039547622 -0.003595233 0.75500005 5.8993642e-39
-0.040877156 -0.0021514222 0.75300002 7.257186e-39
-0.039390497 -0.0021485612 0.75199997 8.4521293e-39
-0.037958119 -0.0021485612 0.75199997 9.5663591e-39
-0.036525726 -0.0021485761 0.75200003 9.0236054e-39
-0.035000008 -0.0021428689 0.75000006 8.3796639e-39
-0.033437159 -0.0021342859 0.74700004 8.8456405e-39
-0.031928584 -0.0021285787 0.74500006 9.3019677e-39
-0.030509537 -0.0021285713 0.74500006 7.1768566e-39
-0.028973343 -0.002120018 0.74200004 5.0599514e-39
-0.027485732 -0.002114296 0.74000001 6.4446333e-39
-0.026040981 -0.00211142 0.73899996 7.8232405e-39
-0.024566686 -0.0021057129 0.73700011 6.5393358e-39
-0.023162883 -0.0021057203 0.73700005 5.1524848e-39
-0.021759056 -0.0021057129 0.73700005 3.9510969e-39
-0.020355253 -0.0021057054 0.73700005 2.6668349e-39
-0.01895144 -0.0021057278 0.73700005 3.1249362e-39
-0.017547637 -0.0021057203 0.73700005 3.5881018e-39
-0.016121933 -0.0021028593 0.73600006 6.9803175e-39
-0.014720016 -0.0021028519 0.73600006 1.0316167e-38
-0.013318114 -0.0021028668 0.73600006 1.2814018e-38
-0.01188382 -0.0020971447 0.73399997 1.5181621e-38
-0.010485731 -0.0020971298 0.73399997 1.4785909e-38
-0.0090876259 -0.0020971373 0.73399997 1.4451951e-38
-0.0076685837 -0.0020914376 0.73200005 1.7244705e-38
-0.0062742908 -0.0020914301 0.73200005 1.9989331e-38
-0.0048800129 -0.0020914301 0.73200005 1.8154379e-38
-0.0034857211 -0.0020914301 0.73200005 1.6300492e-38
-0.0020885877 -0.0020885617 0.73099995 1.7312877e-38
-0.00069619616 -0.002088584 0.73100001 1.8324839e-38
0.00069617812 -0.002088584 0.73100001 1.8155855e-38
0.0020885593 -0.0020885766 0.73099995 1.7863866e-38
0.0034809341 -0.0020885691 0.73099995 1.6391291e-38
0.0048733256 -0.0020885915 0.73100001 1.4909732e-38
0.0062657068 -0.002088584 0.73099995 1.4624188e-38
0.0076580807 -0.0020885766 0.73099995 1.4251102e-38
0.0090628471 -0.0020914301 0.73200005 1.4441226e-38
0.010457129 -0.0020914301 0.73199999 1.4618049e-38
0.011883795 -0.0020971447 0.73399997 1.4418921e-38
0.013318082 -0.0021028593 0.73600006 1.4245323e-38
0.014719984 -0.0021028668 0.73600006 1.3959441e-38
0.016143788 -0.0021057054 0.73699999 1.3600315e-38
0.017547602 -0.0021057129 0.73700005 1.395937e-38
0.018951412 -0.0021057129 0.73699999 1.4326733e-38
0.020410454 -0.0021114126 0.73899996 1.4418946e-38
0.021818079 -0.0021114275 0.73900002 1.4418569e-38
0.023257127 -0.002114296 0.74000001 1.4051211e-38
0.024733325 -0.002120018 0.74200004 1.3684593e-38
0.02618189 -0.0021228567 0.74300003 1.3684241e-38
0.027597131 -0.0021228641 0.74300003 1.3684611e-38
0.029090466 -0.0021285713 0.74500006 1.2030866e-38
0.030632365 -0.0021371394 0.74799997 1.0291007e-38
0.032142852 -0.0021428615 0.75000006 8.4593109e-39
0.033660937 -0.0021485686 0.75199997 6.6276092e-39
0.035233326 -0.0021571368 0.75500005 6.5379107e-39
0.036719993 -0.0021599978 0.75599998 6.356039e-39
0.038159993 -0.0021599978 0.75599998 6.1734498e-39
0.039599996 -0.0021600053 0.75600004 5.9904907e-39
-0.042480022 -0.00071999431 0.75600004 6.9831018e-39
-0.040985722 -0.00071904063 0.75500011 7.3493788e-39
-0.039390489 -0.00071617961 0.75199997 8.273126e-39
-0.037857156 -0.00071429461 0.75000006 9.2962294e-39
-0.036428586 -0.00071427971 0.75000006 7.8275776e-39
-0.035000023 -0.00071429461 0.75000006 6.4543471e-39
-0.033481926 -0.00071237236 0.74800003 7.095039e-39
-0.031928584 -0.00070952624 0.74500006 7.8408577e-39
-0.03050955 -0.00070951879 0.74500006 6.0748306e-39
-0.029012412 -0.00070761889 0.74299997 4.4131597e-39
-0.027597163 -0.00070761144 0.74299997 7.0917908e-39
-0.02614668 -0.00070669502 0.7420001 9.7661381e-39
-0.024666686 -0.00070478022 0.74000001 6.8180723e-39
-0.023225743 -0.00070381165 0.73899996 3.7807005e-39
-0.021759063 -0.0007019192 0.73700005 3.3118526e-39
-0.020355262 -0.00070189685 0.73700005 2.7604683e-39
-0.018951448 -0.00070189685 0.73700005 4.0443576e-39
-0.01754763 -0.0007019043 0.73700005 5.3268343e-39
-0.016121924 -0.00070094317 0.73600006 8.094822e-39
-0.014720021 -0.00070095807 0.73600006 1.0962555e-38
-0.01331812 -0.00070095807 0.73600006 1.3084126e-38
-0.011883833 -0.00069904327 0.73399997 1.5190598e-38
-0.010485729 -0.00069903582 0.73399997 1.4618414e-38
-0.0090876389 -0.00069903582 0.73399997 1.4074937e-38
-0.0076895347 -0.00069905072 0.73399997 1.5465744e-38
-0.0062914449 -0.00069905072 0.73399997 1.676612e-38
-0.0048933406 -0.00069904327 0.73399997 1.5831951e-38
-0.0034857262 -0.00069714338 0.73199999 1.4997893e-38
-0.0020885933 -0.00069619715 0.73099995 1.5551051e-38
-0.000696212 -0.0006961897 0.73099995 1.6209348e-38
0.00069617905 -0.00069619715 0.73100001 1.6105338e-38
0.0020885612 -0.0006961897 0.73099995 1.6004213e-38
0.0034809359 -0.00069618225 0.73099995 1.5170914e-38
0.0048733172 -0.00069619715 0.73099995 1.4420081e-38
0.0062657087 -0.0006962046 0.73100001 1.4424381e-38
0.0076580825 -0.00069619715 0.73100001 1.4418603e-38
0.0090628425 -0.00069713593 0.73199999 1.4516139e-38
0.010485694 -0.00069905072 0.73399997 1.4694073e-38
0.011916177 -0.00070095807 0.73600006 1.4602239e-38
0.013318079 -0.00070096552 0.73600006 1.4510387e-38
0.014719987 -0.00070095807 0.73600006 1.4326698e-38
0.016143795 -0.00070189685 0.73700005 1.4234876e-38
0.017547607 -0.0007019043 0.73700005 1.4418561e-38
0.01895141 -0.00070191175 0.73699999 1.4602239e-38
0.020410461 -0.00070381165 0.73899996 1.469408e-38
0.021818075 -0.00070380419 0.73899996 1.47859e-38
0.023319989 -0.00070668757 0.74200004 1.4887406e-38
0.024766654 -0.00070761144 0.74299997 1.5063898e-38
0.02618189 -0.00070761889 0.74300003 1.4148049e-38
0.027597129 -0.00070761144 0.74300003 1.3224697e-38
0.029090464 -0.00070952624 0.74500006 1.2124131e-38
0.030632373 -0.00071237981 0.74800003 1.1025685e-38
0.032142852 -0.00071428716 0.75000006 8.9220701e-39
0.033660937 -0.00071618706 0.75199997 6.9038248e-39
0.035279997 -0.00072001666 0.75600004 6.6308112e-39
0.036719989 -0.00072000176 0.75599998 6.3556775e-39
0.038159993 -0.00071998686 0.75599998 6.0812612e-39
0.039599992 -0.00072000921 0.75599998 5.8061106e-39
-0.042480018 0.00072000176 0.75599998 7.0760135e-39
-0.041040022 0.00071999431 0.75599998 7.3504466e-39
-0.039547633 0.00071905553 0.75500005 8.178764e-39
-0.038008578 0.00071714818 0.75300002 8.9234924e-39
-0.036525734 0.00071619451 0.75199997 6.7190818e-39
-0.03509336 0.00071618706 0.75199997 4.4210448e-39
-0.033481918 0.00071238726 0.74799997 5.330793e-39
-0.032014299 0.00071142614 0.74700004 6.2552464e-39
-0.030509539 0.00070951879 0.74500006 4.959505e-39
-0.029090494 0.00070951134 0.74500006 3.6895978e-39
-0.027597174 0.00070761889 0.74299997 7.7425636e-39
-0.026146671 0.00070665032 0.74200004 1.169434e-38
-0.02473335 0.00070665777 0.74200004 7.0946536e-39
-0.023225728 0.00070381165 0.73900002 2.3977786e-39
-0.021818105 0.00070380419 0.73900002 2.6636063e-39
-0.020410489 0.0007038191 0.73899996 2.8512178e-39
-0.019002881 0.00070381165 0.73900002 4.965581e-39
-0.017595265 0.0007038191 0.73899996 7.0785219e-39
-0.016143827 0.00070189685 0.73700005 9.2937029e-39
-0.014740024 0.0007019043 0.73700005 1.1512124e-38
-0.013318124 0.00070096552 0.73600006 1.33693e-38
-0.011916208 0.00070095807 0.73600006 1.5094079e-38
-0.010514306 0.00070095062 0.736 1.4422527e-38
-0.0090876371 0.00069905818 0.73399997 1.3691066e-38
-0.0076895473 0.00069905072 0.73399997 1.3593126e-38
-0.006291443 0.00069905072 0.73399997 1.3513831e-38
-0.0048800148 0.00069713593 0.73200005 1.3593456e-38
-0.003485722 0.00069714338 0.73200005 1.3599551e-38
-0.0020885854 0.00069618225 0.73099995 1.3775686e-38
-0.00069620408 0.00069618225 0.73099995 1.3970848e-38
0.00069618091 0.00069618225 0.73100001 1.4051213e-38
0.0020885621 0.0006961897 0.73100001 1.405733e-38
0.0034809434 0.00069618225 0.73099995 1.4051251e-38
0.0048733172 0.00069618225 0.73099995 1.3959777e-38
0.0062656985 0.00069619715 0.73099995 1.4326765e-38
0.0076685534 0.00069714338 0.73200005 1.4602249e-38
0.0090628462 0.00069714338 0.73200005 1.4694063e-38
0.010485705 0.00069903582 0.73399997 1.4694063e-38
0.011916172 0.00070094317 0.73600006 1.47859e-38
0.01331808 0.00070094317 0.73600006 1.4785888e-38
0.014719984 0.00070095807 0.73600006 1.4785875e-38
0.016143788 0.00070191175 0.73700005 1.4785888e-38
0.017547607 0.00070191175 0.73700005 1.4785899e-38
0.01895141 0.0007019043 0.73700005 1.4785903e-38
0.020410469 0.00070381165 0.73900002 1.4969578e-38
0.021847606 0.00070476532 0.74000001 1.5072889e-38
0.023319989 0.00070665032 0.74200004 1.5832323e-38
0.024766644 0.00070762634 0.74299997 1.6466564e-38
0.026181886 0.00070761889 0.74299997 1.4619813e-38
0.027597126 0.00070761889 0.74300003 1.2777002e-38
0.02909047 0.00070951879 0.74500006 1.2214506e-38
0.030632373 0.00071238726 0.74800003 1.1683219e-38
0.032142852 0.00071427971 0.75000006 9.3909166e-39
0.033660948 0.00071618706 0.75200003 7.0917978e-39
0.035279993 0.00071999431 0.75600004 6.7251718e-39
0.036719996 0.00071999431 0.75600004 6.2645664e-39
0.038159989 0.00072000921 0.75599998 5.8975902e-39
0.039704759 0.00072188675 0.75800002 5.5309629e-39
-0.042592384 0.002165705 0.75800002 6.7083128e-39
-0.041040022 0.0021599904 0.75599998 7.3490047e-39
-0.039547633 0.0021571442 0.75500005 8.0897815e-39
-0.038008582 0.0021514446 0.75299996 8.928142e-39
-0.036574297 0.0021514222 0.75300002 6.4424865e-39
-0.035093352 0.0021485835 0.75199997 4.0468813e-39
-0.033571444 0.002142854 0.75000006 5.4237047e-39
-0.032014303 0.0021343008 0.74699998 6.7983533e-39
-0.030591447 0.0021342784 0.74699998 7.8235965e-39
-0.029090496 0.0021285638 0.74500006 8.7556197e-39
-0.027597168 0.0021228716 0.74299997 1.0966523e-38
-0.026181933 0.0021228492 0.74299997 1.3265245e-38
-0.024733355 0.0021199957 0.74200004 1.0223158e-38
-0.023257162 0.0021142736 0.74000001 7.1638876e-39
-0.021818116 0.0021114498 0.73899996 4.3184221e-39
-0.020410489 0.0021114275 0.73900002 1.474393e-39
-0.019002875 0.0021114349 0.73899996 3.3103869e-39
-0.017595252 0.0021114275 0.73899996 5.1463877e-39
-0.016143819 0.0021057054 0.73700005 5.8893295e-39
-0.01472003 0.0021028593 0.736 6.7287746e-39
-0.013318114 0.0021028519 0.736 1.0875374e-38
-0.011883833 0.0020971447 0.73399997 1.4914336e-38
-0.010485727 0.0020971522 0.73399997 1.433964e-38
-0.009087638 0.0020971447 0.73399997 1.3683863e-38
-0.0076685795 0.0020914301 0.73200005 1.3684208e-38
-0.0062914449 0.0020971373 0.73400003 1.3683849e-38
-0.0048800088 0.0020914301 0.73200005 1.3776043e-38
-0.0034857159 0.0020914152 0.73200005 1.3867521e-38
-0.002088577 0.0020885617 0.73100001 1.3959358e-38
-0.0006962092 0.0020885691 0.73099995 1.4143028e-38
0.00069617253 0.0020885691 0.73099995 1.4234862e-38
0.002088564 0.0020885542 0.73100001 1.4326698e-38
0.0034809452 0.0020885617 0.73100001 1.4326698e-38
0.0048733191 0.0020885691 0.73099995 1.432671e-38
0.0062657003 0.0020885691 0.73099995 1.4510394e-38
0.0076580844 0.0020885691 0.73100001 1.4694061e-38
0.0090628518 0.0020914227 0.73200005 1.4694055e-38
0.010485701 0.0020971447 0.73399997 1.4694055e-38
0.011916175 0.0021028593 0.73600006 1.478589e-38
0.013318077 0.0021028593 0.73600006 1.4877719e-38
0.014719985 0.0021028444 0.73600006 1.4785875e-38
0.016143793 0.0021057203 0.73700005 1.4694049e-38
0.017547606 0.0021057203 0.73700005 1.4602224e-38
0.018951409 0.0021057278 0.73700005 1.4602226e-38
0.020410458 0.0021114349 0.73899996 1.4696574e-38
0.021906653 0.0021199957 0.74200004 1.488707e-38
0.02335142 0.0021228567 0.74300003 1.5189847e-38
0.02476665 0.0021228641 0.74299997 1.5483301e-38
0.026181884 0.0021228641 0.74299997 1.5189511e-38
0.027597133 0.0021228567 0.74300003 1.4905722e-38
0.029090468 0.0021285713 0.74500006 1.4633772e-38
0.030632364 0.0021371469 0.74799997 1.4468756e-38
0.032142848 0.002142854 0.75000006 1.0410775e-38
0.033660948 0.0021485761 0.75200003 6.4493066e-39
0.035279993 0.0021600053 0.75599998 6.2634958e-39
0.036719993 0.0021599978 0.75600004 6.1716618e-39
0.038260952 0.002165705 0.75800002 5.8975902e-39
0.039704762 0.002165705 0.75800002 5.7149912e-39
-0.042704772 0.0036190301 0.75999999 6.4331651e-39
-0.041148581 0.0036095083 0.75800002 7.350797e-39
-0.039600022 0.0036000013 0.75599998 8.0861942e-39
-0.038109533 0.003595233 0.75500011 8.8284115e-39
-0.03667143 0.0035952255 0.75500005 6.2588127e-39
-0.03509336 0.0035809502 0.75200003 3.5923589e-39
-0.033571444 0.0035714135 0.75000006 5.5187548e-39
-0.032014299 0.0035571381 0.74699998 7.3619415e-39
-0.030591441 0.0035571381 0.74700004 1.0597011e-38
-0.029090483 0.0035476089 0.74500006 1.3817415e-38
-0.027671436 0.0035476089 0.74500006 1.4286342e-38
-0.026181929 0.0035381019 0.74299997 1.4743346e-38
-0.02476668 0.0035380945 0.74299997 1.3368662e-38
-0.023257162 0.0035238042 0.73999995 1.1874471e-38
-0.021818116 0.0035190433 0.73900002 5.9721785e-39
-0.0204105 0.0035190508 0.73899996 9.4349426e-41
-0.019002877 0.0035190582 0.73899996 1.6544767e-39
-0.017595252 0.0035190508 0.73900002 3.1238488e-39
-0.01614384 0.0035095215 0.73700005 2.5717638e-39
-0.014740011 0.0035095289 0.73700005 1.9454283e-39
-0.013318107 0.0035047531 0.73600006 8.3972418e-39
-0.011916205 0.0035047531 0.73600006 1.4726359e-38
-0.010514314 0.003504768 0.736 1.4245659e-38
-0.0090876361 0.0034952387 0.73399997 1.3686739e-38
-0.0076895463 0.0034952387 0.73399997 1.377569e-38
-0.0063171652 0.003509514 0.73700005 1.3867523e-38
-0.0048933523 0.0034952387 0.73399997 1.3959356e-38
-0.0035047778 0.0035047531 0.736 1.4051192e-38
-0.0020914441 0.0034857094 0.73200005 1.4234866e-38
-0.00069715123 0.0034857094 0.73200005 1.4326699e-38
0.00069617998 0.003480956 0.73099995 1.4418533e-38
0.0020914157 0.0034857243 0.73199999 1.451037e-38
0.0034809452 0.0034809411 0.73100001 1.4602208e-38
0.0048799864 0.0034857094 0.73200005 1.4602218e-38
0.0062742787 0.0034857094 0.73200005 1.4694065e-38
0.0076685534 0.0034857243 0.73199999 1.4785897e-38
0.0090876091 0.0034952387 0.73399997 1.4694059e-38
0.010485707 0.0034952313 0.73400003 1.4602225e-38
0.01191617 0.003504768 0.73600006 1.4785899e-38
0.01331808 0.0035047457 0.73600006 1.4969559e-38
0.014719982 0.0035047606 0.73600006 1.4785875e-38
0.016143795 0.0035095289 0.73700005 1.460221e-38
0.017547606 0.0035095215 0.73700005 1.4510378e-38
0.018951416 0.0035095289 0.73700005 1.4326727e-38
0.020410456 0.0035190582 0.73900002 1.4510418e-38
0.021847602 0.0035238042 0.74000001 1.4717756e-38
0.023319984 0.0035333261 0.74200004 1.4647794e-38
0.024766646 0.0035381019 0.74299997 1.4465583e-38
0.026181888 0.0035381019 0.74299997 1.5749512e-38
0.027671417 0.0035476163 0.745 1.6944427e-38
0.029090462 0.0035476238 0.74500006 1.7129512e-38
0.030632371 0.0035618991 0.74800003 1.7222764e-38
0.032142848 0.0035714284 0.75000006 1.1517107e-38
0.033660948 0.0035809502 0.75200003 5.7121045e-39
0.035233334 0.0035952255 0.75500005 5.8914777e-39
0.036719993 0.0036000013 0.75599998 6.0787374e-39
0.038159993 0.0036000013 0.75599998 5.9894145e-39
0.039704762 0.0036095157 0.75800002 5.8068225e-39
-0.042760953 0.0050733238 0.76100004 6.8934187e-39
-0.04125715 0.005066663 0.76000005 7.5341092e-39
-0.039704777 0.005053319 0.75800002 8.3627755e-39
-0.038160022 0.0050400123 0.75599998 9.1010468e-39
-0.036671441 0.0050333366 0.75500005 6.6250757e-39
-0.035093352 0.0050133392 0.75200003 4.1465921e-39
-0.033571444 0.0049999878 0.75000006 4.4192259e-39
-0.032057151 0.0049866661 0.74800003 4.7891337e-39
-0.030591447 0.0049800053 0.74699998 8.2032432e-39
-0.029168589 0.0049799979 0.74699998 1.1711737e-38
-0.027671449 0.0049666613 0.745 1.3274465e-38
-0.026252404 0.0049666688 0.74500006 1.4838174e-38
-0.024766691 0.0049533397 0.74299997 1.4289307e-38
-0.023320006 0.0049466491 0.74200004 1.3738156e-38
-0.021847639 0.00493332 0.74000001 8.2849263e-39
-0.0204105 0.0049266741 0.73899996 2.8472605e-39
-0.019002877 0.0049266741 0.73900002 3.3986322e-39
-0.017595261 0.0049266592 0.73899996 4.041122e-39
-0.016143832 0.0049133301 0.73700005 3.2149612e-39
-0.014740018 0.0049133301 0.73700005 2.4810073e-39
-0.013336217 0.004913345 0.73700005 8.4797419e-39
-0.011916211 0.0049066693 0.73600006 1.4459819e-38
-0.010514294 0.0049066544 0.73600006 1.4066657e-38
-0.0091123926 0.0049066544 0.73600006 1.3683874e-38
-0.0077209617 0.0049133375 0.73700011 1.3775694e-38
-0.0063171592 0.0049133226 0.73700005 1.3959361e-38
-0.0049133464 0.0049133301 0.73700011 1.4051191e-38
-0.0035095438 0.0049133375 0.73700005 1.4143029e-38
-0.0020971554 0.0048933327 0.73399997 1.4143031e-38
-0.0006990665 0.0048933327 0.73399997 1.4143029e-38
0.00069712807 0.0048800036 0.73199999 1.4418533e-38
0.0020914138 0.0048799962 0.73200005 1.4694044e-38
0.0034857052 0.0048800036 0.73200005 1.4602211e-38
0.0048799911 0.0048800036 0.73200005 1.4510385e-38
0.0062742732 0.0048800036 0.73199999 1.4510394e-38
0.0076895063 0.0048933476 0.73399997 1.4510392e-38
0.0091123618 0.0049066693 0.73600006 1.432672e-38
0.010514263 0.0049066693 0.73600006 1.423489e-38
0.011932367 0.0049133301 0.73700005 1.4234894e-38
0.013318074 0.0049066618 0.73600006 1.4234879e-38
0.014719983 0.0049066693 0.73600006 1.4418533e-38
0.016143793 0.0049133375 0.73700005 1.4602204e-38
0.017547606 0.0049133301 0.73700005 1.534191e-38
0.018951409 0.0049133375 0.73700005 1.607161e-38
0.020410463 0.0049266666 0.73900002 1.6644542e-38
0.021847611 0.00493332 0.74000001 1.7121989e-38
0.023319997 0.0049466491 0.74200004 1.4920781e-38
0.024766644 0.0049533322 0.74299997 1.2624215e-38
0.026181888 0.0049533397 0.74299997 1.4652885e-38
0.027671415 0.0049666688 0.745 1.6778003e-38
0.029090457 0.0049666688 0.74500006 1.6311279e-38
0.030632364 0.0049866661 0.74799997 1.5857448e-38
0.032142848 0.0050000027 0.75000006 1.068162e-38
0.033660941 0.0050133392 0.75199997 5.6023268e-39
0.035139997 0.0050200149 0.75299996 5.9815056e-39
0.036719989 0.0050399974 0.75599998 6.4464256e-39
0.038260944 0.0050533265 0.75800002 6.0812374e-39
0.03980951 0.0050666705 0.75999999 5.807177e-39
-0.044617169 0.0065828487 0.76800001 6.9888402e-39
-0.042985726 0.0065571517 0.76499999 7.3561878e-39
-0.041420024 0.0065399855 0.76300001 7.7199396e-39
-0.039809551 0.0065142885 0.75999999 8.5453815e-39
-0.038260959 0.0064971223 0.75800002 9.376919e-39
