# .PCD v0.7 - Point Cloud Data file format
VERSION 0.7
FIELDS x y z rgb
SIZE 4 4 4 4
TYPE F F F F
COUNT 1 1 1 1
WIDTH 948
HEIGHT 1
VIEWPOINT 0 0 0 1 0 0 0
POINTS 948
DATA ascii
-0.017404774 -0.068922877 0.73100007 1.5942194e-38
-0.016012393 -0.068922877 0.73100007 1.5666969e-38
-0.014640007 -0.069017142 0.73200005 1.5374951e-38
-0.013227626 -0.068922877 0.73100007 1.2050211e-38
-0.011835239 -0.068922877 0.73100001 8.7448395e-39
-0.010442857 -0.068922877 0.73100007 4.408471e-39
-0.009025719 -0.068734288 0.72900003 9.6550865e-41
-0.0076266634 -0.068639994 0.72800004 4.5922288e-39
-0.0062400098 -0.068639994 0.72800004 9.1219597e-39
-0.0048533357 -0.068639994 0.72800004 1.2539263e-38
-0.003457163 -0.068451434 0.72600007 1.5837091e-38
-0.0020714435 -0.068357155 0.72500002 1.0853223e-38
-0.00069048296 -0.06835714 0.72500002 5.8004648e-39
0.00068856828 -0.068168581 0.72300005 6.889205e-39
0.0020657047 -0.068168581 0.72300005 7.9069219e-39
0.003442842 -0.068168581 0.72300005 5.6956883e-39
0.0048399768 -0.068451434 0.72600007 3.4098678e-39
0.0062228544 -0.068451449 0.72600007 5.6193246e-39
0.0076056849 -0.068451449 0.72600007 7.8344902e-39
0.008988563 -0.068451434 0.72600007 6.6230452e-39
0.010371415 -0.068451449 0.72600007 5.3437732e-39
0.011786676 -0.068640009 0.72800004 4.1330191e-39
0.013173335 -0.068639994 0.72800004 2.9431191e-39
0.014560003 -0.068640009 0.72800004 4.966028e-39
0.015968546 -0.068734303 0.72900009 6.9892886e-39
0.017357139 -0.068734303 0.72900009 7.5399526e-39
0.018797139 -0.068922892 0.73100007 8.1085757e-39
0.020189513 -0.068922892 0.73100001 1.1531991e-38
0.021581892 -0.068922892 0.73100007 1.4915142e-38
0.023005702 -0.069017142 0.73200005 9.378054e-39
0.02446666 -0.069205716 0.73400009 3.8636545e-39
0.025935233 -0.06939429 0.73600006 3.398415e-39
0.02737426 -0.069488585 0.73700011 2.9640461e-39
0.028778065 -0.069488585 0.73700011 7.2875466e-39
0.030263811 -0.069677159 0.73900008 1.1518352e-38
0.03171429 -0.069771454 0.74000007 1.1970273e-38
0.033213347 -0.069960013 0.74200004 1.2427301e-38
0.03476667 -0.070242867 0.74500006 1.0681354e-38
0.036282867 -0.070431441 0.74700004 8.8420952e-39
0.037756182 -0.070525721 0.74800003 7.1818452e-39
0.039285697 -0.070714295 0.75000012 5.4405581e-39
0.040822856 -0.070902854 0.75200009 6.7284088e-39
0.04231143 -0.070997164 0.75300008 7.9215542e-39
0.043919995 -0.071279988 0.75600004 7.3680315e-39
0.045359995 -0.071279988 0.75600004 6.8180849e-39
0.046799976 -0.071280017 0.75600004 6.6322503e-39
-0.040714316 -0.069285735 0.75000012 5.9920251e-39
-0.039285742 -0.069285721 0.75000012 8.5745887e-39
-0.037857179 -0.069285735 0.75000012 1.1154647e-38
-0.036331434 -0.069100946 0.74800003 1.0694446e-38
-0.034860004 -0.069008574 0.74700004 1.0225806e-38
-0.033347607 -0.068823829 0.74500006 5.246823e-39
-0.031842854 -0.068639055 0.74300003 2.7588624e-40
-0.030304775 -0.068361923 0.74000007 2.2058834e-39
-0.028856205 -0.068269536 0.73900002 4.2301936e-39
-0.027448596 -0.068269551 0.73900008 5.0613583e-39
-0.025970502 -0.068084776 0.73700011 5.8914777e-39
-0.024566697 -0.068084776 0.73700011 5.4247781e-39
-0.023131441 -0.067992389 0.73600006 5.0513615e-39
-0.021611445 -0.06762287 0.73200005 8.3685839e-39
-0.02021716 -0.067622885 0.73200005 1.1774772e-38
-0.018822867 -0.06762287 0.73200005 1.4548156e-38
-0.017428583 -0.067622855 0.73200005 1.7407952e-38
-0.016034298 -0.06762287 0.73200011 1.8249879e-38
-0.014640004 -0.067622855 0.73200005 1.9179701e-38
-0.013227634 -0.067530498 0.73100007 1.7601264e-38
-0.011835231 -0.067530498 0.73100001 1.6131868e-38
-0.010442864 -0.067530513 0.73100007 1.1604995e-38
-0.0090504969 -0.067530513 0.73100007 7.1649638e-39
-0.0076371417 -0.067345738 0.72900003 8.6350492e-39
-0.0062485836 -0.067345738 0.72900009 1.0201332e-38
-0.004853345 -0.067253351 0.72800004 1.2712515e-38
-0.0034666718 -0.067253336 0.72800004 1.5299714e-38
-0.002071436 -0.066976205 0.72500002 1.2798653e-38
-0.000690496 -0.066976205 0.72500008 1.0306109e-38
0.00068855524 -0.06679143 0.72300005 9.4744942e-39
0.0020657075 -0.06679143 0.72300005 8.6361646e-39
0.0034428579 -0.066791445 0.72300005 7.8139765e-39
0.0048199953 -0.066791445 0.72300005 6.9889397e-39
0.0062228246 -0.067068607 0.72600007 9.9513995e-39
0.0076057035 -0.067068592 0.72600007 1.290297e-38
0.0089885537 -0.067068577 0.72600007 1.0307101e-38
0.010371434 -0.067068592 0.72600007 7.8063773e-39
0.011754263 -0.067068592 0.72600007 5.3268189e-39
0.013173326 -0.067253321 0.72800004 2.8472899e-39
0.014560013 -0.067253336 0.72800004 4.7826793e-39
0.015968567 -0.067345738 0.72900003 6.7248846e-39
0.017357139 -0.067345738 0.72900009 7.8265784e-39
0.018745704 -0.067345738 0.72900003 8.9268163e-39
0.020189531 -0.067530498 0.73100001 1.169767e-38
0.021581884 -0.067530483 0.73100007 1.4460995e-38
0.022974286 -0.067530483 0.73100001 1.1689078e-38
0.02439999 -0.067622855 0.73200005 8.9138543e-39
0.025864748 -0.06780763 0.73400003 7.5409153e-39
0.027262844 -0.06780763 0.73400009 6.2481334e-39
0.028778072 -0.068084776 0.73700011 8.8397046e-39
0.030181881 -0.068084776 0.73700011 1.14222e-38
0.031671405 -0.068269536 0.73900008 1.2620705e-38
0.033213325 -0.068546668 0.7420001 1.3725227e-38
0.034673341 -0.06863907 0.74300003 1.0776788e-38
0.036088575 -0.068639055 0.74300003 7.9280408e-39
0.037756175 -0.069100976 0.74800009 7.0028167e-39
0.039285682 -0.06928575 0.75000012 6.1755938e-39
0.040714256 -0.069285735 0.75000012 6.8198898e-39
0.042311423 -0.069562852 0.75300002 7.5560059e-39
0.043861885 -0.069747627 0.75500011 7.279419e-39
0.045299985 -0.069747627 0.75500011 7.003544e-39
0.046738107 -0.069747627 0.75500005 6.8191457e-39
-0.039285734 -0.067857131 0.75000012 5.0607628e-39
-0.03785716 -0.067857161 0.75000012 5.81018e-39
-0.036282867 -0.067585722 0.7470001 5.9023995e-39
-0.03476667 -0.067404777 0.74500012 5.8976533e-39
-0.033258092 -0.067223817 0.74300003 3.0309399e-39
-0.031842861 -0.067223832 0.74300003 1.8440527e-40
-0.030427612 -0.067223817 0.74300003 1.9296468e-39
-0.028856218 -0.066861928 0.73900008 3.5873381e-39
-0.0274486 -0.066861928 0.73900008 4.1419272e-39
-0.025970479 -0.066680968 0.73700005 4.5989579e-39
-0.024566691 -0.066680953 0.73700011 4.041852e-39
-0.023068585 -0.066409528 0.73400003 3.403342e-39
-0.021670491 -0.066409543 0.73400003 8.5605127e-39
-0.020217158 -0.066228583 0.73200005 1.3713017e-38
-0.018822867 -0.066228583 0.73200005 1.630238e-38
-0.017428581 -0.066228583 0.73200005 1.8888154e-38
-0.016034296 -0.066228613 0.73200005 2.0928297e-38
-0.014620005 -0.066138104 0.73100007 2.2858985e-38
-0.013227625 -0.066138104 0.73100007 2.3134841e-38
-0.011835237 -0.066138104 0.73100001 2.3403104e-38
-0.010414292 -0.065957159 0.72900009 1.8898791e-38
-0.0090257339 -0.065957159 0.72900009 1.4255336e-38
-0.0076371557 -0.065957159 0.72900009 1.2765497e-38
-0.0062400089 -0.065866664 0.72800004 1.1226592e-38
-0.0048533338 -0.065866664 0.72800004 1.2993766e-38
-0.0034666811 -0.065866664 0.72800004 1.4643923e-38
-0.0020742905 -0.065685704 0.72600007 1.4735389e-38
-0.00069050252 -0.065595269 0.72500002 1.472963e-38
0.00068855617 -0.06541431 0.72300005 1.2066382e-38
0.0020656935 -0.065414295 0.72300005 9.2962378e-39
0.0034428439 -0.06541428 0.72300005 9.9347703e-39
0.0048399647 -0.065685734 0.72600007 1.0585568e-38
0.0062228427 -0.065685734 0.72600007 1.4293484e-38
0.0076056928 -0.065685719 0.72600007 1.7858871e-38
0.0089885723 -0.065685719 0.72600007 1.4080288e-38
0.010371403 -0.065685734 0.72600007 1.0209555e-38
0.011786676 -0.065866679 0.72800004 6.5207014e-39
0.013173336 -0.065866679 0.72800004 2.7644186e-39
0.014579996 -0.065957159 0.72900003 4.5921644e-39
0.015968569 -0.065957159 0.72900009 6.3553748e-39
0.017357131 -0.065957159 0.72900003 8.1149993e-39
0.018745704 -0.065957159 0.72900009 9.7612139e-39
0.020189526 -0.066138119 0.73100007 1.1871271e-38
0.021581907 -0.066138119 0.73100007 1.3902415e-38
0.022974279 -0.066138104 0.73100001 1.3911385e-38
0.024399992 -0.066228583 0.73200005 1.3897364e-38
0.025864772 -0.066409528 0.73400003 1.1695792e-38
0.027337149 -0.066590488 0.73600006 9.4795837e-39
0.028778078 -0.066680968 0.73700011 1.040013e-38
0.030181885 -0.066680968 0.73700011 1.1328897e-38
0.031585693 -0.066680983 0.73700011 1.3181757e-38
0.033213325 -0.067133352 0.74200004 1.5009465e-38
0.034626663 -0.067133352 0.7420001 1.0956474e-38
0.036185712 -0.067404762 0.74500006 6.9117435e-39
0.037705705 -0.067585737 0.74700004 6.9099288e-39
0.039128568 -0.067585737 0.74700004 6.8191752e-39
0.040714264 -0.067857161 0.75000012 7.0028531e-39
0.042142838 -0.067857161 0.75000012 7.1875975e-39
0.043571413 -0.067857146 0.75000012 7.1893898e-39
0.044999987 -0.067857161 0.75000012 7.096827e-39
-0.039285738 -0.066428587 0.75000012 6.4443502e-39
-0.037857175 -0.066428587 0.75000012 6.9085472e-39
-0.036282867 -0.066162869 0.7470001 7.5535438e-39
-0.034766674 -0.065985724 0.74500012 8.1967216e-39
-0.033258103 -0.065808579 0.74300003 7.0885678e-39
-0.031842873 -0.065808594 0.74300003 5.9707562e-39
-0.030427624 -0.065808594 0.74300003 4.4127799e-39
-0.028895233 -0.065542862 0.74000001 2.8537247e-39
-0.027448602 -0.065454304 0.73900008 2.8533604e-39
-0.026040986 -0.065454304 0.73900008 2.8508492e-39
-0.024566678 -0.065277159 0.73700011 2.8483367e-39
-0.023131428 -0.065188587 0.73600006 2.9391395e-39
-0.021670479 -0.065011457 0.73400003 7.0879218e-39
-0.020272387 -0.065011442 0.73400003 1.123455e-38
-0.018874304 -0.065011457 0.73400003 1.400508e-38
-0.017428577 -0.064834297 0.73200005 1.6872509e-38
-0.016034305 -0.064834297 0.73200005 1.8442761e-38
-0.01462 -0.064745724 0.73100007 2.0019026e-38
-0.013227632 -0.064745754 0.73100007 1.9183172e-38
-0.011835245 -0.064745739 0.73100001 1.827296e-38
-0.010442865 -0.064745739 0.73100007 1.5383621e-38
-0.0090257125 -0.064568594 0.72900003 1.249829e-38
-0.0076266699 -0.064480007 0.72800004 1.2968542e-38
-0.0062399977 -0.064479992 0.72800004 1.3537191e-38
-0.0048533441 -0.064480022 0.72800004 1.3625137e-38
-0.0034571509 -0.064302877 0.72600007 1.3709396e-38
-0.0020714556 -0.064214319 0.72500002 1.5010116e-38
-0.00069049507 -0.064214319 0.72500002 1.6300153e-38
0.00068855897 -0.064037144 0.72300005 1.2157545e-38
0.0020656954 -0.064037159 0.72300005 8.1091993e-39
0.0034428327 -0.064037159 0.72300005 8.0998204e-39
0.0048333104 -0.064214304 0.72500008 8.0945081e-39
0.0062228329 -0.064302877 0.72600007 1.2615321e-38
0.007605711 -0.064302877 0.72600007 1.711846e-38
0.0089885425 -0.064302877 0.72600007 1.5742333e-38
0.010371421 -0.064302891 0.72600007 1.4267566e-38
0.011786666 -0.064480022 0.72800004 1.2520879e-38
0.013173326 -0.064480022 0.72800004 1.0688454e-38
0.014579996 -0.064568594 0.72900003 9.2083036e-39
0.015968569 -0.064568624 0.72900009 7.6421339e-39
0.017357131 -0.064568594 0.72900009 8.6584775e-39
0.018745704 -0.064568594 0.72900009 9.6729531e-39
0.020189518 -0.064745739 0.73100007 1.0495148e-38
0.021581899 -0.064745739 0.73100007 1.1325248e-38
0.022974301 -0.064745724 0.73100001 1.1235558e-38
0.024366653 -0.064745724 0.73100007 1.1242025e-38
0.025794281 -0.064834282 0.73200005 8.9332315e-39
0.027337143 -0.065188587 0.73600006 6.7277362e-39
0.028778084 -0.065277159 0.73700011 7.6414179e-39
0.030181892 -0.065277159 0.73700011 8.5659063e-39
0.031585701 -0.065277159 0.73700011 1.0966937e-38
0.033123787 -0.065542892 0.74000007 1.3450033e-38
0.034626666 -0.065720022 0.74200004 1.0406855e-38
0.036088578 -0.065808564 0.74300003 7.4548574e-39
0.037705738 -0.066162869 0.74700004 7.1840242e-39
0.039180938 -0.066251442 0.74800009 7.0042979e-39
0.040605705 -0.066251442 0.74800009 7.0039378e-39
0.042030465 -0.066251442 0.74800003 7.0025028e-39
0.043571398 -0.066428602 0.75000012 6.8209842e-39
0.044999994 -0.066428587 0.75000006 6.6383782e-39
-0.037756216 -0.064826682 0.74800009 7.9158467e-39
-0.03628286 -0.064740002 0.74700004 9.2058289e-39
-0.034860015 -0.064740017 0.7470001 1.0406169e-38
-0.033347618 -0.064566657 0.74500006 1.1063387e-38
-0.031842865 -0.064393327 0.74300003 1.1684675e-38
-0.030304763 -0.064133361 0.74000001 6.8969977e-39
-0.028895229 -0.064133346 0.74000001 2.1190379e-39
-0.027448602 -0.064046666 0.73900008 1.6587815e-39
-0.026040969 -0.064046681 0.73900008 1.106342e-39
-0.024566686 -0.063873351 0.73700011 1.7456115e-39
-0.023162879 -0.063873351 0.73700011 2.3924187e-39
-0.021729531 -0.063786671 0.73600006 5.5259588e-39
-0.020272391 -0.063613355 0.73400003 8.6548775e-39
-0.018822882 -0.06344001 0.73200011 1.1702723e-38
-0.017428573 -0.063439995 0.73200005 1.4742303e-38
-0.016034301 -0.063440025 0.73200005 1.5950196e-38
-0.014620007 -0.06335336 0.73100007 1.7136885e-38
-0.013227641 -0.06335336 0.73100007 1.5121528e-38
-0.01183524 -0.063353345 0.73100001 1.3082766e-38
-0.010442873 -0.063353375 0.73100007 1.1864426e-38
-0.0090257265 -0.063180014 0.72900009 1.0672705e-38
-0.0076371483 -0.063180014 0.72900003 1.3257004e-38
-0.0062400079 -0.06309332 0.72800004 1.5827345e-38
-0.0048533329 -0.06309332 0.72800004 1.4260426e-38
-0.0034571677 -0.062920004 0.72600007 1.2706749e-38
-0.0020714463 -0.062833354 0.72500002 1.5295355e-38
-0.00069048576 -0.062833354 0.72500002 1.7861008e-38
0.0006904598 -0.062833354 0.72500002 1.2338321e-38
0.0020714202 -0.062833339 0.72500002 6.8148788e-39
0.0034523453 -0.062833354 0.72500008 6.1684051e-39
0.004840001 -0.062920004 0.72600007 5.5245603e-39
0.0062228506 -0.062920019 0.72600001 1.0954773e-38
0.0076056812 -0.062920019 0.72600007 1.6392062e-38
0.0089885611 -0.062920004 0.72600007 1.7410486e-38
0.01039999 -0.063093349 0.72800004 1.8327761e-38
0.011786677 -0.063093334 0.72800004 1.8515016e-38
0.013173336 -0.06309332 0.72800004 1.8602174e-38
0.014560004 -0.06309332 0.72800004 1.3818105e-38
0.015968561 -0.063180014 0.72900003 8.9343091e-39
0.017357133 -0.063180014 0.72900009 9.2029884e-39
0.018745724 -0.063180014 0.72900009 9.4795753e-39
0.020134268 -0.063180014 0.72900009 9.1111627e-39
0.021581892 -0.063353345 0.73100007 8.6523328e-39
0.022974294 -0.06335333 0.73100001 8.6473007e-39
0.024366647 -0.06335336 0.73100007 8.5568917e-39
0.025794284 -0.06344001 0.73200005 6.2513102e-39
0.027337139 -0.063786685 0.73600006 3.8668201e-39
0.02877808 -0.063873351 0.73700011 4.8716351e-39
0.030181888 -0.063873336 0.73700005 5.8061751e-39
0.031671397 -0.064046666 0.73900008 8.8540077e-39
0.033123799 -0.064133346 0.74000001 1.1791258e-38
0.034626648 -0.064306691 0.7420001 9.950193e-39
0.036088564 -0.064393342 0.74300003 8.0112556e-39
0.037604775 -0.064566672 0.74500006 7.5502956e-39
0.039128572 -0.064740017 0.74700004 7.0943509e-39
0.040551435 -0.064740002 0.74700004 6.913554e-39
0.041974269 -0.064740017 0.7470001 6.7284383e-39
0.043455221 -0.064826682 0.74800009 6.452922e-39
0.04488001 -0.064826667 0.74800003 6.1777658e-39
-0.037857167 -0.063571438 0.75000012 7.3605094e-39
-0.036331449 -0.063401908 0.74800009 8.0101373e-39
-0.034766659 -0.063147634 0.74500006 8.749915e-39
-0.033347622 -0.063147634 0.74500006 9.2127499e-39
-0.031842876 -0.062978104 0.74300003 9.6750873e-39
-0.03030476 -0.06272383 0.74000001 5.9836608e-39
-0.028895253 -0.06272383 0.74000007 2.3016299e-39
-0.027448591 -0.062639073 0.73900008 2.5785699e-39
-0.026040973 -0.062639058 0.73900008 2.8533772e-39
-0.024566695 -0.062469557 0.73700011 3.3107792e-39
-0.023162888 -0.062469542 0.73700011 3.8581867e-39
-0.021759067 -0.062469542 0.73700011 4.3223682e-39
-0.020272402 -0.062215254 0.73400003 4.7780284e-39
-0.018822879 -0.062045723 0.73200005 6.5376809e-39
-0.017428573 -0.062045723 0.73200005 8.2908076e-39
-0.016034301 -0.062045723 0.73200005 8.5648791e-39
-0.01462 -0.061960965 0.73100007 8.8246126e-39
-0.013227635 -0.06196098 0.73100007 7.9152358e-39
-0.011835247 -0.06196098 0.73100001 6.9799573e-39
-0.010442865 -0.061960995 0.73100007 9.4687797e-39
-0.0090257274 -0.06179145 0.72900009 1.1958408e-38
-0.0076266709 -0.061706677 0.72800004 1.3253456e-38
-0.0062399986 -0.061706677 0.72800004 1.4632772e-38
-0.004853345 -0.061706662 0.72800004 1.371369e-38
-0.003457163 -0.061537147 0.72600007 1.2796799e-38
-0.0020714388 -0.061452389 0.72500002 1.4924112e-38
-0.00069049228 -0.061452389 0.72500002 1.7132073e-38
0.00069046725 -0.061452389 0.72500002 1.140846e-38
0.0020714072 -0.061452404 0.72500008 5.7860216e-39
0.0034523527 -0.061452389 0.72500002 7.7202815e-39
0.0048399908 -0.061537132 0.72600007 9.6453307e-39
0.0062228483 -0.061537147 0.72600007 1.3076697e-38
0.0076056994 -0.061537161 0.72600007 1.6502227e-38
0.0089885509 -0.061537147 0.72600007 1.7417348e-38
0.010371408 -0.061537161 0.72600007 1.843365e-38
0.011786668 -0.061706662 0.72800004 1.8522268e-38
0.013173327 -0.061706677 0.72800004 1.8713823e-38
0.014580017 -0.061791435 0.72900003 1.3361885e-38
0.015968561 -0.061791435 0.72900009 8.1045834e-39
0.017357154 -0.06179145 0.72900003 8.1873721e-39
0.018745698 -0.06179145 0.72900009 8.2785196e-39
0.020189531 -0.06196098 0.73100007 8.0966703e-39
0.021581884 -0.061960965 0.73100007 7.8211498e-39
0.022974286 -0.061960965 0.73100001 9.2861989e-39
0.024366666 -0.06196098 0.73100007 1.0749443e-38
0.025794286 -0.062045708 0.73200005 9.9325843e-39
0.027374279 -0.062469542 0.73700011 9.0956798e-39
0.028778087 -0.062469527 0.73700011 7.1728923e-39
0.030263782 -0.062639058 0.73900008 5.1572254e-39
0.031714283 -0.06272383 0.74000007 7.6497472e-39
0.033213317 -0.062893361 0.7420001 1.0227548e-38
0.034626674 -0.062893346 0.74200004 7.9197718e-39
0.036088556 -0.062978104 0.74300003 5.711785e-39
0.03760476 -0.063147634 0.74500006 6.2653203e-39
0.039128579 -0.063317165 0.74700004 6.8177795e-39
0.040605705 -0.063401908 0.74800003 6.9114184e-39
0.042030472 -0.063401908 0.74800009 6.9117575e-39
0.043455236 -0.063401923 0.74800009 6.912454e-39
0.044879973 -0.063401923 0.74800009 6.9138847e-39
-0.037857186 -0.062142879 0.75000012 6.7226845e-39
-0.03628286 -0.061894298 0.74700004 6.9084813e-39
-0.034766667 -0.061728567 0.74500006 6.9999917e-39
-0.033347629 -0.061728582 0.74500006 7.2708669e-39
-0.031842865 -0.061562866 0.74300003 7.5477789e-39
-0.030304767 -0.06131433 0.74000007 4.9684649e-39
-0.028895246 -0.061314315 0.74000001 2.3956332e-39
-0.027448589 -0.061231434 0.73900008 3.5005262e-39
-0.026040971 -0.061231434 0.73900008 4.509293e-39
-0.02456669 -0.061065733 0.73700011 4.9695579e-39
-0.023162883 -0.061065733 0.73700011 5.335095e-39
-0.021670489 -0.060817152 0.73400003 3.1274445e-39
-0.020272393 -0.060817152 0.73400003 9.2162699e-40
-0.018874299 -0.060817152 0.73400003 1.3790388e-39
-0.017476205 -0.060817167 0.73400009 1.7517618e-39
-0.016034298 -0.060651436 0.73200005 1.194293e-39
-0.014640011 -0.060651422 0.73200005 5.5360118e-40
-0.013245719 -0.060651436 0.73200005 7.3512538e-40
-0.011851434 -0.060651436 0.73200005 9.191467e-40
-0.010442872 -0.060568601 0.73100007 7.072834e-39
-0.009025719 -0.06040287 0.72900003 1.3245914e-38
-0.0076266811 -0.060320005 0.72800004 1.3349599e-38
-0.0062400061 -0.060320005 0.72800004 1.3347799e-38
-0.0048533338 -0.06031999 0.72800004 1.3072287e-38
-0.0034666802 -0.060320005 0.72800004 1.2801817e-38
-0.0020714444 -0.060071424 0.72500002 1.4563207e-38
-0.00069048576 -0.060071439 0.72500002 1.6288339e-38
0.0006904747 -0.060071424 0.72500002 1.0469687e-38
0.0020714006 -0.060071439 0.72500008 4.6854796e-39
0.0034571295 -0.060154289 0.72600001 9.2808362e-39
0.004839988 -0.060154289 0.72600007 1.3803783e-38
0.0062399744 -0.06031999 0.72800004 1.5204681e-38
0.0076056896 -0.060154304 0.72600007 1.6584716e-38
0.0089885481 -0.060154304 0.72600007 1.7505934e-38
0.01039999 -0.06032002 0.72800004 1.8427183e-38
0.011786677 -0.06031999 0.72800004 1.861016e-38
0.013173318 -0.060320005 0.72800004 1.8699789e-38
0.01457999 -0.060402885 0.72900003 1.2994096e-38
0.015968561 -0.060402885 0.72900009 7.1804397e-39
0.017357154 -0.060402885 0.72900009 7.16354e-39
0.018745698 -0.060402885 0.72900009 7.0835567e-39
0.020189524 -0.060568601 0.73100007 7.0839295e-39
0.021581905 -0.060568586 0.73100007 6.9892269e-39
0.022974279 -0.060568601 0.73100001 9.9268908e-39
0.024366658 -0.060568601 0.73100007 1.288321e-38
0.02575906 -0.060568571 0.73100001 1.3634044e-38
0.027337151 -0.060982883 0.73600006 1.4357945e-38
0.028739054 -0.060982868 0.73600006 9.4752187e-39
0.03018187 -0.061065733 0.73700011 4.5150537e-39
0.031671394 -0.061231434 0.73900008 6.5433548e-39
0.033123814 -0.061314285 0.74000001 8.5597616e-39
0.034626655 -0.061480016 0.7420001 5.9725555e-39
0.036039986 -0.061480016 0.74200004 3.3183056e-39
0.037503809 -0.061562866 0.74300003 4.9810429e-39
0.039128564 -0.061894313 0.7470001 6.5433338e-39
0.040551443 -0.061894298 0.74700004 6.818134e-39
0.042030483 -0.061977163 0.74800003 7.0950614e-39
0.043455221 -0.061977163 0.74800003 7.3712727e-39
0.044879988 -0.061977163 0.74800009 7.5560157e-39
-0.037857167 -0.060714304 0.75000012 5.5309769e-39
-0.036428604 -0.06071429 0.75000012 5.1603895e-39
-0.034906685 -0.060552388 0.74800009 4.7951957e-39
-0.033437144 -0.060471445 0.7470001 5.985823e-39
-0.031928573 -0.060309529 0.74500006 7.1750321e-39
-0.030304775 -0.059904784 0.74000001 4.2323614e-39
-0.028895238 -0.059904799 0.74000001 1.2918276e-39
-0.027448593 -0.059823826 0.73900008 2.6700733e-39
-0.026040964 -0.059823826 0.73900008 4.1419566e-39
-0.024633344 -0.059823811 0.73900008 4.9691977e-39
-0.023162872 -0.059661925 0.73700005 5.8039652e-39
-0.021759063 -0.05966191 0.73700005 5.8046785e-39
-0.020272383 -0.059419036 0.73400003 5.7899565e-39
-0.018874288 -0.059419066 0.73400003 4.0425569e-39
-0.017428586 -0.05925715 0.73200011 2.2962475e-39
-0.016034294 -0.059257135 0.73200005 1.4697281e-39
-0.014640007 -0.05925715 0.73200005 7.350441e-40
-0.013245736 -0.059257165 0.73200011 6.4320861e-40
-0.011851431 -0.059257165 0.73200005 6.4325485e-40
-0.010442866 -0.059176221 0.73100007 5.0596558e-39
-0.0090504782 -0.059176207 0.73100001 9.4910772e-39
-0.0076371417 -0.059014305 0.72900003 1.0775338e-38
-0.0062400182 -0.058933333 0.72800004 1.2061033e-38
-0.0048533441 -0.058933318 0.72800004 1.1967044e-38
-0.0034666709 -0.058933333 0.72800004 1.1784448e-38
-0.002074311 -0.058771446 0.72600007 1.3629047e-38
-0.00069047738 -0.058690488 0.72500002 1.545716e-38
0.00069044862 -0.058690488 0.72500008 1.1307713e-38
0.0020742831 -0.058771446 0.72600007 7.1636521e-39
0.0034666578 -0.058933318 0.72800004 1.067745e-38
0.0048533254 -0.058933333 0.72800004 1.4288815e-38
0.0062399851 -0.058933333 0.72800004 1.5478736e-38
0.0076266523 -0.058933347 0.72800004 1.6666848e-38
0.0090133399 -0.058933333 0.72800004 1.7045299e-38
0.0104 -0.058933347 0.72800004 1.7413754e-38
0.011786668 -0.058933347 0.72800004 1.6674083e-38
0.013173327 -0.058933333 0.72800004 1.5940375e-38
0.01457999 -0.059014291 0.72900009 1.3628963e-38
0.015968582 -0.059014305 0.72900003 1.1204291e-38
0.017357126 -0.059014305 0.72900009 9.6545667e-39
0.018797137 -0.059176207 0.73100001 8.011931e-39
0.020189516 -0.059176207 0.73100007 8.3663586e-39
0.021581898 -0.059176207 0.73100007 8.7261882e-39
0.022974271 -0.059176207 0.73100001 1.2239992e-38
0.024366651 -0.059176207 0.73100007 1.5752737e-38
0.025759052 -0.059176221 0.73100001 1.621841e-38
0.027337145 -0.059580967 0.73600012 1.6777975e-38
0.02873905 -0.059580952 0.73600012 1.2433667e-38
0.030181877 -0.05966191 0.73700011 8.0879893e-39
0.031714298 -0.059904784 0.74000001 8.5557819e-39
0.033123821 -0.059904769 0.74000001 9.1078655e-39
0.034626655 -0.06006667 0.74200004 6.4356608e-39
0.036039993 -0.0600667 0.7420001 3.8621271e-39
0.03750382 -0.060147643 0.74300003 5.2536627e-39
0.039023802 -0.060309544 0.74500006 6.6373062e-39
0.040442877 -0.060309529 0.74500006 6.8202724e-39
0.041861899 -0.060309529 0.74500006 7.0950544e-39
0.043280974 -0.060309544 0.74500006 7.1879591e-39
0.044879999 -0.060552388 0.74800003 7.280868e-39
-0.037958115 -0.059443846 0.75200009 4.2402465e-39
-0.03652573 -0.059443831 0.75200009 3.4061768e-39
-0.034906685 -0.059127629 0.74800003 2.4917721e-39
-0.03343714 -0.059048578 0.74700004 4.6100898e-39
-0.031928569 -0.058890492 0.74500006 6.7151329e-39
-0.030386681 -0.058653355 0.7420001 3.4022392e-39
-0.028973339 -0.05865337 0.74200004 9.4723572e-41
-0.02748573 -0.058495268 0.74000007 1.929637e-39
-0.026040968 -0.058416203 0.73900008 3.7685007e-39
-0.024633348 -0.058416203 0.73900002 5.053483e-39
-0.023162879 -0.058258101 0.73700011 6.2656735e-39
-0.021759056 -0.058258101 0.73700011 8.4966653e-39
-0.020272393 -0.058020979 0.73400003 1.0582651e-38
-0.018874299 -0.058020964 0.73400009 6.7043514e-39
-0.017428584 -0.057862878 0.73200011 2.7590165e-39
-0.01603429 -0.057862863 0.73200005 1.8370799e-39
-0.014640006 -0.057862863 0.73200005 9.2517929e-40
-0.013245735 -0.057862863 0.73200011 6.4321421e-40
-0.011851428 -0.057862848 0.73200005 2.7699186e-40
-0.010442873 -0.057783842 0.73100007 3.0310254e-39
-0.0090257321 -0.057625741 0.72900009 5.7143354e-39
-0.0076266793 -0.05754666 0.72800004 8.2918207e-39
-0.0062400051 -0.05754669 0.72800004 1.0773156e-38
-0.0048600039 -0.057625741 0.72900009 1.0765965e-38
-0.0034714476 -0.057625741 0.72900009 1.0777839e-38
-0.0020828699 -0.057625726 0.72900009 1.2711802e-38
-0.00069144223 -0.057388604 0.72600007 1.4632091e-38
0.00069142185 -0.057388589 0.72600007 1.2140331e-38
0.0020799893 -0.05754666 0.72800004 9.6665155e-39
0.0034666485 -0.057546675 0.72800004 1.2160426e-38
0.0048533366 -0.057546675 0.72800004 1.4648239e-38
0.0062400028 -0.057546675 0.72800004 1.5753858e-38
0.0076266634 -0.057546675 0.72800004 1.6767619e-38
0.0090133511 -0.057546675 0.72800004 1.6593976e-38
0.01039999 -0.05754666 0.72800004 1.6302363e-38
0.011786678 -0.05754666 0.72800004 1.4732228e-38
0.013173318 -0.05754666 0.72800004 1.3178495e-38
0.01457999 -0.057625741 0.72900009 1.4285838e-38
0.015968554 -0.057625726 0.72900003 1.5276652e-38
0.017404756 -0.057783827 0.73100007 1.2146346e-38
0.018797157 -0.057783827 0.73100001 8.9295867e-39
0.020189509 -0.057783812 0.73100007 9.7349339e-39
0.02158189 -0.057783827 0.73100007 1.0493701e-38
0.02297429 -0.057783827 0.73100007 1.4553882e-38
0.024366643 -0.057783827 0.73100007 1.860684e-38
0.025794296 -0.057862863 0.73200005 1.8892034e-38
0.027262852 -0.058020964 0.73400003 1.907139e-38
0.028739065 -0.058179066 0.73600006 1.539294e-38
0.030181903 -0.058258101 0.73700005 1.1598595e-38
0.031714305 -0.058495253 0.74000001 1.0576177e-38
0.033123806 -0.058495253 0.74000007 9.5713534e-39
0.034626663 -0.058653355 0.7420001 6.9838039e-39
0.036039993 -0.05865334 0.74200004 4.4224657e-39
0.037503809 -0.05873239 0.74300003 5.6253067e-39
0.039023813 -0.058890507 0.74500012 6.7291361e-39
0.040442858 -0.058890492 0.74500006 6.913533e-39
0.04186191 -0.058890492 0.74500012 7.0050168e-39
0.043280955 -0.058890477 0.74500006 7.0050252e-39
-0.037958108 -0.058011457 0.75200009 6.6297532e-39
-0.036525737 -0.058011457 0.75200009 5.9840167e-39
-0.034906693 -0.057702869 0.74800009 5.236431e-39
-0.033437137 -0.057625726 0.74700004 5.9772246e-39
-0.031928577 -0.057471439 0.74500006 6.7136924e-39
-0.030386683 -0.057240024 0.74200004 4.7833435e-39
-0.028973358 -0.057240024 0.7420001 2.8472633e-39
-0.027560012 -0.057240024 0.7420001 3.3986322e-39
-0.026040968 -0.057008594 0.73900008 3.9492865e-39
-0.024633352 -0.057008579 0.73900002 4.7815457e-39
-0.02322574 -0.057008594 0.73900008 5.7085831e-39
-0.021759067 -0.056854308 0.73700011 8.941551e-39
-0.02021715 -0.056468576 0.73200005 1.2155363e-38
-0.018822867 -0.056468591 0.73200005 1.0398936e-38
-0.017428596 -0.056468576 0.73200005 8.6465384e-39
-0.016034288 -0.056468576 0.73200005 8.6573088e-39
-0.014640003 -0.056468576 0.73200005 8.750575e-39
-0.013245733 -0.056468591 0.73200005 8.1009064e-39
-0.011851425 -0.056468576 0.73200005 7.5348687e-39
-0.010457153 -0.056468576 0.73200005 9.0175518e-39
-0.0090504792 -0.056391433 0.73100001 1.0399734e-38
-0.0076371548 -0.056237161 0.72900009 1.1787654e-38
-0.0062485761 -0.056237176 0.72900003 1.3166948e-38
-0.0048600179 -0.056237161 0.72900009 1.3260186e-38
-0.0034714262 -0.056237161 0.72900003 1.3267436e-38
-0.0020800023 -0.056160003 0.72800004 1.4364875e-38
-0.00069143757 -0.056005731 0.72600001 1.5464367e-38
0.00069140602 -0.056005731 0.72600007 1.408179e-38
0.0020799986 -0.056160018 0.72800004 1.2803618e-38
0.0034666578 -0.056159988 0.72800004 1.3904558e-38
0.0048533264 -0.056160003 0.72800004 1.5103806e-38
0.006240014 -0.056159988 0.72800004 1.5562629e-38
0.0076266527 -0.056160003 0.72800004 1.6126892e-38
0.0090133408 -0.056160003 0.72800004 1.5838089e-38
0.010400001 -0.056160003 0.72800004 1.5642976e-38
0.011786668 -0.056160018 0.72800004 1.4911916e-38
0.013173328 -0.056160003 0.72800004 1.427514e-38
0.014580011 -0.056237161 0.72900003 1.5013743e-38
0.015968556 -0.056237161 0.72900009 1.5755948e-38
0.017404748 -0.056391448 0.73100007 1.4088188e-38
0.018797148 -0.056391463 0.73100001 1.2436572e-38
0.020189531 -0.056391448 0.73100007 1.2797802e-38
0.021581903 -0.056391448 0.73100001 1.3275351e-38
0.022974284 -0.056391448 0.73100007 1.5849689e-38
0.024399992 -0.056468591 0.73200005 1.8432885e-38
0.025794297 -0.056468591 0.73200005 1.8524682e-38
0.027262827 -0.056622863 0.73400009 1.8702295e-38
0.028739061 -0.056777164 0.73600006 1.5191779e-38
0.030181881 -0.056854308 0.73700011 1.1785905e-38
0.031714268 -0.057085738 0.74000007 1.1977757e-38
0.033213332 -0.057240039 0.7420001 1.2168583e-38
0.034626663 -0.057240039 0.74200004 9.672862e-39
0.036039993 -0.057240009 0.74200004 7.1879324e-39
0.037503801 -0.057317153 0.74300003 6.8202415e-39
0.039023817 -0.057471424 0.74500006 6.4539814e-39
0.040442869 -0.057471439 0.74500006 6.7302109e-39
0.042142853 -0.057857141 0.75000012 7.0979341e-39
0.043571401 -0.057857156 0.75000012 6.7291782e-39
-0.03192858 -0.056052402 0.74500006 6.626519e-39
-0.030427616 -0.0559019 0.74300003 6.078736e-39
-0.028973345 -0.055826679 0.74200004 5.5230525e-39
-0.027560003 -0.055826679 0.74200004 4.7758073e-39
-0.02607619 -0.055676222 0.74000001 4.0508077e-39
-0.024633337 -0.055600956 0.73900002 4.5989509e-39
-0.02322574 -0.055600956 0.73900008 5.0743302e-39
-0.021759074 -0.055450484 0.73700011 9.4053654e-39
-0.020272397 -0.055224791 0.73400009 1.3720524e-38
-0.018874295 -0.055224776 0.73400003 1.408891e-38
-0.017428592 -0.055074304 0.73200005 1.4456616e-38
-0.016034286 -0.055074275 0.73200005 1.5486184e-38
-0.014640014 -0.055074304 0.73200005 1.648237e-38
-0.013245729 -0.055074289 0.73200005 1.5659065e-38
-0.011851443 -0.055074304 0.73200011 1.4818206e-38
-0.010457151 -0.055074289 0.73200005 1.5013007e-38
-0.0090504717 -0.054999053 0.73100001 1.5096598e-38
-0.0076581049 -0.054999053 0.73100007 1.5383229e-38
-0.006248577 -0.054848582 0.72900009 1.5555401e-38
-0.0048733368 -0.054999068 0.73100007 1.5656185e-38
-0.0034714402 -0.054848582 0.72900009 1.5738024e-38
-0.0020828615 -0.054848582 0.72900003 1.6016088e-38
-0.0006914534 -0.054622889 0.72600007 1.6283336e-38
0.00069141068 -0.054622874 0.72600007 1.6102529e-38
0.0020799893 -0.054773346 0.72800004 1.5821261e-38
0.0034666765 -0.054773331 0.72800004 1.5641874e-38
0.0048533357 -0.054773346 0.72800004 1.5452101e-38
0.0062400033 -0.054773346 0.72800004 1.5449587e-38
0.0076266639 -0.054773346 0.72800004 1.5452445e-38
0.0090257106 -0.054848582 0.72900009 1.5172263e-38
0.010414282 -0.054848596 0.72900009 1.4897134e-38
0.011802847 -0.054848582 0.72900009 1.5180192e-38
0.013191439 -0.054848596 0.72900003 1.5362771e-38
0.014579983 -0.054848596 0.72900009 1.5829467e-38
0.016012387 -0.054999068 0.73100007 1.619359e-38
0.017404741 -0.054999068 0.73100007 1.610535e-38
0.018797142 -0.054999083 0.73100001 1.5916302e-38
0.020189524 -0.054999068 0.73100007 1.5927426e-38
0.021611404 -0.055074289 0.73200011 1.5928539e-38
0.023005709 -0.055074304 0.73200005 1.7136786e-38
0.024399996 -0.055074289 0.73200005 1.8240617e-38
0.025864758 -0.055224791 0.73400003 1.8255696e-38
0.027337153 -0.055375248 0.73600012 1.8230929e-38
0.028778076 -0.055450499 0.73700011 1.5069049e-38
0.030263796 -0.055600956 0.73900008 1.1879569e-38
0.031800002 -0.055826694 0.7420001 1.3379798e-38
0.033213332 -0.055826679 0.74200004 1.4740444e-38
0.034626644 -0.055826694 0.7420001 1.2351619e-38
0.036088549 -0.055901915 0.74300003 9.8576653e-39
0.037503812 -0.0559019 0.74300003 8.0140932e-39
0.039023828 -0.056052402 0.74500006 6.0862736e-39
0.040714264 -0.056428596 0.75000012 6.639446e-39
0.042142838 -0.056428581 0.75000012 7.0975571e-39
0.043861888 -0.056804761 0.75500005 6.4525646e-39
-0.031928569 -0.054633349 0.74500006 9.2126196e-39
-0.030427627 -0.054486677 0.74300003 9.304825e-39
-0.02897335 -0.054413363 0.7420001 9.4005967e-39
-0.027560016 -0.054413363 0.7420001 8.7480513e-39
-0.026076183 -0.054266676 0.74000001 8.1141711e-39
-0.024666682 -0.054266691 0.74000007 8.4725434e-39
-0.023225741 -0.054193363 0.73900008 8.7574218e-39
-0.021759085 -0.054046676 0.73700011 1.0868966e-38
-0.020272385 -0.05382669 0.73400003 1.2987287e-38
-0.01882286 -0.053680018 0.73200005 1.3164507e-38
-0.017428588 -0.053680018 0.73200005 1.3452213e-38
-0.016034305 -0.053680003 0.73200011 1.4088247e-38
-0.014640013 -0.053679988 0.73200005 1.4738246e-38
-0.013245726 -0.053680003 0.73200005 1.4266848e-38
-0.011851442 -0.053680003 0.73200011 1.3901996e-38
-0.01045715 -0.053680018 0.73200005 1.3985917e-38
-0.0090504792 -0.053606674 0.73100001 1.4171407e-38
-0.0076581123 -0.053606704 0.73100007 1.4441198e-38
-0.0062657124 -0.053606689 0.73100001 1.4709164e-38
-0.0048733451 -0.053606674 0.73100007 1.4803503e-38
-0.0034714392 -0.053460017 0.72900009 1.4981453e-38
-0.0020828624 -0.053460002 0.72900009 1.5075818e-38
-0.00069332722 -0.053386673 0.72800004 1.5254117e-38
0.00069332548 -0.053386673 0.72800004 1.5163725e-38
0.0020799995 -0.053386658 0.72800004 1.5154723e-38
0.0034714104 -0.053460017 0.72900009 1.5537097e-38
0.0048533264 -0.053386673 0.72800004 1.5887928e-38
0.0062485747 -0.053460017 0.72900009 1.5342284e-38
0.0076371389 -0.053460002 0.72900003 1.4877726e-38
0.0090257116 -0.053460032 0.72900009 1.4790911e-38
0.010414275 -0.053460017 0.72900003 1.4786248e-38
0.011802847 -0.053460032 0.72900009 1.4793421e-38
0.01319144 -0.053460032 0.72900003 1.4880949e-38
0.014619999 -0.053606689 0.73100001 1.5162908e-38
0.01601238 -0.053606689 0.73100007 1.5430195e-38
0.017404761 -0.053606704 0.73100007 1.5254447e-38
0.018797135 -0.053606689 0.73100001 1.5063262e-38
0.020217121 -0.053680003 0.73200005 1.5075837e-38
0.021611407 -0.053680003 0.73200011 1.5169824e-38
0.023005713 -0.053680003 0.73200005 1.5639043e-38
0.024466664 -0.05382669 0.73400009 1.6105814e-38
0.025864732 -0.05382669 0.73400009 1.6392143e-38
0.027337139 -0.053973332 0.73600006 1.6672247e-38
0.028778084 -0.05404669 0.73700011 1.3252744e-38
0.030263796 -0.054193348 0.73900008 9.9467556e-39
0.031800002 -0.054413334 0.74200004 1.2069464e-38
0.033213314 -0.054413363 0.7420001 1.4174473e-38
0.034673322 -0.054486677 0.74300003 1.1697392e-38
0.036088586 -0.054486662 0.74300003 9.1219513e-39
0.037604764 -0.054633349 0.74500006 7.4634291e-39
0.039023809 -0.054633319 0.74500006 5.9000831e-39
0.040877149 -0.055220008 0.75300008 6.4539758e-39
0.0424238 -0.05536668 0.75500005 7.0975389e-39
0.043861896 -0.055366665 0.75500005 6.9117113e-39
-0.032014281 -0.053357169 0.74700004 1.1694685e-38
-0.030427635 -0.053071439 0.74300003 1.2527667e-38
-0.029012386 -0.053071424 0.74300003 1.3253018e-38
-0.027597135 -0.053071424 0.74300003 1.2701641e-38
-0.02614668 -0.053000033 0.7420001 1.2144531e-38
-0.02473335 -0.053000018 0.74200004 1.2327127e-38
-0.023225747 -0.052785739 0.73900008 1.2417206e-38
-0.021759056 -0.052642882 0.73700011 1.2325048e-38
-0.020272389 -0.052428573 0.73400003 1.2138853e-38
-0.018874295 -0.052428588 0.73400003 1.2221708e-38
-0.017547633 -0.052642852 0.73700011 1.2319643e-38
-0.016143825 -0.052642867 0.73700005 1.258403e-38
-0.014740016 -0.052642852 0.73700005 1.2869573e-38
-0.013245721 -0.052285701 0.73200005 1.2859161e-38
-0.011916194 -0.052571431 0.73600012 1.286632e-38
-0.01051429 -0.052571461 0.73600012 1.3041009e-38
-0.0090504866 -0.052214295 0.73100001 1.3231881e-38
-0.0076581077 -0.05221431 0.73100007 1.350024e-38
-0.0062485696 -0.052071437 0.72900003 1.3779674e-38
-0.0048733377 -0.052214324 0.73100007 1.4051216e-38
-0.0034809713 -0.052214324 0.73100007 1.4237785e-38
-0.0020828755 -0.052071452 0.72900009 1.4234942e-38
-0.00069333747 -0.052000001 0.72800004 1.4145245e-38
0.00069333665 -0.052000001 0.72800004 1.4326751e-38
0.0020799902 -0.052000016 0.72800004 1.4530556e-38
0.0034714113 -0.052071437 0.72900009 1.5463305e-38
0.004860003 -0.052071437 0.72900009 1.6274338e-38
0.0062485673 -0.052071452 0.72900003 1.5245075e-38
0.0076371389 -0.052071452 0.72900009 1.423488e-38
0.0090257041 -0.052071452 0.72900003 1.4418548e-38
0.010414275 -0.052071452 0.72900009 1.4602215e-38
0.011802868 -0.052071452 0.72900003 1.4510376e-38
0.013227618 -0.05221431 0.73100007 1.4327422e-38
0.014619992 -0.052214295 0.73100001 1.4510377e-38
0.016034275 -0.052285731 0.73200005 1.4602588e-38
0.01742856 -0.052285716 0.73200005 1.4418576e-38
0.018822867 -0.052285716 0.73200005 1.4235268e-38
0.020217124 -0.052285701 0.73200005 1.4326751e-38
0.021611411 -0.052285731 0.73200005 1.4331057e-38
0.023068566 -0.052428573 0.73400003 1.4143083e-38
0.02446666 -0.052428573 0.73400003 1.3881966e-38
0.025935233 -0.052571431 0.73600006 1.4442348e-38
0.027337136 -0.052571431 0.73600006 1.4998708e-38
0.028778061 -0.052642867 0.73700011 1.1506056e-38
0.030263793 -0.052785724 0.73900008 8.0159919e-39
0.031671412 -0.052785724 0.73900002 1.0868674e-38
0.033213343 -0.053000003 0.74200004 1.3622642e-38
0.034626652 -0.053000018 0.7420001 1.1049435e-38
0.036088578 -0.053071454 0.74300003 8.3811409e-39
0.037604749 -0.053214312 0.74500012 7.000698e-39
0.039023824 -0.053214312 0.74500006 5.6253165e-39
0.040877137 -0.053785741 0.75300008 6.3621529e-39
0.042423811 -0.053928569 0.75500005 7.0046468e-39
0.043920007 -0.05400002 0.75600004 7.2797988e-39
0.045480005 -0.054142877 0.75800002 7.5535186e-39
0.046923824 -0.054142892 0.75800002 7.2776618e-39
-0.035140011 -0.052351445 0.75300002 1.0219935e-38
-0.033571452 -0.052142873 0.75000006 1.0307104e-38
-0.032014277 -0.051934302 0.74700004 1.0398939e-38
-0.03050952 -0.051795244 0.74500006 1.0855604e-38
-0.029012395 -0.051656216 0.74300003 1.140303e-38
-0.027597146 -0.051656201 0.74300003 1.1400517e-38
-0.026076198 -0.051447645 0.74000007 1.1486617e-38
-0.024633363 -0.051378131 0.73900008 1.1671369e-38
-0.023225732 -0.051378116 0.73900008 1.1942957e-38
-0.021818116 -0.051378116 0.73900008 1.1944779e-38
-0.020327635 -0.05116953 0.73600006 1.2030842e-38
-0.01895145 -0.051239073 0.73700011 1.2124439e-38
-0.01759525 -0.051378101 0.73900002 1.2214483e-38
-0.016143832 -0.051239058 0.73700011 1.2490708e-38
-0.014740024 -0.051239058 0.73700011 1.2765504e-38
-0.013245719 -0.050891429 0.73200005 1.2857704e-38
-0.011916192 -0.051169515 0.73600006 1.2949173e-38
-0.01051429 -0.051169544 0.73600006 1.3132836e-38
-0.0090504801 -0.050821915 0.73100001 1.3408372e-38
-0.0076581151 -0.05082193 0.73100007 1.3592071e-38
-0.0062657124 -0.050821915 0.73100001 1.3867549e-38
-0.0048733451 -0.050821945 0.73100007 1.4051191e-38
-0.0034714337 -0.050682887 0.72900009 1.4326734e-38
-0.0020800005 -0.050613344 0.72800004 1.4143099e-38
-0.00069332629 -0.050613344 0.72800004 1.4051227e-38
0.00069428101 -0.050682873 0.72900003 1.5822612e-38
0.0020828401 -0.050682873 0.72900009 1.7677742e-38
0.0034714318 -0.050682873 0.72900003 1.7222635e-38
0.004859976 -0.050682873 0.72900009 1.6756172e-38
0.0062485677 -0.050682858 0.72900003 1.5255484e-38
0.0076371394 -0.050682873 0.72900009 1.3867542e-38
0.0090504764 -0.05082193 0.73100007 1.4326714e-38
0.01044283 -0.05082193 0.73100007 1.4785883e-38
0.011835231 -0.050821915 0.73100001 1.4602204e-38
0.013227612 -0.05082193 0.73100007 1.4510374e-38
0.014639993 -0.050891429 0.73200005 1.4602214e-38
0.016034279 -0.050891429 0.73200005 1.4694054e-38
0.017428564 -0.050891444 0.73200005 1.4418551e-38
0.018822869 -0.050891429 0.73200005 1.4143036e-38
0.020217126 -0.050891459 0.73200005 1.4234862e-38
0.021670476 -0.051030487 0.73400003 1.4418539e-38
0.02306857 -0.051030487 0.73400009 1.4234872e-38
0.024533322 -0.051169544 0.73600006 1.4051223e-38
0.025935225 -0.051169544 0.73600012 1.4428631e-38
0.02733713 -0.051169559 0.73600012 1.4802789e-38
0.028778087 -0.051239043 0.73700011 1.3253422e-38
0.030263789 -0.051378101 0.73900008 1.1589618e-38
0.031800013 -0.051586673 0.74200004 1.0588392e-38
0.033213325 -0.051586702 0.7420001 9.4892275e-39
0.034673326 -0.051656187 0.74300003 8.6537313e-39
0.036185708 -0.051795259 0.74500006 7.9136859e-39
0.03775619 -0.052003816 0.74800003 6.9081786e-39
0.039442867 -0.052351445 0.75300008 5.9937585e-39
0.040877126 -0.05235143 0.75300002 6.4536408e-39
0.042479992 -0.052560017 0.75600004 6.9117547e-39
0.043920003 -0.052560017 0.75600004 7.0950782e-39
0.045360003 -0.052560017 0.75600004 7.2780261e-39
-0.034766667 -0.050376192 0.74500006 8.7312049e-39
-0.033347614 -0.050376207 0.74500006 8.9084131e-39
-0.03184285 -0.050240964 0.74300003 9.0056267e-39
-0.030427637 -0.050240964 0.74300003 9.2757509e-39
-0.029012386 -0.050240964 0.74300003 9.5552006e-39
-0.027597157 -0.050240949 0.74300003 1.0194102e-38
-0.026040986 -0.049970493 0.73900008 1.0746914e-38
-0.024633355 -0.049970493 0.73900008 1.1112468e-38
-0.023225734 -0.049970493 0.73900008 1.1480903e-38
-0.021759074 -0.04983525 0.73700011 1.1663514e-38
-0.020355266 -0.049835265 0.73700011 1.1847169e-38
-0.01900287 -0.049970493 0.73900008 1.2030823e-38
-0.017547633 -0.04983525 0.73700011 1.2122661e-38
-0.016143827 -0.04983525 0.73700011 1.239817e-38
-0.014740018 -0.04983525 0.73700011 1.2581843e-38
-0.01333621 -0.049835235 0.73700011 1.2857349e-38
-0.011916197 -0.049767643 0.73600006 1.3041017e-38
-0.010514293 -0.049767628 0.73600006 1.3316521e-38
-0.0090628676 -0.049497157 0.73200005 1.3500209e-38
-0.0076581058 -0.049429551 0.73100007 1.3775732e-38
-0.006265718 -0.049429551 0.73100001 1.3959381e-38
-0.0048733386 -0.049429551 0.73100007 1.4143028e-38
-0.0034714458 -0.049294323 0.72900009 1.4326717e-38
-0.0020800107 -0.049226686 0.72800004 1.4143063e-38
-0.00069333654 -0.049226671 0.72800004 1.3979153e-38
0.00069333758 -0.049226671 0.72800004 1.741835e-38
0.0020828596 -0.049294293 0.72900003 2.0729873e-38
0.0034666783 -0.049226671 0.72800004 1.8992595e-38
0.0048599965 -0.049294293 0.72900003 1.7203492e-38
0.0062485677 -0.049294308 0.72900009 1.5336902e-38
0.007637132 -0.049294293 0.72900003 1.3408354e-38
0.009050468 -0.049429536 0.73100007 1.4143036e-38
0.01044287 -0.049429536 0.73100001 1.4877718e-38
0.011835223 -0.049429536 0.73100007 1.4785879e-38
0.013227604 -0.049429551 0.73100007 1.4694048e-38
0.014639976 -0.049497157 0.73200011 1.4785888e-38
0.016034281 -0.049497157 0.73200005 1.4785895e-38
0.017428566 -0.049497157 0.73200005 1.4418558e-38
0.01887426 -0.049632385 0.73400009 1.3959368e-38
0.020272374 -0.04963237 0.73400003 1.4234863e-38
0.021670468 -0.0496324 0.73400003 1.4418543e-38
0.023131434 -0.049767613 0.73600006 1.4326716e-38
0.024533339 -0.049767628 0.73600006 1.4234891e-38
0.025935242 -0.049767613 0.73600006 1.4418574e-38
0.027374286 -0.049835265 0.73700011 1.4628115e-38
0.028778091 -0.04983525 0.73700011 1.4930926e-38
0.030263789 -0.049970493 0.73900002 1.5193485e-38
0.031799991 -0.050173342 0.7420001 1.0313974e-38
0.033213321 -0.050173342 0.74200004 5.3451591e-39
0.034673315 -0.050240964 0.74300003 6.3460099e-39
0.036185719 -0.050376222 0.74500006 7.3630261e-39
0.037857123 -0.050714299 0.75000006 6.9085219e-39
0.039442852 -0.050917149 0.75300008 6.3607291e-39
0.040877141 -0.050917149 0.75300008 6.5465441e-39
0.042423807 -0.051052392 0.75500005 6.7284299e-39
0.043919988 -0.051120013 0.75600004 6.9106757e-39
0.045359995 -0.051120013 0.75600004 7.0025056e-39
-0.03826094 -0.049811453 0.75800002 8.0819202e-39
-0.036817152 -0.049811438 0.75800002 8.3577826e-39
-0.03523336 -0.049614295 0.75500005 8.632922e-39
-0.03343714 -0.049088582 0.74700004 8.9087788e-39
-0.031928562 -0.048957154 0.74500006 9.0920869e-39
-0.030427627 -0.048825726 0.74300003 9.4594246e-39
-0.028973337 -0.048760012 0.74200004 9.7349283e-39
-0.027560012 -0.048760027 0.7420001 1.0285939e-38
-0.026076201 -0.048628598 0.74000001 1.0928794e-38
-0.024633355 -0.048562884 0.73900008 1.1204306e-38
-0.02322574 -0.048562869 0.73900008 1.1479818e-38
-0.021759082 -0.048431456 0.73700011 1.1663495e-38
-0.020355258 -0.048431456 0.73700011 1.1847164e-38
-0.01895145 -0.048431441 0.73700011 1.2030834e-38
-0.017547641 -0.048431456 0.73700011 1.2122675e-38
-0.016143836 -0.048431441 0.73700011 1.2398186e-38
-0.014740027 -0.048431441 0.73700011 1.2673688e-38
-0.013336219 -0.048431441 0.73700011 1.2949189e-38
-0.011916203 -0.048365712 0.73600012 1.3224698e-38
-0.010514299 -0.048365727 0.73600012 1.3500206e-38
-0.0090628648 -0.048102856 0.73200005 1.3775718e-38
-0.0076685804 -0.048102856 0.73200005 1.3961546e-38
-0.0062657134 -0.048037171 0.73100001 1.4143048e-38
-0.0048733461 -0.048037171 0.73100007 1.3867523e-38
-0.0034809443 -0.048037171 0.73100001 1.3592015e-38
-0.0020799995 -0.047840014 0.72800004 1.4423197e-38
-0.00069334678 -0.047839999 0.72800004 1.5354921e-38
0.00069426704 -0.047905728 0.72900009 1.8152772e-38
0.0020828596 -0.047905728 0.72900003 2.0840757e-38
0.0034714038 -0.047905743 0.72900009 1.8331785e-38
0.0048599965 -0.047905743 0.72900009 1.5707199e-38
0.0062485687 -0.047905743 0.72900009 1.4786592e-38
0.0076580797 -0.048037171 0.73100001 1.3959357e-38
0.0090504615 -0.048037156 0.73100007 1.4418893e-38
0.010442863 -0.048037156 0.73100001 1.496955e-38
0.011851435 -0.048102856 0.73200005 1.4877718e-38
0.013245692 -0.048102871 0.73200005 1.4877722e-38
0.01467998 -0.048234314 0.73400009 1.4877726e-38
0.016078094 -0.048234299 0.73400003 1.4877734e-38
0.017476188 -0.048234284 0.73400003 1.4602236e-38
0.018874284 -0.048234284 0.73400003 1.4326714e-38
0.020272378 -0.048234284 0.73400003 1.4418534e-38
0.021670472 -0.048234299 0.73400009 1.4510383e-38
0.02313143 -0.048365727 0.73600006 1.441856e-38
0.024533335 -0.048365712 0.73600006 1.4326726e-38
0.025970455 -0.048431441 0.73700011 1.4518647e-38
0.027374264 -0.048431441 0.73700011 1.4818632e-38
0.028856169 -0.048562869 0.73900008 1.5665682e-38
0.030304745 -0.048628584 0.74000007 1.6500748e-38
0.031799994 -0.048760027 0.74200004 1.2158946e-38
0.033258092 -0.048825726 0.74300003 7.9040044e-39
0.034766678 -0.048957154 0.74500006 7.7267737e-39
0.036282852 -0.049088597 0.7470001 7.5495599e-39
0.037857108 -0.04928574 0.75000012 6.9099401e-39
0.039442837 -0.049482882 0.75300008 6.3617927e-39
0.040877126 -0.049482882 0.75300008 6.6369349e-39
0.042423811 -0.049614295 0.75500005 6.9120896e-39
0.04392001 -0.049680009 0.75600004 6.8195423e-39
0.045359991 -0.049680024 0.75600004 6.8191794e-39
-0.039704762 -0.048367634 0.75800002 7.6238203e-39
-0.038260952 -0.048367634 0.75800002 7.9907994e-39
-0.036720008 -0.048240006 0.75600004 8.2663017e-39
-0.035233349 -0.048176184 0.75500005 8.5418012e-39
-0.033660967 -0.047984779 0.75200009 8.9094963e-39
-0.031928565 -0.047538087 0.74500006 9.1846384e-39
-0.030427633 -0.047410488 0.74300003 9.5516161e-39
-0.029012384 -0.047410488 0.74300003 9.9185993e-39
-0.027559999 -0.047346681 0.74200004 1.0469611e-38
-0.02607619 -0.047219053 0.74000001 1.1020628e-38
-0.024633357 -0.047155261 0.73900008 1.1296139e-38
-0.02322574 -0.047155261 0.73900008 1.147981e-38
-0.021759056 -0.047027633 0.73700005 1.1663482e-38
-0.020355269 -0.047027633 0.73700011 1.1847157e-38
-0.018951438 -0.047027633 0.73700005 1.2030834e-38
-0.017595263 -0.047155261 0.73900008 1.2122672e-38
-0.016143844 -0.047027633 0.73700011 1.2490017e-38
-0.014740035 -0.047027647 0.73700011 1.2765521e-38
-0.013336213 -0.047027633 0.73700011 1.313286e-38
-0.011916189 -0.046963796 0.73600006 1.3408365e-38
-0.010514284 -0.046963811 0.73600006 1.3775707e-38
-0.009062862 -0.046708569 0.73200005 1.4053381e-38
-0.0076685776 -0.046708569 0.73200005 1.4152048e-38
-0.0062657208 -0.046644792 0.73100001 1.4245674e-38
-0.0048733386 -0.046644792 0.73100007 1.3500226e-38
-0.0034809508 -0.046644792 0.73100001 1.2765559e-38
-0.0020828615 -0.046517164 0.72900003 1.4785958e-38
-0.00069428928 -0.046517164 0.72900009 1.6754741e-38
0.00069428846 -0.046517164 0.72900003 1.8905045e-38
0.0020828457 -0.046517164 0.72900009 2.0923976e-38
0.0034714253 -0.046517149 0.72900003 1.7602098e-38
