# .PCD v0.7 - Point Cloud Data file format
VERSION 0.7
FIELDS x y z rgb
SIZE 4 4 4 4
TYPE F F F F
COUNT 1 1 1 1
WIDTH 963
HEIGHT 1
VIEWPOINT 0 0 0 1 0 0 0
POINTS 963
DATA ascii
0.031542867 -0.042758085 0.736 1.1245256e-38
0.03285525 -0.042641915 0.73400003 1.76845e-38
0.034346696 -0.0427581 0.73600006 1.5359192e-38
0.035748597 -0.042758115 0.73600006 1.3136126e-38
0.037301902 -0.042932384 0.73899996 1.3694671e-38
0.038761903 -0.042990483 0.74000001 1.4252829e-38
0.040280025 -0.043106668 0.74199998 1.4261408e-38
0.04169336 -0.043106683 0.74200004 1.425675e-38
0.043164782 -0.043164767 0.74299997 1.2694476e-38
0.044580009 -0.043164767 0.74300003 1.1217585e-38
0.046119045 -0.043280952 0.745 9.200801e-39
0.047729552 -0.043455251 0.74800003 7.184006e-39
0.049285758 -0.043571435 0.75000006 7.0943215e-39
0.050917171 -0.043745719 0.75299996 7.0953935e-39
0.052490462 -0.043861903 0.755 6.8198814e-39
0.054000027 -0.043920003 0.75600004 6.6358713e-39
0.055586644 -0.044036187 0.75799996 6.360383e-39
-0.026534244 -0.042311423 0.75300002 9.7655145e-39
-0.025066676 -0.04225523 0.75199997 8.6526887e-39
-0.023634277 -0.042255245 0.75200003 7.553918e-39
-0.022142852 -0.042142861 0.75000006 1.0774644e-38
-0.020659016 -0.042030476 0.74800003 1.3900655e-38
-0.019208537 -0.041974269 0.74699998 1.3994301e-38
-0.0177381 -0.041861914 0.74500006 1.3987487e-38
-0.016275227 -0.04174953 0.74300003 1.3617276e-38
-0.014839996 -0.041693322 0.74199998 1.324669e-38
-0.013426664 -0.041693337 0.74199998 1.3247034e-38
-0.011980933 -0.041580968 0.74000001 1.3149418e-38
-0.010557158 -0.04152476 0.73900002 1.2858446e-38
-0.0091495151 -0.041524775 0.73900002 1.2582208e-38
-0.0077209529 -0.041412376 0.73699999 1.2765507e-38
-0.0063085528 -0.041356198 0.73600006 1.2857339e-38
-0.0049066506 -0.041356184 0.73600006 1.3132843e-38
-0.0034952329 -0.041243814 0.73400003 1.331652e-38
-0.002097124 -0.041243829 0.73400003 1.3408362e-38
-0.0006961709 -0.041075252 0.73100001 1.3500205e-38
0.0006962234 -0.041075252 0.73100001 1.377572e-38
0.0020885861 -0.041075252 0.73099995 1.3959382e-38
0.0034809543 -0.041075252 0.73099995 1.4143046e-38
0.0048733484 -0.041075252 0.73099995 1.4248895e-38
0.0062657166 -0.041075252 0.73100001 1.4096098e-38
0.00765811 -0.041075252 0.73100001 1.3814517e-38
0.0090505043 -0.041075252 0.73100001 1.3426393e-38
0.010442873 -0.041075252 0.73100001 1.2996683e-38
0.011835268 -0.041075252 0.73100001 1.5594315e-38
0.01322766 -0.041075252 0.73100001 1.8045092e-38
0.014619999 -0.041075237 0.73099995 1.2216325e-38
0.016012393 -0.041075222 0.73099995 6.4382812e-39
0.017404761 -0.041075237 0.73099995 1.1332168e-38
0.018797157 -0.041075237 0.73099995 1.6118692e-38
0.020189548 -0.041075252 0.73099995 1.5473651e-38
0.021581916 -0.041075237 0.73100001 1.4838038e-38
0.023005741 -0.041131429 0.73200005 1.6874983e-38
0.024400031 -0.041131444 0.73200011 1.887771e-38
0.025864752 -0.041243829 0.73400003 1.1968807e-38
0.027262861 -0.041243814 0.73400003 4.9670467e-39
0.028739041 -0.041356184 0.736 5.8778473e-39
0.030140966 -0.041356184 0.736 6.727718e-39
0.031542871 -0.041356184 0.73600006 1.2644327e-38
0.032944798 -0.041356198 0.73600006 1.8502058e-38
0.03434667 -0.041356184 0.736 1.5805457e-38
0.035797168 -0.041412391 0.73700005 1.3046459e-38
0.037301917 -0.04152476 0.73899996 1.3693264e-38
0.038866669 -0.041693337 0.74199998 1.4349394e-38
0.040279996 -0.041693337 0.74199998 1.4362676e-38
0.041749537 -0.041749515 0.74299997 1.4356195e-38
0.04316479 -0.041749515 0.74300003 1.2793173e-38
0.044579986 -0.041749515 0.74299997 1.1133669e-38
0.046119031 -0.041861899 0.745 9.1089753e-39
0.047729552 -0.042030476 0.74800003 7.0921775e-39
0.049417134 -0.04225523 0.75199997 7.0950432e-39
0.051052388 -0.042423807 0.755 7.095032e-39
0.052490469 -0.042423792 0.755 6.819873e-39
0.054000009 -0.042479999 0.75600004 6.5436603e-39
0.055440042 -0.042480014 0.75600004 6.1766882e-39
-0.026534248 -0.040877141 0.75300002 1.0133905e-38
-0.025066655 -0.040822871 0.75200003 8.8348631e-39
-0.023634287 -0.040822856 0.75199997 7.5380777e-39
-0.022201918 -0.040822856 0.75199997 1.0213894e-38
-0.020714264 -0.040714301 0.75000006 1.2884662e-38
-0.019234253 -0.040605731 0.74800009 1.168363e-38
-0.017785678 -0.040551431 0.74700004 1.0579453e-38
-0.016275221 -0.040334292 0.74300003 1.0211035e-38
-0.014839996 -0.040279992 0.74199998 9.9424228e-39
-0.013426664 -0.040279992 0.74199998 1.1786386e-38
-0.011980941 -0.040171437 0.74000001 1.3726322e-38
-0.010571431 -0.040171422 0.73999995 1.3147597e-38
-0.009149529 -0.040117167 0.73899996 1.2673694e-38
-0.0077419113 -0.040117152 0.73900002 1.276551e-38
-0.0063171508 -0.040008582 0.73699999 1.2949181e-38
-0.0049066516 -0.039954282 0.736 1.313285e-38
-0.0034952422 -0.039845712 0.73400003 1.3316528e-38
-0.0020971333 -0.039845727 0.73400003 1.3408371e-38
-0.00069619325 -0.039682873 0.73100001 1.3592054e-38
0.00069620105 -0.039682858 0.73100001 1.3775738e-38
0.0020885936 -0.039682858 0.73100001 1.3959402e-38
0.0034809618 -0.039682858 0.73100001 1.4145576e-38
0.0048733559 -0.039682858 0.73100001 1.4336811e-38
0.0062657483 -0.039682843 0.73100001 1.4272268e-38
0.0076581165 -0.039682858 0.73100001 1.4187563e-38
0.009050482 -0.039682858 0.73099995 1.1044663e-38
0.01044285 -0.039682858 0.73099995 7.931701e-39
0.011835243 -0.039682858 0.73099995 1.0324205e-38
0.013227637 -0.039682858 0.73099995 1.2703237e-38
0.014620005 -0.039682858 0.73100001 8.5490347e-39
0.0160124 -0.039682858 0.73100001 4.4085957e-39
0.017404793 -0.039682873 0.73100001 9.6694569e-39
0.018797163 -0.039682858 0.73100001 1.4934543e-38
0.020189553 -0.039682873 0.73100001 1.5019532e-38
0.021581922 -0.039682858 0.73100001 1.5192837e-38
0.023005752 -0.039737158 0.73200005 1.6860981e-38
0.024400042 -0.039737158 0.73200005 1.851039e-38
0.025864741 -0.039845712 0.73399997 1.095365e-38
0.02726285 -0.039845698 0.73399997 3.3983365e-39
0.028739067 -0.039954282 0.73600006 6.4363895e-39
0.030140968 -0.039954297 0.73600006 9.4888869e-39
0.031542867 -0.039954267 0.736 1.3921069e-38
0.032855261 -0.039845712 0.73400003 1.8414536e-38
0.034346674 -0.039954282 0.73600006 1.5534615e-38
0.035797171 -0.040008582 0.73699999 1.267375e-38
0.037301905 -0.040117152 0.73899996 1.3515002e-38
0.03876191 -0.040171422 0.73999995 1.4446319e-38
0.040279999 -0.040279992 0.74199998 1.4358476e-38
0.041749541 -0.040334292 0.74300003 1.4267662e-38
0.043164793 -0.040334307 0.74300003 1.2701741e-38
0.04457999 -0.040334292 0.74300003 1.1139795e-38
0.046119042 -0.040442832 0.745 8.837066e-39
0.047857173 -0.040714301 0.75000006 6.541889e-39
0.049482897 -0.040877141 0.75300002 6.7269865e-39
0.051052388 -0.040985696 0.755 6.9109994e-39
0.052560009 -0.041039996 0.75599998 6.7269515e-39
0.05400002 -0.041039996 0.75600004 6.5422085e-39
0.055440027 -0.041040011 0.75600004 6.3599767e-39
-0.02653428 -0.03944286 0.75299996 1.0411961e-38
-0.025066664 -0.039390467 0.75200003 8.9224387e-39
-0.023634298 -0.039390482 0.75199997 7.4573811e-39
-0.022201898 -0.039390482 0.75200003 9.65821e-39
-0.020714255 -0.039285742 0.75000006 1.1770059e-38
-0.019234257 -0.039180957 0.74800003 9.4594569e-39
-0.017785681 -0.039128579 0.74700004 7.0807303e-39
-0.016275216 -0.038919054 0.74300003 6.888119e-39
-0.014839992 -0.038866661 0.74200004 6.6341659e-39
-0.013426666 -0.038866661 0.74199998 1.0413084e-38
-0.011980949 -0.038761921 0.74000001 1.4173992e-38
-0.010571439 -0.038761906 0.74000001 1.3423123e-38
-0.0091495421 -0.038709514 0.73899996 1.2677289e-38
-0.0077419253 -0.038709529 0.73899996 1.2857345e-38
-0.0063171182 -0.038604774 0.73700005 1.2949181e-38
-0.0049133236 -0.038604774 0.73699999 1.3132851e-38
-0.0035047464 -0.038552396 0.73600006 1.3316527e-38
-0.0020971426 -0.038447626 0.73399997 1.3500202e-38
-0.00069711526 -0.038342856 0.73200005 1.3592047e-38
0.00069620664 -0.038290493 0.73100001 1.3775728e-38
0.0020914639 -0.038342856 0.73200005 1.3959399e-38
0.0034809674 -0.038290478 0.73099995 1.4234907e-38
0.0048733354 -0.038290478 0.73099995 1.4437246e-38
0.0062657278 -0.038290463 0.73099995 1.4468112e-38
0.007658096 -0.038290478 0.73100001 1.4450858e-38
0.0090504903 -0.038290478 0.73100001 8.632901e-39
0.010442883 -0.038290478 0.73100001 2.767685e-39
0.011835251 -0.038290478 0.73100001 5.0665011e-39
0.013227646 -0.038290478 0.73100001 7.3584018e-39
0.014620014 -0.038290478 0.73100001 4.8676821e-39
0.016012406 -0.038290478 0.73100001 2.2992071e-39
0.01740477 -0.038290493 0.73099995 8.0016651e-39
0.018797139 -0.038290478 0.73099995 1.3727403e-38
0.020189533 -0.038290493 0.73099995 1.4660115e-38
0.021581927 -0.038290478 0.73099995 1.5482353e-38
0.023005731 -0.038342871 0.73200005 1.6773813e-38
0.024466682 -0.038447626 0.73400003 1.8046554e-38
0.025864765 -0.038447611 0.73400003 9.9373669e-39
0.02726287 -0.038447626 0.73400003 1.842168e-39
0.028739069 -0.038552381 0.73600006 6.9806075e-39
0.030140966 -0.038552381 0.736 1.215896e-38
0.031542867 -0.038552381 0.736 1.5319445e-38
0.032944769 -0.038552381 0.73600006 1.8310519e-38
0.034346696 -0.038552396 0.73600006 1.5336951e-38
0.035797153 -0.038604759 0.73699999 1.2311789e-38
0.037301917 -0.038709514 0.73900002 1.3429627e-38
0.038761906 -0.038761906 0.74000001 1.4446673e-38
0.040279996 -0.038866661 0.74199998 1.435667e-38
0.041749548 -0.038919039 0.74300003 1.41726e-38
0.043164801 -0.038919039 0.74300003 1.2606692e-38
0.044700012 -0.039023809 0.74500006 1.1044373e-38
0.046242889 -0.039128594 0.74700004 8.5568833e-39
0.047984749 -0.039390467 0.75199997 5.989081e-39
0.049482897 -0.039442874 0.75300002 6.3592984e-39
0.051120013 -0.039600022 0.75600004 6.7262635e-39
0.05256002 -0.039599992 0.75600004 6.6340496e-39
0.054000001 -0.039600007 0.75600004 6.5432987e-39
-0.02807999 -0.038159989 0.75599998 1.1064957e-38
-0.026604766 -0.038109533 0.755 1.1058438e-38
-0.025099965 -0.038008578 0.75300002 1.0689598e-38
-0.023665702 -0.038008578 0.75300002 1.0322595e-38
-0.022201909 -0.037958108 0.75200003 1.0862826e-38
-0.020714248 -0.037857153 0.75000006 1.1403774e-38
-0.019208549 -0.037705727 0.74700004 1.1129681e-38
-0.017738087 -0.037604786 0.74500006 1.0854231e-38
-0.016275212 -0.037503816 0.74300003 1.0489813e-38
-0.014839994 -0.037453346 0.74199998 1.0221823e-38
-0.013426666 -0.037453331 0.74199998 1.1879149e-38
-0.01198093 -0.037352391 0.74000001 1.3530757e-38
-0.010557143 -0.037301891 0.73899996 1.3144765e-38
-0.0091495253 -0.037301905 0.73900002 1.2673712e-38
-0.007720937 -0.03720095 0.73700005 1.2857345e-38
-0.0063171135 -0.037200965 0.73700005 1.3041016e-38
-0.0049133152 -0.037200965 0.73700005 1.3224687e-38
-0.0035047482 -0.037150465 0.736 1.3316524e-38
-0.002102846 -0.037150465 0.73600006 1.3408361e-38
-0.00069713203 -0.036948569 0.73200005 1.359204e-38
0.00069715845 -0.036948569 0.73200005 1.3775718e-38
0.0020914471 -0.036948569 0.73200005 1.4051233e-38
0.003480973 -0.036898114 0.73099995 1.4330694e-38
0.0048733409 -0.036898114 0.73100001 1.461768e-38
0.0062657353 -0.036898099 0.73100001 1.417895e-38
0.0076686088 -0.036948584 0.73200005 1.3810866e-38
0.0090628974 -0.036948569 0.73200005 9.3765491e-39
0.010457158 -0.036948584 0.73200005 4.8676414e-39
0.011851449 -0.036948554 0.73200005 6.2491199e-39
0.013227623 -0.036898099 0.73099995 7.6227063e-39
0.014620017 -0.036898084 0.73099995 5.0513124e-39
0.016012384 -0.036898084 0.73100001 2.5718003e-39
0.017404778 -0.036898099 0.73100001 7.6375068e-39
0.018797169 -0.036898084 0.73100001 1.2721153e-38
0.020189537 -0.036898099 0.73100001 1.4752702e-38
0.021581931 -0.036898084 0.73100001 1.6863492e-38
0.023005744 -0.036948569 0.73200005 1.622065e-38
0.024466643 -0.037049524 0.73399997 1.5668522e-38
0.025864752 -0.03704951 0.73400003 9.2966764e-39
0.027262861 -0.037049524 0.73400003 3.0310212e-39
0.02866097 -0.037049524 0.73400003 6.4418125e-39
0.030140972 -0.037150495 0.73600006 9.8670484e-39
0.031542875 -0.03715048 0.73600006 1.3639536e-38
0.032944772 -0.03715045 0.736 1.7466438e-38
0.034393359 -0.037200965 0.73700005 1.5157582e-38
0.035797153 -0.03720095 0.73699999 1.2949256e-38
0.037352387 -0.037352391 0.74000001 1.3886295e-38
0.038761895 -0.037352376 0.74000001 1.4910508e-38
0.040334295 -0.037503816 0.74299997 1.4541403e-38
0.041749552 -0.037503816 0.74300003 1.426587e-38
0.043280955 -0.037604757 0.745 1.2516305e-38
0.044880062 -0.037756182 0.74800003 1.0863213e-38
0.046304796 -0.037756197 0.74800003 8.4682624e-39
0.047984768 -0.037958093 0.75200003 6.0791228e-39
0.049614314 -0.038109533 0.75500005 6.4497116e-39
0.051052395 -0.038109519 0.755 6.7255572e-39
0.052560028 -0.038160019 0.75600004 6.7266124e-39
0.054000005 -0.038160004 0.75600004 6.6365846e-39
0.055440012 -0.038160004 0.75599998 6.6358797e-39
-0.028154302 -0.036817126 0.75799996 1.1429793e-38
-0.026604762 -0.036671422 0.755 1.1617031e-38
-0.025099998 -0.036574297 0.75299996 1.2363174e-38
-0.02366568 -0.036574282 0.75300002 1.308706e-38
-0.022201916 -0.036525719 0.75199997 1.206643e-38
-0.020714264 -0.036428593 0.75000006 1.0957197e-38
-0.019208552 -0.03628286 0.74700004 1.2801049e-38
-0.0177381 -0.036185734 0.74500006 1.4543455e-38
-0.016275236 -0.036088578 0.74299997 1.4177948e-38
-0.014859982 -0.036088578 0.74300003 1.3716976e-38
-0.013426662 -0.036040001 0.74200004 1.3351425e-38
-0.01198094 -0.035942875 0.74000001 1.287751e-38
-0.010571431 -0.035942845 0.73999995 1.2766992e-38
-0.0091495411 -0.035894282 0.73899996 1.2674052e-38
-0.0077209324 -0.035797141 0.73699999 1.2949173e-38
-0.0063171349 -0.035797141 0.73700005 1.3132851e-38
-0.0049133105 -0.035797141 0.73700005 1.3224695e-38
-0.0035094868 -0.035797141 0.73700005 1.3316527e-38
-0.0021028451 -0.035748579 0.73600006 1.3408358e-38
-0.00069904869 -0.035651438 0.73400003 1.3500196e-38
0.00069906021 -0.035651438 0.73400003 1.3867542e-38
0.0020971431 -0.035651438 0.73400003 1.4143052e-38
0.0034857208 -0.035554282 0.73200005 1.4418562e-38
0.0048800129 -0.035554282 0.73200005 1.4711647e-38
0.0062743034 -0.035554297 0.73200005 1.400315e-38
0.007668593 -0.035554282 0.73200005 1.3162984e-38
0.0090628825 -0.035554297 0.73200005 1.0102265e-38
0.010457173 -0.035554297 0.73200011 6.9899094e-39
0.011883794 -0.035651423 0.73399997 7.4390493e-39
0.013245724 -0.035554297 0.73200005 7.8178638e-39
0.014640015 -0.035554297 0.73200005 5.3268189e-39
0.016034303 -0.035554282 0.73200005 2.7568908e-39
0.017428594 -0.035554297 0.73200005 7.1635905e-39
0.018822884 -0.035554282 0.73200005 1.1609087e-38
0.020217171 -0.035554297 0.73200005 1.4948971e-38
0.021611461 -0.035554312 0.73200005 1.8149195e-38
0.023068583 -0.035651423 0.73400003 1.5760728e-38
0.024466665 -0.035651438 0.73400003 1.3255642e-38
0.025935238 -0.035748564 0.736 8.7337636e-39
0.027262883 -0.035651438 0.73400003 4.1401784e-39
0.028739067 -0.035748579 0.73600006 5.7964291e-39
0.030140942 -0.035748549 0.736 7.4699928e-39
0.031542871 -0.035748564 0.736 1.208911e-38
0.032989543 -0.035797141 0.73700005 1.6643499e-38
0.034486659 -0.035894267 0.73899996 1.5061412e-38
0.035894305 -0.035894282 0.73899996 1.3507074e-38
0.037453342 -0.036040016 0.74200004 1.4439827e-38
0.038919054 -0.036088564 0.74299997 1.5272465e-38
0.040442854 -0.036185719 0.74500006 1.4815818e-38
0.041974317 -0.03628286 0.74699998 1.4263362e-38
0.043397184 -0.03628286 0.74700004 1.2420902e-38
0.044880033 -0.036331438 0.74800003 1.0583769e-38
0.046552356 -0.036525719 0.75199997 8.3731941e-39
0.048048619 -0.036574297 0.75300002 6.1720233e-39
0.049614292 -0.036671422 0.75500005 6.4511283e-39
0.051120006 -0.03672 0.75600004 6.7266194e-39
0.052560009 -0.03672 0.75600004 6.7266026e-39
0.054000046 -0.036720015 0.75600004 6.727334e-39
-0.028154286 -0.035373338 0.75799996 1.1523427e-38
-0.026639991 -0.035279997 0.75600004 1.1892226e-38
-0.025166646 -0.035233356 0.75500005 1.2451153e-38
-0.023665683 -0.035140015 0.75300002 1.3095742e-38
-0.022201927 -0.03509333 0.75199997 1.169448e-38
-0.020714255 -0.035000004 0.75000006 1.0404794e-38
-0.019208558 -0.034860007 0.74700004 1.2525575e-38
-0.017738085 -0.034766652 0.74500006 1.4646789e-38
-0.016275231 -0.034673326 0.74299997 1.4275531e-38
-0.014859976 -0.034673341 0.74300003 1.3993581e-38
-0.013444752 -0.034673341 0.74299997 1.315703e-38
-0.011980947 -0.034533344 0.74000001 1.2319328e-38
-0.010571439 -0.034533344 0.74000001 1.2493609e-38
-0.0091495253 -0.034486674 0.73900002 1.2673675e-38
-0.0077419123 -0.034486659 0.73899996 1.2949165e-38
-0.0063171303 -0.034393318 0.73699999 1.3224688e-38
-0.0049133059 -0.034393333 0.73700005 1.3316539e-38
-0.0035095082 -0.034393333 0.73700005 1.3408365e-38
-0.0021057136 -0.034393318 0.73699999 1.3500189e-38
-0.000699058 -0.034253336 0.73399997 1.3500189e-38
0.0006990509 -0.034253336 0.73399997 1.3775696e-38
0.0020971338 -0.034253336 0.73400003 1.4051201e-38
0.0034857302 -0.034160011 0.73200005 1.4237739e-38
0.0048800204 -0.034160011 0.73200005 1.4338184e-38
0.0062743109 -0.034160011 0.73200005 1.4911438e-38
0.0076685995 -0.034159996 0.73200005 1.5469623e-38
0.0090628909 -0.034160011 0.73200005 1.4454406e-38
0.010457181 -0.034159996 0.73200005 1.3356699e-38
0.011851472 -0.034160011 0.73200005 1.3722979e-38
0.013245762 -0.034160011 0.73200005 1.4189317e-38
0.014640024 -0.034159996 0.73200005 1.0957842e-38
0.016078085 -0.034253322 0.73399997 7.811415e-39
0.017428603 -0.034159996 0.73200005 7.2643635e-39
0.018822894 -0.034160011 0.73200005 6.8275479e-39
0.020272382 -0.034253351 0.73400003 1.0055901e-38
0.021670492 -0.034253351 0.73400003 1.3360124e-38
0.023068571 -0.034253322 0.73399997 1.0219719e-38
0.024533344 -0.034346677 0.73600006 7.0732025e-39
0.025935272 -0.034346662 0.73600006 5.6073477e-39
0.027337141 -0.034346648 0.736 4.2341228e-39
0.028739043 -0.034346662 0.736 4.2334067e-39
0.03014097 -0.034346662 0.736 4.2388858e-39
0.031585749 -0.034393333 0.73700005 9.7627455e-39
0.033079065 -0.034486659 0.73900002 1.5344522e-38
0.034486681 -0.034486659 0.73900002 1.442212e-38
0.035942856 -0.034533359 0.74000001 1.3598539e-38
0.037453346 -0.03462667 0.74199998 1.4162177e-38
0.039023798 -0.034766652 0.745 1.4810773e-38
0.04055145 -0.034860007 0.74700004 1.4446308e-38
0.042030521 -0.034906663 0.74800003 1.4080768e-38
0.043397177 -0.034860007 0.74700004 1.2239762e-38
0.044880036 -0.034906663 0.74800003 1.0402257e-38
0.046552379 -0.03509333 0.75200003 8.1916713e-39
0.048048612 -0.035140015 0.75300002 6.0798179e-39
0.049614299 -0.035233341 0.75500005 6.4496752e-39
0.05105238 -0.035233341 0.755 6.8187996e-39
0.052560017 -0.035280012 0.75600004 6.9106225e-39
0.053999998 -0.035279997 0.75600004 7.0021133e-39
-0.028154293 -0.033929534 0.75800002 1.1709239e-38
-0.026639981 -0.033840008 0.75600004 1.2080905e-38
-0.02509998 -0.033705704 0.75300002 1.2545125e-38
-0.023665691 -0.033705719 0.75299996 1.2989188e-38
-0.022201907 -0.033660956 0.75200003 1.1393857e-38
-0.020714248 -0.03357143 0.75000006 9.7597734e-39
-0.019208562 -0.03343714 0.74699998 1.2249319e-38
-0.017738098 -0.033347614 0.74500006 1.4740057e-38
-0.016275225 -0.033258103 0.74300003 1.446712e-38
-0.014859971 -0.033258088 0.74300003 1.4177599e-38
-0.013426662 -0.033213325 0.74199998 1.2963626e-38
-0.011980955 -0.033123814 0.74000001 1.1762197e-38
-0.010557155 -0.033079036 0.73899996 1.2214523e-38
-0.0091495384 -0.03307905 0.73899996 1.2673681e-38
-0.0077418955 -0.03307905 0.73900002 1.3041003e-38
-0.0063343085 -0.033079036 0.73899996 1.3316517e-38
-0.0049133273 -0.032989509 0.73700005 1.3408359e-38
-0.0035095054 -0.032989509 0.73700005 1.3500191e-38
-0.002105681 -0.032989524 0.73700005 1.3500186e-38
-0.00069903751 -0.03285525 0.73400003 1.3500193e-38
0.00069907139 -0.03285522 0.73400003 1.3775708e-38
0.0020971245 -0.032855235 0.73399997 1.3959374e-38
0.0034952334 -0.032855235 0.73400003 1.395937e-38
0.0048800334 -0.032765739 0.73200011 1.3973745e-38
0.0062742941 -0.032765724 0.73200005 1.5926713e-38
0.0076895338 -0.03285525 0.73400003 1.7776386e-38
0.0090628732 -0.032765724 0.73200005 1.8797746e-38
0.010457165 -0.032765724 0.73200005 1.9718593e-38
0.011851455 -0.032765709 0.73200005 2.0090937e-38
0.013245746 -0.032765709 0.73200005 2.0455038e-38
0.014640036 -0.032765709 0.73200011 1.668726e-38
0.016034296 -0.032765709 0.73200005 1.2789588e-38
0.017428586 -0.032765709 0.73200005 7.3472152e-39
0.018822873 -0.032765724 0.73200005 1.9454969e-39
0.020272376 -0.03285525 0.73400003 5.2695843e-39
0.021670485 -0.032855235 0.73400003 8.4701542e-39
0.023068594 -0.03285525 0.73400003 4.6840517e-39
0.024533348 -0.032944776 0.73600006 9.1911447e-40
0.025935246 -0.032944761 0.736 2.571754e-39
0.027337147 -0.032944761 0.736 4.2273055e-39
0.028739074 -0.032944761 0.736 2.5717568e-39
0.030140975 -0.032944776 0.73600006 9.3024918e-40
0.031542849 -0.032944761 0.736 7.4703515e-39
0.033079047 -0.03307905 0.73899996 1.3976635e-38
0.03453334 -0.033123814 0.73999995 1.3775699e-38
0.035942879 -0.033123814 0.74000001 1.3599623e-38
0.037503812 -0.033258103 0.74299997 1.3982453e-38
0.039023809 -0.033347614 0.745 1.4260474e-38
0.040442854 -0.033347629 0.745 1.4077166e-38
0.041974314 -0.033437155 0.74700004 1.3894582e-38
0.043455273 -0.033481903 0.74800003 1.2054296e-38
0.044880036 -0.033481903 0.74800003 1.0216073e-38
0.046552397 -0.033660941 0.75200003 8.0955282e-39
0.048048578 -0.033705719 0.75299996 5.8961497e-39
0.049614299 -0.033795245 0.755 6.3574893e-39
0.051120017 -0.033839993 0.75599998 6.8180891e-39
0.052560028 -0.033840008 0.75600004 7.0943019e-39
0.054000031 -0.033839993 0.75600004 7.2776254e-39
-0.028154301 -0.032485716 0.75800002 1.2172351e-38
-0.02664 -0.032400005 0.75600004 1.2543656e-38
-0.025166638 -0.032357134 0.75500005 1.2542238e-38
-0.023665695 -0.032271437 0.75299996 1.2534304e-38
-0.022231398 -0.032271437 0.75300002 1.1501828e-38
-0.020714264 -0.03214287 0.75000006 1.0500895e-38
-0.019234257 -0.032057144 0.74800003 1.2624162e-38
-0.017738085 -0.031928562 0.74500006 1.4841575e-38
-0.016275218 -0.031842865 0.74300003 1.4561135e-38
-0.014859995 -0.03184285 0.74299997 1.4184405e-38
-0.013426662 -0.03179998 0.74199998 1.3055056e-38
-0.011980938 -0.031714313 0.74000001 1.1939032e-38
-0.010557139 -0.031671442 0.73900002 1.2306367e-38
-0.0091495514 -0.031671427 0.73899996 1.2673687e-38
-0.0077419095 -0.031671427 0.73899996 1.3041005e-38
-0.0063342927 -0.031671427 0.73900002 1.3408345e-38
-0.0049133245 -0.031585701 0.73699999 1.3500179e-38
-0.0035095008 -0.031585701 0.73699999 1.3683852e-38
-0.0021057024 -0.031585716 0.73700005 1.3592018e-38
-0.00070094393 -0.03154286 0.736 1.3592033e-38
0.00070095825 -0.031542845 0.73600006 1.377572e-38
0.0021028847 -0.03154286 0.73600006 1.4051219e-38
0.0034952539 -0.031457148 0.73400003 1.414484e-38
0.0048933327 -0.031457148 0.73399997 1.4334307e-38
0.0062914146 -0.031457134 0.73400003 1.6019686e-38
0.0076895235 -0.031457134 0.73400003 1.7789057e-38
0.0090628825 -0.031371422 0.73200005 1.8713252e-38
0.010457173 -0.031371437 0.73200005 1.9558014e-38
0.011851463 -0.031371437 0.73200005 2.0011397e-38
0.013245728 -0.031371437 0.73200005 2.0474869e-38
0.014640018 -0.031371437 0.73200005 1.6038057e-38
0.016034307 -0.031371422 0.73200011 1.1690118e-38
0.017428597 -0.031371422 0.73200011 6.9866738e-39
0.018822858 -0.031371437 0.73200005 2.3881097e-39
0.0202724 -0.031457163 0.73400003 4.7859037e-39
0.021670476 -0.031457134 0.73399997 7.2607789e-39
0.023068562 -0.031457148 0.73400003 4.0425695e-39
0.024533343 -0.03154283 0.736 7.3505111e-40
0.025935244 -0.03154286 0.73600006 2.573189e-39
0.027337171 -0.031542845 0.73600006 4.4095401e-39
0.028739044 -0.031542845 0.736 2.6639483e-39
0.030140946 -0.031542845 0.736 9.187221e-40
0.031542875 -0.03154286 0.736 7.5559947e-39
0.032989558 -0.031585716 0.73700005 1.4265374e-38
0.034533329 -0.031714268 0.74000001 1.3875439e-38
0.035942867 -0.031714283 0.74000001 1.3592455e-38
0.037453346 -0.031799994 0.74199998 1.4071419e-38
0.039023798 -0.031928577 0.745 1.4630324e-38
0.040551469 -0.032014303 0.74700004 1.4170429e-38
0.041974306 -0.032014273 0.74700004 1.37127e-38
0.043455273 -0.032057159 0.74800003 1.1779505e-38
0.044880033 -0.032057144 0.74800003 9.8526752e-39
0.046552386 -0.032228582 0.75199997 8.1019812e-39
0.048048601 -0.032271422 0.75299996 6.3574823e-39
0.049614299 -0.032357149 0.75500005 6.5426037e-39
0.051052384 -0.032357134 0.755 6.8184563e-39
0.052560009 -0.03239999 0.75600004 6.7262494e-39
0.054142874 -0.032485716 0.75800002 6.5425883e-39
-0.028154286 -0.031041913 0.75800002 1.263584e-38
-0.026639991 -0.030960016 0.75600004 1.3002119e-38
-0.025199985 -0.030960016 0.75600004 1.2545466e-38
-0.023728577 -0.030919053 0.75500005 1.1974678e-38
-0.022290468 -0.030919038 0.755 1.1577517e-38
-0.020769533 -0.030796207 0.75199997 1.1143071e-38
-0.019234257 -0.030632384 0.74800003 1.3088097e-38
-0.017785707 -0.030591436 0.74699998 1.4932375e-38
-0.016319057 -0.030509509 0.745 1.4567221e-38
-0.014859991 -0.030427612 0.74299997 1.4176495e-38
-0.013444737 -0.030427627 0.74300003 1.3132877e-38
-0.012013333 -0.030386649 0.74199998 1.2122685e-38
-0.010571438 -0.030304767 0.73999995 1.2398189e-38
-0.0091495095 -0.030263804 0.73899996 1.2673678e-38
-0.0077419225 -0.030263804 0.73899996 1.3041003e-38
-0.0063343076 -0.030263804 0.73899996 1.3408345e-38
-0.0049266657 -0.030263804 0.73899996 1.3592018e-38
-0.0035095222 -0.030181922 0.73699999 1.377569e-38
-0.0021056978 -0.030181907 0.73699999 1.3683856e-38
-0.000700943 -0.030140959 0.73600006 1.3592033e-38
0.00070098432 -0.030140959 0.73600006 1.3867552e-38
0.0021028558 -0.030140959 0.736 1.4051212e-38
0.0034952445 -0.030059047 0.73400003 1.4326707e-38
0.0048933271 -0.030059062 0.73400003 1.4620571e-38
0.006291437 -0.030059047 0.73400003 1.6211969e-38
0.0076895459 -0.030059047 0.73400003 1.7782919e-38
0.0090628956 -0.02997715 0.73200011 1.8616316e-38
0.010457156 -0.02997715 0.73200005 1.9356382e-38
0.011851447 -0.029977135 0.73200005 1.9922105e-38
0.013245737 -0.02997715 0.73200005 2.0363269e-38
0.014640026 -0.02997715 0.73200005 1.5483355e-38
0.016034316 -0.02997715 0.73200005 1.0490106e-38
0.017428607 -0.02997715 0.73200005 6.6125159e-39
0.018822897 -0.02997715 0.73200005 2.7597508e-39
0.020272387 -0.030059062 0.73400003 4.4088647e-39
0.021670496 -0.030059047 0.73400003 6.0654728e-39
0.023068579 -0.030059077 0.73400003 3.306445e-39
0.024533348 -0.030140944 0.73600006 5.5245491e-40
0.025935275 -0.030140959 0.73600006 2.5764232e-39
0.027337147 -0.030140944 0.736 4.5031721e-39
0.028739048 -0.030140959 0.73600006 2.755425e-39
0.030140975 -0.030140944 0.73600006 9.3056307e-40
0.031585712 -0.030181907 0.73700005 7.7536647e-39
0.03307905 -0.030263804 0.73899996 1.4443672e-38
0.034533322 -0.030304767 0.74000001 1.3959392e-38
0.036040016 -0.030386664 0.74199998 1.3508521e-38
0.037503816 -0.030427627 0.74300003 1.426335e-38
0.039023809 -0.030509524 0.745 1.4907274e-38
0.040442854 -0.030509524 0.745 1.4170077e-38
0.041974302 -0.030591436 0.74700004 1.34336e-38
0.043397192 -0.030591436 0.74700004 1.1406761e-38
0.044880062 -0.030632384 0.74800003 9.3888244e-39
0.046552379 -0.030796178 0.75199997 8.1027029e-39
0.047984771 -0.030796178 0.75200003 6.7262649e-39
0.04961431 -0.030919053 0.755 6.8202724e-39
0.051052392 -0.030919038 0.755 6.8188262e-39
0.05256002 -0.030960016 0.75600004 6.3574851e-39
-0.028154297 -0.029598095 0.75799996 1.0140146e-38
-0.026640011 -0.029519998 0.75600004 1.0609378e-38
-0.025199976 -0.029520012 0.75600004 1.0786959e-38
-0.023728574 -0.029480942 0.75500005 1.0966279e-38
-0.022290491 -0.029480956 0.755 1.1230258e-38
-0.020769512 -0.029363818 0.75200003 1.1610184e-38
-0.019285697 -0.029285721 0.75000006 1.2993843e-38
-0.017785683 -0.029168569 0.74700004 1.4477542e-38
-0.016319068 -0.029090472 0.745 1.4564695e-38
-0.014899996 -0.029090486 0.745 1.4637089e-38
-0.013444731 -0.029012389 0.74300003 1.3233298e-38
-0.012013333 -0.028973319 0.74199998 1.1847159e-38
-0.010571446 -0.028895222 0.74000001 1.2214504e-38
-0.0091495253 -0.028856181 0.73899996 1.267367e-38
-0.0077419085 -0.028856196 0.73900002 1.3041001e-38
-0.0063342918 -0.028856196 0.73900002 1.3500181e-38
-0.0049266787 -0.028856196 0.73899996 1.3592019e-38
-0.0035094868 -0.028778113 0.73700005 1.3775692e-38
-0.0021057182 -0.028778099 0.73700005 1.3775693e-38
-0.00070094486 -0.028739028 0.736 1.3775703e-38
0.00070095639 -0.028739043 0.736 1.3959384e-38
0.0021028596 -0.028739028 0.73600006 1.4143041e-38
0.0034952352 -0.028660946 0.73399997 1.4514673e-38
0.0048933178 -0.028660975 0.73400003 1.4987193e-38
0.0062914267 -0.02866096 0.73400003 1.5288595e-38
0.0077104867 -0.028739043 0.73600006 1.5574883e-38
0.0090628769 -0.028582878 0.73200011 1.4648297e-38
0.010457168 -0.028582878 0.73200011 1.3818965e-38
0.011851429 -0.028582878 0.73200005 1.4279994e-38
0.013245719 -0.028582878 0.73200005 1.4735798e-38
0.014640008 -0.028582864 0.73200005 1.2238516e-38
0.0160343 -0.028582864 0.73200005 9.7349227e-39
0.01742859 -0.028582864 0.73200005 1.0209167e-38
0.01882288 -0.028582864 0.73200005 1.0669795e-38
0.02027238 -0.028660975 0.73399997 1.0766668e-38
0.021729546 -0.028739043 0.73600006 1.0938127e-38
0.023131447 -0.028739057 0.73600006 5.8817779e-39
0.024533344 -0.028739043 0.736 9.187207e-40
0.025935246 -0.028739043 0.736 2.8508576e-39
0.027337147 -0.028739043 0.73600006 4.7815513e-39
0.028739074 -0.028739043 0.73600006 5.6087826e-39
0.030140946 -0.028739043 0.736 6.3445568e-39
0.031585712 -0.028778099 0.73699999 1.0868904e-38
0.033079036 -0.028856181 0.73899996 1.5367418e-38
0.03453334 -0.028895237 0.74000001 1.4519383e-38
0.036040019 -0.028973319 0.74199998 1.3688615e-38
0.037503824 -0.029012375 0.74300003 1.453743e-38
0.039023798 -0.029090472 0.745 1.5371123e-38
0.040442865 -0.029090472 0.745 1.4356984e-38
0.041861881 -0.029090472 0.745 1.3435027e-38
0.043397188 -0.029168583 0.74700004 1.1408891e-38
0.044880033 -0.02920761 0.74800003 9.3873811e-39
0.046552394 -0.029363804 0.75200003 7.8268405e-39
0.048048597 -0.029402845 0.75300002 6.3596473e-39
0.049614284 -0.029480956 0.75500005 6.544417e-39
0.051120013 -0.029520012 0.75600004 6.8202724e-39
0.052559994 -0.029519983 0.75600004 6.6347979e-39
-0.028154304 -0.028154291 0.75799996 7.6328685e-39
-0.02664 -0.028079994 0.75600004 8.1950246e-39
-0.025199996 -0.028079994 0.75599998 9.0265888e-39
-0.02372857 -0.02804286 0.755 9.8527341e-39
-0.022231415 -0.027968578 0.75300002 1.0950799e-38
-0.020769522 -0.027931429 0.75200003 1.2057132e-38
-0.019234255 -0.027782865 0.74800003 1.2982307e-38
-0.017785687 -0.027745716 0.74700004 1.3915408e-38
-0.016319055 -0.027671404 0.745 1.4576232e-38
-0.014900009 -0.027671434 0.74500006 1.5096292e-38
-0.013444755 -0.027597137 0.74299997 1.3316518e-38
-0.012029501 -0.027597137 0.74300003 1.1479815e-38
-0.010571454 -0.027485706 0.74000001 1.2122669e-38
-0.0091495086 -0.027448572 0.73900002 1.2673673e-38
-0.0077419216 -0.027448572 0.73899996 1.313284e-38
-0.0063342797 -0.027448587 0.73899996 1.3500184e-38
-0.0049266629 -0.027448587 0.73900002 1.3683856e-38
-0.0035095082 -0.027374305 0.73700005 1.3775696e-38
-0.0021057155 -0.02737429 0.73699999 1.3867535e-38
-0.00070094113 -0.027337126 0.73600006 1.3959385e-38
0.00070096011 -0.027337141 0.73600006 1.414307e-38
0.0021028875 -0.027337126 0.73600006 1.4234903e-38
0.0035047589 -0.027337141 0.736 1.4785914e-38
0.0048933383 -0.027262859 0.73400003 1.5269158e-38
0.0062914472 -0.027262874 0.73400003 1.4287697e-38
0.0077104894 -0.027337141 0.73600006 1.3262432e-38
0.009112387 -0.027337141 0.736 1.0766367e-38
0.010457177 -0.027188577 0.73200005 8.2839664e-39
0.011851468 -0.027188592 0.73200005 8.6423696e-39
0.013245759 -0.027188592 0.73200005 9.013226e-39
0.014640017 -0.027188577 0.73200005 9.0002388e-39
0.016078098 -0.027262859 0.73399997 8.929958e-39
0.017476181 -0.027262859 0.73400003 1.3818794e-38
0.018874288 -0.027262874 0.73400003 1.8601804e-38
0.020327648 -0.027337156 0.73600006 1.723363e-38
0.021729518 -0.027337141 0.736 1.573909e-38
0.023131445 -0.027337141 0.736 8.5475213e-39
0.024533346 -0.027337156 0.73600006 1.288578e-39
0.025935251 -0.027337156 0.73600006 3.2185654e-39
0.027337179 -0.027337156 0.73600006 5.0585347e-39
0.02873905 -0.027337126 0.736 8.4611424e-39
0.030140977 -0.027337141 0.736 1.1784078e-38
0.031585753 -0.027374305 0.73700005 1.401001e-38
0.03307905 -0.027448572 0.73900002 1.6191077e-38
0.034533329 -0.027485706 0.74000001 1.5061405e-38
0.036040016 -0.027560003 0.74199998 1.3883042e-38
0.037453346 -0.027559988 0.74199998 1.4918777e-38
0.03891905 -0.027597152 0.74300003 1.5832461e-38
0.040442858 -0.027671419 0.74500006 1.4635363e-38
0.041861873 -0.027671419 0.745 1.3341391e-38
0.043397155 -0.027745701 0.74700004 1.1406725e-38
0.044880033 -0.027782865 0.74800003 9.3852315e-39
0.046428591 -0.027857147 0.75000006 7.6410381e-39
0.047984757 -0.027931429 0.75199997 5.8993993e-39
0.049614288 -0.028042845 0.75500005 6.3607362e-39
0.051052373 -0.02804286 0.755 6.7277166e-39
0.052560009 -0.028080009 0.75600004 7.0025028e-39
-0.028154287 -0.026710473 0.75799996 7.9014624e-39
-0.026639992 -0.026639991 0.75600004 8.4492832e-39
-0.025199987 -0.026639991 0.75600004 9.1036462e-39
-0.023728566 -0.026604764 0.755 9.8448041e-39
-0.022201899 -0.02649904 0.75200003 1.0574481e-38
-0.020769531 -0.026499055 0.75199997 1.1307351e-38
-0.019285707 -0.026428558 0.75000006 1.2050263e-38
-0.017809497 -0.02635809 0.74800003 1.289087e-38
-0.016362827 -0.026322879 0.74700004 1.3176516e-38
-0.014939968 -0.026322864 0.74700004 1.353942e-38
-0.01348098 -0.026252382 0.745 1.268335e-38
-0.012029497 -0.026181914 0.74300003 1.1847155e-38
-0.010571435 -0.02607619 0.73999995 1.2306342e-38
-0.0091618961 -0.02607619 0.74000001 1.2765511e-38
-0.0077419057 -0.026040964 0.73900002 1.3041009e-38
-0.0063342927 -0.026040949 0.73899996 1.3408351e-38
-0.0049266759 -0.026040949 0.73899996 1.3592022e-38
-0.0035190338 -0.026040964 0.73899996 1.3867535e-38
-0.0021114487 -0.026040949 0.73899996 1.3867542e-38
-0.00070093927 -0.02593524 0.73600006 1.3959396e-38
0.00070095825 -0.02593524 0.736 1.4051248e-38
0.0021028596 -0.02593524 0.736 1.4143095e-38
0.0035047869 -0.02593524 0.736 1.4700575e-38
0.0049066888 -0.02593524 0.73600006 1.5362429e-38
0.0062914379 -0.025864772 0.73400003 1.4087846e-38
0.0076895459 -0.025864758 0.73400003 1.2788485e-38
0.0090628695 -0.025794305 0.73200005 8.735853e-39
0.01045716 -0.02579429 0.73200005 4.5921349e-39
0.01185145 -0.02579429 0.73200005 5.696672e-39
0.013245741 -0.02579429 0.73200005 6.8880223e-39
0.01464003 -0.025794305 0.73200011 1.0212037e-38
0.016078116 -0.025864772 0.73400003 1.3634406e-38
0.017476199 -0.025864772 0.73400003 1.7053187e-38
0.018874282 -0.025864758 0.73399997 2.0471236e-38
0.020327618 -0.025935225 0.736 1.9083345e-38
0.021729546 -0.02593524 0.736 1.7787857e-38
0.023131447 -0.02593524 0.73600006 9.3901851e-39
0.024533348 -0.02593524 0.73600006 1.1024001e-39
0.025935246 -0.025935225 0.736 2.7583187e-39
0.027337147 -0.025935225 0.736 4.4157283e-39
0.028739074 -0.025935225 0.736 8.2879517e-39
0.030181928 -0.025970481 0.73700005 1.2259817e-38
0.031585727 -0.025970466 0.73700005 1.400252e-38
0.033079039 -0.026040949 0.73899996 1.5732987e-38
0.034486681 -0.026040964 0.73899996 1.4888831e-38
0.035942864 -0.026076205 0.74000001 1.3975591e-38
0.037453346 -0.026146658 0.74199998 1.4817628e-38
0.038919061 -0.026181914 0.74300003 1.5556963e-38
0.040442865 -0.026252382 0.745 1.4265154e-38
0.041861914 -0.026252382 0.74500006 1.2970456e-38
0.043397177 -0.026322849 0.74699998 1.0759198e-38
0.044880036 -0.026358105 0.74800003 8.5540513e-39
0.046428602 -0.026428573 0.75000006 7.5492222e-39
0.047984745 -0.02649904 0.75199997 6.5426121e-39
0.049482878 -0.026534297 0.75300002 6.6355154e-39
0.051052377 -0.026604764 0.755 6.7266376e-39
0.052560017 -0.026640005 0.75600004 6.7270005e-39
-0.026534246 -0.0251 0.75300002 8.6347367e-39
-0.02509998 -0.025099985 0.75300002 9.1857721e-39
-0.023665691 -0.025099985 0.75299996 9.7400136e-39
-0.022231396 -0.0251 0.75300002 1.0194528e-38
-0.02076954 -0.025066666 0.75199997 1.0564382e-38
-0.019285697 -0.024999999 0.75000006 1.1204364e-38
-0.017809495 -0.024933338 0.74800003 1.1772649e-38
-0.016362833 -0.024900004 0.74700004 1.1882117e-38
-0.01490001 -0.024833344 0.74500006 1.195881e-38
-0.013480967 -0.024833329 0.745 1.2030841e-38
-0.012029491 -0.024766661 0.74300003 1.2122669e-38
-0.010571443 -0.024666667 0.74000001 1.2490004e-38
-0.0091619035 -0.024666674 0.74000001 1.2765508e-38
-0.0077419188 -0.024633333 0.73899996 1.3041013e-38
-0.0063342769 -0.024633341 0.73899996 1.3316515e-38
-0.0049266918 -0.024633333 0.73899996 1.3592018e-38
-0.0035190487 -0.024633333 0.73899996 1.386753e-38
-0.0021114328 -0.024633341 0.73899996 1.3959371e-38
-0.000700943 -0.024533339 0.736 1.3959389e-38
0.00070096011 -0.024533339 0.73600006 1.3959407e-38
0.0021028875 -0.024533331 0.73600006 1.3959428e-38
0.0035047589 -0.024533309 0.736 1.4694133e-38
0.0049066609 -0.024533324 0.736 1.5454271e-38
0.0062914267 -0.024466671 0.73399997 1.3912781e-38
0.0076895105 -0.024466679 0.73400003 1.2331103e-38
0.0090628807 -0.024400003 0.73200005 6.6125229e-39
0.010457171 -0.024400018 0.73200005 9.187179e-40
0.011851462 -0.024400018 0.73200005 2.8472605e-39
0.01324575 -0.024400011 0.73200005 4.6911927e-39
0.014640041 -0.024399996 0.73200005 1.1508591e-38
0.016078109 -0.024466664 0.73400003 1.824133e-38
0.017476192 -0.024466671 0.73400003 2.0287947e-38
0.018874297 -0.024466679 0.73400003 2.2216155e-38
0.02032765 -0.024533316 0.73600006 2.1024108e-38
0.021729551 -0.024533339 0.73600006 1.9709596e-38
0.023131423 -0.024533331 0.736 1.0306386e-38
0.024566671 -0.024566658 0.73700005 9.2410309e-40
0.025935249 -0.024533331 0.73600006 2.2969776e-39
0.027337177 -0.024533331 0.73600006 3.6817464e-39
0.028739078 -0.024533331 0.73600006 8.1978903e-39
0.030181909 -0.024566658 0.73700005 1.2713957e-38
0.031585734 -0.024566658 0.73700005 1.4006456e-38
0.033079054 -0.024633333 0.73900002 1.5269156e-38
0.034486663 -0.024633333 0.73899996 1.469407e-38
0.035942856 -0.024666667 0.74000001 1.4064209e-38
0.037453346 -0.02473335 0.74199998 1.4726859e-38
0.038919061 -0.024766661 0.74300003 1.527966e-38
0.040442858 -0.024833336 0.745 1.3990013e-38
0.041861925 -0.024833329 0.74500006 1.2600954e-38
0.043397173 -0.024899989 0.74700004 1.019704e-38
0.044880036 -0.024933346 0.74800003 7.7275108e-39
0.04642861 -0.024999999 0.75000006 7.4584461e-39
0.047984764 -0.025066681 0.75200003 7.0936167e-39
0.049482901 -0.025099985 0.75300002 6.9113806e-39
0.05105238 -0.025166653 0.755 6.7273551e-39
-0.02653428 -0.023665711 0.75299996 8.726561e-39
-0.025099959 -0.023665711 0.75300002 9.2768649e-39
-0.023665695 -0.023665711 0.75300002 9.7353095e-39
-0.0222314 -0.023665726 0.75300002 1.0194472e-38
-0.02076952 -0.0236343 0.75200003 1.0653316e-38
-0.019337153 -0.0236343 0.75200003 1.1112518e-38
-0.01785711 -0.023571432 0.75000006 1.1480232e-38
-0.01642856 -0.023571432 0.75000006 1.1489929e-38
-0.014939947 -0.023477145 0.74700004 1.1484532e-38
-0.013480979 -0.023414277 0.745 1.1848271e-38
-0.012029516 -0.023351438 0.74299997 1.2214513e-38
-0.010599999 -0.023320004 0.74199998 1.2489995e-38
-0.0091619128 -0.023257129 0.74000001 1.2857342e-38
-0.0077523747 -0.023257151 0.74000001 1.3041017e-38
-0.0063342918 -0.02322571 0.73899996 1.3316515e-38
-0.004926675 -0.023225717 0.73900002 1.3592014e-38
-0.0035190328 -0.02322571 0.73900002 1.395936e-38
-0.0021114459 -0.023225725 0.73899996 1.3959363e-38
-0.00070093927 -0.023131415 0.73600006 1.3959382e-38
0.00070098805 -0.023131415 0.73600006 1.3867565e-38
0.0021028596 -0.023131423 0.736 1.3775762e-38
0.0035047608 -0.023131423 0.73600006 1.4794592e-38
0.0049066879 -0.023131423 0.73600006 1.5918476e-38
0.0062914491 -0.023068577 0.73400003 1.3998155e-38
0.0076895338 -0.023068585 0.73400003 1.2153532e-38
0.009087611 -0.02306857 0.73399997 6.8959271e-39
0.01048572 -0.023068577 0.73399997 1.6537648e-39
0.011851444 -0.023005717 0.73200005 2.8472605e-39
0.013245733 -0.023005731 0.73200005 4.1330527e-39
0.014680021 -0.02306857 0.73400003 1.1333266e-38
0.016078074 -0.023068562 0.73399997 1.844302e-38
0.017476182 -0.02306857 0.73400003 2.0286581e-38
0.018874293 -0.023068577 0.73400003 2.2213689e-38
0.020327618 -0.02313143 0.736 1.9542204e-38
0.02172952 -0.02313143 0.736 1.695454e-38
0.023162877 -0.023162849 0.73700005 8.9277748e-39
0.024566671 -0.023162857 0.73699999 9.187151e-40
0.025935253 -0.02313143 0.73600006 1.4700868e-39
0.027337151 -0.023131438 0.736 1.9289644e-39
0.028739052 -0.023131445 0.736 6.2625093e-39
0.030140979 -0.02313143 0.73600006 1.069715e-38
0.031585734 -0.023162857 0.73699999 1.2987286e-38
0.032989532 -0.023162849 0.73700005 1.5357414e-38
0.034486685 -0.023225717 0.73900002 1.4608005e-38
0.035894271 -0.023225702 0.73899996 1.3869786e-38
0.03745332 -0.023319989 0.74199998 1.4631427e-38
0.038866676 -0.023319997 0.74199998 1.5374723e-38
0.040334292 -0.023351446 0.74299997 1.4081137e-38
0.041861914 -0.023414284 0.74500006 1.2694573e-38
0.04339717 -0.023477152 0.74700004 1.0207777e-38
0.044880036 -0.023508579 0.74800003 7.7310771e-39
0.046428591 -0.023571439 0.75000006 7.4595055e-39
0.047984757 -0.023634285 0.75200003 7.1861612e-39
0.049482897 -0.023665719 0.75300002 6.8195451e-39
0.051052388 -0.023728572 0.755 6.5440442e-39
-0.025099965 -0.02223143 0.75300002 9.2765019e-39
-0.023665698 -0.02223143 0.75300002 9.7353053e-39
-0.022231407 -0.022231422 0.75299996 1.0285944e-38
-0.020769531 -0.022201903 0.75200003 1.0745138e-38
-0.019337162 -0.022201903 0.75200003 1.1020663e-38
-0.017857127 -0.022142872 0.75000006 1.1204334e-38
-0.016384738 -0.022083804 0.74800003 1.1112499e-38
-0.014939953 -0.022054292 0.74700004 1.1021734e-38
-0.013480966 -0.021995239 0.745 1.16635e-38
-0.012061919 -0.021995232 0.74500006 1.2214502e-38
-0.010614282 -0.021936193 0.74300003 1.2581832e-38
-0.0091990596 -0.021936178 0.74299997 1.2857353e-38
-0.0077733416 -0.021906666 0.74199998 1.3132875e-38
-0.006342873 -0.021847621 0.73999995 1.3316529e-38
-0.004926689 -0.021818109 0.73899996 1.3683853e-38
-0.0035190459 -0.021818101 0.73899996 1.3959364e-38
-0.00211143 -0.021818094 0.73900002 1.3959367e-38
-0.00070093927 -0.021729521 0.736 1.3959388e-38
0.00070096197 -0.021729521 0.736 1.3775739e-38
0.0021028651 -0.021729521 0.73600006 1.3501333e-38
0.0035047925 -0.021729529 0.73600006 1.48814e-38
0.0049066637 -0.021729514 0.736 1.6282945e-38
0.0062914416 -0.021670461 0.73400003 1.409896e-38
0.0076895244 -0.021670468 0.73400003 1.187587e-38
0.0090876333 -0.021670476 0.73400003 7.0717003e-39
0.010485742 -0.021670483 0.73400003 2.2962503e-39
0.011883795 -0.021670468 0.73400003 2.939096e-39
0.013281902 -0.021670476 0.73400003 3.5931437e-39
0.014680011 -0.021670468 0.73400003 1.1156377e-38
0.016121922 -0.021729536 0.73600006 1.8618438e-38
0.01752382 -0.021729514 0.736 2.0385621e-38
0.018925721 -0.021729529 0.736 2.2115717e-38
0.020355238 -0.021759048 0.73699999 1.8159187e-38
0.021759061 -0.021759048 0.73700005 1.4082118e-38
0.023162885 -0.021759063 0.73700005 7.5308708e-39
0.024566708 -0.021759056 0.73700005 9.187151e-40
0.025970476 -0.021759063 0.73699999 5.5137311e-40
0.027374297 -0.021759033 0.73700005 1.844389e-40
0.028778121 -0.021759048 0.73700005 4.4096396e-39
0.030181944 -0.021759041 0.73700005 8.5705726e-39
0.031542856 -0.021729521 0.736 1.2071798e-38
0.032989543 -0.021759048 0.73699999 1.545033e-38
0.034486666 -0.021818094 0.73899996 1.4510443e-38
0.036040019 -0.021906666 0.74199998 1.3607565e-38
0.03745335 -0.021906666 0.74200004 1.4554313e-38
0.038866673 -0.021906659 0.74199998 1.5467652e-38
0.040334299 -0.021936193 0.74300003 1.4172635e-38
0.041861903 -0.021995246 0.74500006 1.2789664e-38
0.043397166 -0.022054285 0.74700004 1.0300722e-38
0.044880036 -0.022083819 0.74800009 7.7325233e-39
0.046304792 -0.022083819 0.74800003 7.4616481e-39
0.047984745 -0.022201911 0.75200003 7.1857969e-39
0.049482886 -0.02223143 0.75299996 6.8199052e-39
0.051052388 -0.022290476 0.755 6.3600187e-39
0.052490503 -0.022290476 0.75500005 6.5429806e-39
0.053928584 -0.022290476 0.755 6.7266418e-39
-0.025166659 -0.020852387 0.75500005 9.2764977e-39
-0.023728576 -0.02085238 0.755 9.8271366e-39
-0.022231411 -0.020797156 0.75300002 1.0102628e-38
-0.02076954 -0.020769514 0.75200003 1.0469979e-38
-0.019337172 -0.020769522 0.75199997 1.0745136e-38
-0.017857118 -0.020714283 0.75000006 1.1020631e-38
-0.016384736 -0.020659044 0.74800003 1.102062e-38
-0.014939982 -0.020631433 0.74700004 1.1112459e-38
-0.013480978 -0.020576186 0.745 1.1663477e-38
-0.012061908 -0.020576194 0.745 1.2306326e-38
-0.010614276 -0.020520948 0.74300003 1.2581833e-38
-0.009199054 -0.020520948 0.74299997 1.2857366e-38
-0.0077733118 -0.020493329 0.74200004 1.3224733e-38
-0.0063428804 -0.020438097 0.74000001 1.3592049e-38
-0.0049266731 -0.020410478 0.73900002 1.3775693e-38
-0.0035190599 -0.020410456 0.73899996 1.4051204e-38
-0.0021114431 -0.020410471 0.73899996 1.4143042e-38
-0.00070093555 -0.02032762 0.73600006 1.4234901e-38
0.0007009657 -0.020327628 0.73600006 1.4051254e-38
0.0021028633 -0.02032762 0.736 1.3959435e-38
0.0035047645 -0.02032762 0.736 1.4977894e-38
0.0049066655 -0.020327635 0.73600006 1.6008872e-38
0.0063085919 -0.020327605 0.73600006 1.5197041e-38
0.0076895151 -0.020272382 0.73399997 1.4271123e-38
0.0090876231 -0.020272374 0.73400003 9.9358129e-39
0.010485732 -0.020272382 0.73400003 5.6941609e-39
0.011883815 -0.020272389 0.73400003 4.1329575e-39
0.013318122 -0.02032762 0.73600006 2.6636512e-39
0.014720024 -0.020327613 0.73600006 9.4907493e-39
0.016121922 -0.020327613 0.736 1.622282e-38
0.017523821 -0.020327605 0.736 1.7792372e-38
0.018951448 -0.020355247 0.73700005 1.9439535e-38
0.020355271 -0.020355254 0.73700005 1.4819283e-38
0.021759065 -0.020355232 0.73699999 1.028596e-38
0.023162862 -0.020355247 0.73700005 7.9972229e-39
0.02463335 -0.020410486 0.73900002 5.6941609e-39
0.025970509 -0.020355247 0.73700005 3.7656155e-39
0.027374307 -0.02035524 0.73699999 1.9289462e-39
0.028778104 -0.02035524 0.73700005 5.8879577e-39
0.030263783 -0.020410478 0.73899996 9.8591296e-39
0.031671427 -0.020410478 0.73899996 1.2430528e-38
0.033079043 -0.020410493 0.73900002 1.4993669e-38
0.034533314 -0.02043809 0.74000001 1.4428663e-38
0.036039993 -0.020493321 0.74199998 1.3883086e-38
0.037503827 -0.020520955 0.74300003 1.4913418e-38
0.03891905 -0.020520955 0.74300003 1.5840034e-38
0.040442869 -0.020576179 0.745 1.4269512e-38
0.041974328 -0.02063144 0.74700004 1.2705388e-38
0.04345528 -0.020659059 0.74800003 1.0122464e-38
0.044880036 -0.020659052 0.74800003 7.5492222e-39
0.046552371 -0.020769536 0.75200003 6.9081128e-39
0.048048619 -0.020797141 0.75300002 6.265644e-39
0.049482886 -0.020797133 0.75299996 6.3589355e-39
0.051052365 -0.020852387 0.755 6.3596656e-39
0.052559994 -0.020879999 0.75600004 6.4515123e-39
-0.025199996 -0.019440003 0.75600004 9.1839574e-39
-0.023759993 -0.019439995 0.75599998 9.8278596e-39
-0.022290459 -0.019414283 0.75500005 1.0010433e-38
-0.020797124 -0.019362852 0.75299996 1.0102273e-38
-0.019337125 -0.019337147 0.75200003 1.0469618e-38
-0.01785711 -0.019285716 0.75000006 1.0836954e-38
-0.016384736 -0.0192343 0.74800003 1.102062e-38
-0.014939987 -0.019208573 0.74700004 1.1112465e-38
-0.013480967 -0.019157149 0.745 1.1755322e-38
-0.01206192 -0.019157134 0.745 1.2306328e-38
-0.010614302 -0.019105703 0.74299997 1.2581829e-38
-0.0091990475 -0.01910571 0.74300003 1.2857348e-38
-0.0077733118 -0.019079991 0.74199998 1.3316538e-38
-0.0063428627 -0.019028574 0.73999995 1.3775703e-38
-0.0049266862 -0.019002855 0.73899996 1.395936e-38
-0.003519044 -0.01900284 0.73900002 1.4143032e-38
-0.0021114291 -0.019002862 0.73900002 1.4326706e-38
-0.00070093368 -0.018925712 0.73600006 1.4418569e-38
0.00070096197 -0.018925704 0.736 1.4418599e-38
0.0021028633 -0.018925712 0.736 1.4418609e-38
0.0035047664 -0.018925704 0.73600006 1.5061468e-38
0.0049066935 -0.018925719 0.73600006 1.573625e-38
0.0063085658 -0.018925697 0.736 1.6225925e-38
0.0076895338 -0.018874288 0.73400003 1.6667134e-38
0.0091123935 -0.018925712 0.73600006 1.288929e-38
0.010514295 -0.018925704 0.73600006 9.0085064e-39
0.011916222 -0.018925712 0.73600006 5.4186544e-39
0.013318093 -0.018925712 0.736 1.7506674e-39
0.014720021 -0.018925704 0.736 7.8283637e-39
0.016121924 -0.018925719 0.73600006 1.3819974e-38
0.017523825 -0.018925726 0.73600006 1.5304828e-38
0.01895145 -0.018951431 0.73700005 1.6658583e-38
0.020355273 -0.018951423 0.73700005 1.1575961e-38
