# .PCD v0.7 - Point Cloud Data file format
VERSION 0.7
FIELDS x y z rgb
SIZE 4 4 4 4
TYPE F F F F
COUNT 1 1 1 1
WIDTH 968
HEIGHT 1
VIEWPOINT 0 0 0 1 0 0 0
POINTS 968
DATA ascii
-0.021906663 0.031800009 0.74200004 9.6849174e-39
-0.020438071 0.03171429 0.74000001 9.6859992e-39
-0.019002872 0.03167145 0.73900002 9.9607938e-39
-0.017547611 0.031585738 0.73700005 1.0241335e-38
-0.016143836 0.031585731 0.73699999 1.1991963e-38
-0.01474002 0.031585738 0.73699999 1.364607e-38
-0.01331809 0.031542867 0.73600006 1.2356061e-38
-0.0119162 0.031542875 0.73600006 1.1074348e-38
-0.010485705 0.031457156 0.73400003 1.4949056e-38
-0.0090876184 0.031457163 0.73400003 1.8721127e-38
-0.0076895356 0.031457171 0.73399997 1.7895683e-38
-0.0062914137 0.031457156 0.73400003 1.6942015e-38
-0.004893329 0.031457171 0.73400003 1.4418893e-38
-0.0034857299 0.031371459 0.73200005 1.1847164e-38
-0.002088543 0.031328581 0.73100001 1.2581872e-38
-0.00069618964 0.031328596 0.73099995 1.3224718e-38
0.00069620094 0.031328596 0.73100001 1.3408386e-38
0.0020885915 0.031328596 0.73100001 1.3592047e-38
0.003480982 0.031328589 0.73100001 1.3408366e-38
0.0048733335 0.031328596 0.73100001 1.3232588e-38
0.0062657241 0.031328589 0.73100001 1.3806559e-38
0.0076581147 0.031328589 0.73100001 1.4352537e-38
0.0090505052 0.031328589 0.73100001 8.5410613e-39
0.010442855 0.031328589 0.73100001 2.7658801e-39
0.011835247 0.031328596 0.73100001 6.085643e-39
0.013245692 0.031371452 0.73200005 9.3970921e-39
0.014680015 0.031457156 0.73400003 5.986972e-39
0.016078096 0.031457163 0.73400003 2.4868073e-39
0.017476182 0.031457156 0.73399997 1.9289658e-39
0.018874303 0.031457163 0.73400003 1.2864803e-39
0.020272387 0.031457178 0.73400003 1.2861271e-39
0.021670468 0.031457163 0.73399997 1.288976e-39
0.023068592 0.031457163 0.73400003 9.2017805e-40
0.024533344 0.031542875 0.73600006 5.5680594e-40
0.02604094 0.031671457 0.73900002 5.3351454e-39
0.027485741 0.031714298 0.74000001 1.0128144e-38
0.029090462 0.031928591 0.74500006 1.261844e-38
0.030509511 0.031928584 0.74500006 1.5086892e-38
0.031928536 0.031928599 0.74500006 1.3041415e-38
0.033437148 0.03201431 0.74700004 1.0930313e-38
0.034860004 0.032014303 0.74700004 1.1483875e-38
0.036331438 0.032057166 0.74800003 1.20665e-38
0.037857164 0.03214287 0.75000006 1.1897222e-38
0.039390471 0.032228604 0.75199997 1.1714985e-38
0.040985752 0.032357141 0.75500011 1.17114e-38
0.042479999 0.032400005 0.75600004 1.1623506e-38
0.043919988 0.032400012 0.75600004 1.2081603e-38
-0.035093345 0.033660971 0.75200003 1.0056561e-38
-0.033660948 0.033660978 0.75200003 9.9593155e-39
-0.032014299 0.033437178 0.74700004 9.8732197e-39
-0.030509541 0.033347644 0.74500006 1.0884844e-38
-0.029090513 0.033347644 0.74500006 1.1897568e-38
-0.027671466 0.033347651 0.74500006 1.1896873e-38
-0.026181893 0.03325811 0.74300003 1.1985837e-38
-0.024766654 0.033258125 0.74300003 1.2079822e-38
-0.023320019 0.033213362 0.74200004 1.2166632e-38
-0.021906665 0.033213347 0.74200004 1.2077664e-38
-0.020438056 0.033123814 0.74000007 1.1891852e-38
-0.019002885 0.033079073 0.73900002 1.1987286e-38
-0.017595261 0.033079073 0.73899996 1.2079844e-38
-0.01614383 0.032989547 0.73699999 1.2911749e-38
-0.014740014 0.032989547 0.73700005 1.3647143e-38
-0.013336221 0.032989539 0.73700005 1.2816312e-38
-0.011916185 0.032944784 0.73600006 1.2078084e-38
-0.010485709 0.032855265 0.73400003 1.5496487e-38
-0.0090876259 0.03285525 0.73400003 1.890552e-38
-0.007689504 0.032855257 0.73400003 1.7978554e-38
-0.0062914193 0.032855257 0.73400003 1.7038516e-38
-0.0048933364 0.032855257 0.73399997 1.4523283e-38
-0.0034857169 0.032765739 0.73200005 1.1939005e-38
-0.0020885598 0.032720976 0.73100001 1.2673719e-38
-0.00069617102 0.032720976 0.73100001 1.3408403e-38
0.00069622142 0.032720961 0.73100001 1.3500237e-38
0.0020885728 0.032720976 0.73099995 1.3592067e-38
0.0034809653 0.032720983 0.73100001 1.3132882e-38
0.0048733559 0.032720968 0.73100001 1.2765518e-38
0.0062657464 0.032720976 0.73100001 1.4161322e-38
0.0076580979 0.032720961 0.73099995 1.5463521e-38
0.0090504866 0.032720976 0.73100001 1.1964086e-38
0.010442879 0.032720976 0.73100001 8.4668401e-39
0.011835268 0.032720961 0.73100001 1.1058718e-38
0.013245704 0.032765731 0.73200005 1.3555503e-38
0.014680004 0.032855257 0.73400003 1.004065e-38
0.01607809 0.032855272 0.73400003 6.527181e-39
0.01747621 0.03285525 0.73400003 6.5249851e-39
0.018925736 0.032944776 0.73600006 6.6136047e-39
0.020327628 0.032944791 0.73600006 6.53362e-39
0.021729557 0.032944784 0.73600006 6.4353147e-39
0.023131453 0.032944784 0.73600006 3.5840969e-39
0.02456668 0.032989532 0.73700005 8.2689922e-40
0.02604096 0.033079065 0.73900002 5.2486545e-39
0.027485754 0.033123828 0.74000001 9.7629305e-39
0.029090472 0.033347644 0.74500006 1.2248575e-38
0.030509517 0.033347636 0.74500006 1.4729616e-38
0.031928565 0.033347644 0.74500006 1.3795881e-38
0.033437163 0.033437155 0.74700004 1.2858175e-38
0.034859996 0.03343717 0.74700004 1.2418387e-38
0.036331423 0.033481941 0.74800003 1.2070456e-38
0.037857167 0.033571437 0.75000012 1.1801087e-38
0.039390493 0.033660971 0.75200003 1.1620644e-38
0.040985733 0.033795252 0.75500005 1.1527014e-38
0.042479988 0.033840016 0.75600004 1.1436966e-38
0.044036206 0.033929542 0.75800002 1.134333e-38
-0.033660963 0.03509336 0.75200003 1.1063131e-38
-0.032142837 0.035000019 0.75000006 1.1706702e-38
-0.03050953 0.034766681 0.74500006 1.1990108e-38
-0.029090505 0.034766681 0.74500006 1.2172718e-38
-0.027671456 0.034766689 0.74500006 1.291244e-38
-0.026181903 0.034673356 0.74300003 1.355423e-38
-0.024766663 0.034673341 0.74300003 1.4111359e-38
-0.023351446 0.034673356 0.74300003 1.4658416e-38
-0.021936169 0.034673348 0.74300009 1.4383618e-38
-0.020493351 0.034626693 0.74199998 1.4106681e-38
-0.01902853 0.034533352 0.74000007 1.4016286e-38
-0.017595235 0.034486696 0.73900002 1.3925178e-38
-0.016187612 0.034486681 0.73900002 1.3836222e-38
-0.014740009 0.034393355 0.73700005 1.364932e-38
-0.013336217 0.034393355 0.73700005 1.3368069e-38
-0.01191617 0.03434667 0.73600006 1.3008647e-38
-0.01051428 0.034346692 0.73600006 1.6053595e-38
-0.009112386 0.034346685 0.73600006 1.8994842e-38
-0.0076895095 0.034253351 0.73400003 1.8074336e-38
-0.0062914267 0.034253351 0.73400003 1.7126055e-38
-0.0048933439 0.034253359 0.73399997 1.4604373e-38
-0.0034857076 0.034160025 0.73200005 1.2031556e-38
-0.0020885412 0.034113355 0.73100001 1.2765533e-38
-0.00069618778 0.03411337 0.73099995 1.350022e-38
0.0006962028 0.034113355 0.73100001 1.3500223e-38
0.0020885933 0.034113362 0.73100001 1.3500223e-38
0.003480982 0.034113348 0.73100001 1.2949209e-38
0.0048733354 0.034113362 0.73099995 1.2308169e-38
0.0062657259 0.034113362 0.73100001 1.4425782e-38
0.0076581165 0.034113348 0.73100001 1.6566347e-38
0.0090505071 0.034113355 0.73100001 1.5384332e-38
0.01044286 0.034113355 0.73099995 1.4186534e-38
0.011835251 0.034113355 0.73100001 1.5943617e-38
0.013245715 0.034160011 0.73200005 1.7683792e-38
0.014679996 0.034253359 0.73400003 1.4092847e-38
0.016078083 0.034253351 0.73399997 1.0487208e-38
0.017523821 0.034346685 0.73600006 1.1213265e-38
0.018925712 0.034346685 0.73600006 1.187156e-38
0.020327644 0.034346685 0.73600006 1.1706922e-38
0.021729514 0.034346677 0.73600006 1.1498835e-38
0.023131464 0.034346685 0.73600006 6.3370108e-39
0.024633352 0.034486689 0.73900002 1.1070608e-39
0.026076227 0.034533344 0.74000001 5.2529397e-39
0.027485736 0.034533352 0.74000001 9.2997971e-39
0.029090447 0.034766696 0.74500006 1.1882669e-38
0.030509492 0.034766689 0.74500006 1.4363358e-38
0.03192858 0.034766681 0.74500006 1.4554259e-38
0.033347603 0.034766689 0.74500006 1.4726813e-38
0.034859993 0.034860022 0.74700004 1.3352156e-38
0.036331445 0.034906678 0.74800003 1.1979684e-38
0.037857175 0.035000019 0.75000012 1.1799281e-38
0.039442852 0.035140023 0.75300002 1.1524856e-38
0.040985737 0.035233341 0.75500005 1.1339038e-38
0.042480003 0.035280019 0.75600004 1.1156788e-38
0.044036217 0.035373345 0.75800002 1.0603969e-38
-0.038715255 0.037254311 0.76700002 8.1009933e-39
-0.037157103 0.037157156 0.76500005 8.7514452e-39
-0.035373297 0.036817163 0.75800002 9.3968104e-39
-0.033795223 0.036671437 0.75500005 9.8585032e-39
-0.032228578 0.036525749 0.75199997 1.0410605e-38
-0.030632395 0.036331445 0.74800003 1.0780829e-38
-0.029168587 0.036282882 0.74700004 1.1156432e-38
-0.027745731 0.036282875 0.74700004 1.1798213e-38
-0.026252396 0.036185734 0.74500006 1.245222e-38
-0.024766672 0.036088578 0.74300003 1.318694e-38
-0.023351396 0.036088578 0.74300003 1.3931295e-38
-0.021936178 0.036088586 0.74300003 1.3646803e-38
-0.020493351 0.03604003 0.74199998 1.3472099e-38
-0.019028552 0.035942875 0.74000001 1.3372729e-38
-0.017595248 0.035894305 0.73900002 1.3379919e-38
-0.016187623 0.035894305 0.73900002 1.3556789e-38
-0.014740003 0.035797179 0.73700005 1.3745124e-38
-0.013336211 0.035797164 0.73700005 1.3740819e-38
-0.011932397 0.035797164 0.73700005 1.38402e-38
-0.010514263 0.035748586 0.73600006 1.5406079e-38
-0.0091123711 0.035748601 0.73600006 1.706773e-38
-0.0077104792 0.035748586 0.73600006 1.6227221e-38
-0.0062914323 0.035651445 0.73400003 1.5389439e-38
-0.0048933104 0.035651445 0.73400003 1.3973021e-38
-0.0034857336 0.03555432 0.73200005 1.2581848e-38
-0.0020885598 0.035505734 0.73099995 1.3041017e-38
-0.00069714332 0.035554305 0.73200005 1.3592037e-38
0.00069622329 0.035505742 0.73100001 1.3500209e-38
0.0020885747 0.035505734 0.73099995 1.3408379e-38
0.0034809671 0.035505742 0.73100001 1.3041041e-38
0.0048733577 0.035505727 0.73100001 1.2673754e-38
0.0062657464 0.035505734 0.73100001 1.4714277e-38
0.0076580998 0.035505734 0.73099995 1.6858796e-38
0.0090504922 0.035505734 0.73100001 1.6031575e-38
0.010442881 0.035505734 0.73100001 1.5297593e-38
0.01183527 0.035505727 0.73100001 1.5202872e-38
0.013245726 0.035554297 0.73200005 1.5112397e-38
0.014640002 0.03555432 0.73200005 1.2887104e-38
0.016078115 0.035651453 0.73400003 1.0758751e-38
0.017523834 0.035748579 0.73600006 1.1596395e-38
0.01892573 0.035748594 0.73600006 1.2533794e-38
0.020327659 0.035748579 0.73600006 1.1701923e-38
0.021729527 0.035748586 0.73600006 1.0955008e-38
0.023131419 0.035748601 0.73600006 5.7924564e-39
0.024566656 0.035797164 0.73700005 7.350455e-40
0.02597047 0.035797164 0.73700005 3.5905541e-39
0.027485754 0.035942875 0.74000001 6.5353968e-39
0.028895261 0.035942875 0.74000001 8.0140988e-39
0.030509502 0.036185727 0.74500006 9.5828987e-39
0.03192855 0.036185734 0.74500006 1.1056992e-38
0.033347573 0.036185741 0.74500006 1.2632177e-38
0.03490667 0.03633146 0.74800003 1.2258368e-38
0.036428612 0.036428586 0.75000012 1.1798871e-38
0.037958097 0.036525726 0.75200003 1.1708509e-38
0.039442893 0.036574312 0.75300002 1.1615967e-38
0.040985733 0.03667143 0.75500011 1.1524143e-38
0.042423859 0.036671437 0.75500011 1.1521971e-38
0.04403621 0.036817171 0.75800002 1.0970937e-38
-0.038715247 0.038715262 0.76700002 7.0882581e-39
-0.037059996 0.038513351 0.76300001 7.7318619e-39
-0.035606682 0.038513348 0.76300001 8.2871922e-39
-0.033795223 0.038109537 0.75500005 8.6552643e-39
-0.032228593 0.037958115 0.75199997 9.0222546e-39
-0.030714238 0.037857156 0.75000012 9.5657412e-39
-0.029207593 0.037756208 0.74800009 1.0035671e-38
-0.027745739 0.037705742 0.74700004 1.0672054e-38
-0.026252385 0.037604779 0.74500006 1.1237814e-38
-0.024833338 0.037604786 0.74500006 1.2252707e-38
-0.023351405 0.037503827 0.74300003 1.3172853e-38
-0.021936186 0.03750382 0.74300003 1.2984156e-38
-0.020493351 0.037453353 0.74199998 1.2714024e-38
-0.019028533 0.037352383 0.74000001 1.2714736e-38
-0.017595261 0.037301935 0.73900002 1.2715833e-38
-0.016187634 0.037301928 0.73899996 1.3265075e-38
-0.014780013 0.037301935 0.73899996 1.3727847e-38
-0.013336204 0.037200972 0.73700005 1.4193489e-38
-0.01193239 0.037200965 0.73700005 1.4562633e-38
-0.010528576 0.037200972 0.73700005 1.48464e-38
-0.0091247614 0.037200958 0.73700005 1.5113653e-38
-0.0077104662 0.037150495 0.73600006 1.4377172e-38
-0.0063085742 0.03715051 0.73600006 1.3529377e-38
-0.0048933178 0.037049539 0.73400003 1.3316538e-38
-0.003495235 0.037049547 0.73400003 1.3043543e-38
-0.002091445 0.036948599 0.73199999 1.3408375e-38
-0.00069713214 0.036948591 0.73200005 1.3686395e-38
0.00069714343 0.036948584 0.73200005 1.3500216e-38
0.0020885952 0.036898121 0.73100001 1.3321917e-38
0.0034809876 0.036898114 0.73100001 1.3224693e-38
0.0048733391 0.036898121 0.73099995 1.3052921e-38
0.0062657297 0.036898114 0.73100001 1.5081974e-38
0.0076581202 0.036898106 0.73100001 1.7036346e-38
0.0090505127 0.036898114 0.73100001 1.6677255e-38
0.010442864 0.036898129 0.73099995 1.6301271e-38
0.011851404 0.036948584 0.73200005 1.4457712e-38
0.013245676 0.036948599 0.73200005 1.2520519e-38
0.014680026 0.037049539 0.73400003 1.1768577e-38
0.016121924 0.037150495 0.73600006 1.0952483e-38
0.017523814 0.037150502 0.73600006 1.206386e-38
0.018925743 0.037150487 0.73600006 1.3086635e-38
0.020327633 0.037150502 0.73600006 1.1703034e-38
0.021729544 0.037150495 0.73600012 1.0316127e-38
0.023162842 0.037200972 0.73700005 5.3268301e-39
0.024666676 0.037352391 0.74000001 2.7623096e-40
0.02607622 0.037352398 0.74000001 2.0218172e-39
0.027485728 0.037352398 0.74000001 3.6827679e-39
0.029012403 0.037503835 0.74300003 4.2391829e-39
0.030509517 0.037604775 0.74500006 4.7030477e-39
0.031842861 0.037503816 0.74300003 7.6421661e-39
0.03334761 0.037604786 0.74500006 1.0505606e-38
0.034906697 0.037756212 0.74800009 1.1066701e-38
0.036428578 0.037857153 0.75000006 1.1614507e-38
0.037958082 0.037958123 0.75199997 1.1619193e-38
0.039442871 0.0380086 0.75300002 1.1618847e-38
0.041040029 0.038160007 0.75600004 1.1803606e-38
0.042704798 0.038361918 0.76000005 1.1893273e-38
0.044152401 0.038361926 0.76000005 1.1339016e-38
0.045660038 0.038412396 0.76100004 1.069653e-38
-0.038715281 0.04017622 0.76700002 5.9840475e-39
-0.037059993 0.039966673 0.76300001 6.5364982e-39
-0.035606679 0.039966669 0.76300007 7.0896846e-39
-0.033840001 0.039600011 0.75600004 8.0998947e-39
-0.032228567 0.039390497 0.75200003 9.1100865e-39
-0.030714272 0.039285742 0.75000006 1.0035976e-38
-0.029207608 0.039180972 0.74800003 1.0860675e-38
-0.027782829 0.039180964 0.74800003 1.0769171e-38
-0.026322853 0.039128602 0.74700004 1.0676301e-38
-0.024833366 0.039023839 0.74500006 1.1048349e-38
-0.023351416 0.038919073 0.74300003 1.1502872e-38
-0.021936197 0.038919058 0.74300003 1.2058557e-38
-0.020493351 0.038866688 0.74199998 1.2694939e-38
-0.019079996 0.038866688 0.74200004 1.2427315e-38
-0.017595233 0.038709536 0.73900002 1.2238291e-38
-0.01618761 0.038709547 0.73900002 1.2426652e-38
-0.014779988 0.038709532 0.73900002 1.2604956e-38
-0.013372364 0.038709544 0.73900002 1.2983791e-38
-0.011932386 0.038604774 0.73700005 1.3350064e-38
-0.01052857 0.038604781 0.73700005 1.4364924e-38
-0.009124795 0.038604792 0.73700005 1.5449006e-38
-0.0077209771 0.038604788 0.73700005 1.5189275e-38
-0.0063085612 0.038552403 0.73600006 1.4891449e-38
-0.0048933234 0.038447637 0.73400003 1.4621245e-38
-0.0034952387 0.038447656 0.73399997 1.4337139e-38
-0.0020914581 0.038342878 0.73200005 1.3881916e-38
-0.00069718243 0.038342886 0.73200005 1.350955e-38
0.0006971304 0.038342863 0.73200005 1.3609635e-38
0.0020914078 0.038342882 0.73200005 1.3705037e-38
0.0034856815 0.038342871 0.73200005 1.370609e-38
0.0048733577 0.038290504 0.73100001 1.380266e-38
0.0062657483 0.038290493 0.73100001 1.5283934e-38
0.0076581016 0.038290501 0.73099995 1.6771581e-38
0.0090504941 0.038290493 0.73100001 1.4649662e-38
0.010442883 0.038290497 0.73100001 1.2527709e-38
0.011835277 0.038290501 0.73100001 1.1505989e-38
0.013245691 0.038342882 0.73200005 1.0579382e-38
0.014680015 0.038447641 0.73400003 1.2055204e-38
0.016121933 0.038552411 0.73600012 1.362721e-38
0.017523823 0.038552396 0.73600006 1.5296433e-38
0.018925715 0.038552407 0.73600006 1.696385e-38
0.020327648 0.038552411 0.73600006 1.6038349e-38
0.021729516 0.0385524 0.73600006 1.520854e-38
0.023162849 0.038604785 0.73700005 9.3891229e-39
0.024633352 0.038709547 0.73900002 3.6737898e-39
0.026076201 0.038761925 0.74000001 5.2396469e-39
0.027485751 0.03876191 0.74000001 6.8019588e-39
0.02909046 0.039023839 0.74500006 5.7074985e-39
0.030509487 0.039023835 0.74500006 4.6944241e-39
0.032014303 0.039128602 0.74700004 6.0776823e-39
0.033437133 0.03912859 0.74700004 7.558255e-39
0.034906678 0.039180975 0.74800003 8.8483408e-39
0.036428582 0.039285734 0.75000012 1.0136196e-38
0.037857171 0.039285727 0.75000012 1.0695824e-38
0.039442889 0.039442867 0.75300002 1.1253308e-38
0.041040018 0.039600007 0.7560001 1.1436634e-38
0.042704787 0.039809529 0.76000005 1.1622086e-38
0.044152416 0.039809544 0.76000005 1.1343339e-38
0.045600019 0.039809532 0.76000005 1.0975635e-38
-0.038715228 0.041637152 0.76700002 4.7909091e-39
-0.0371571 0.041528586 0.76500005 5.340497e-39
-0.03560663 0.041420005 0.76300001 5.800036e-39
-0.033795204 0.040985733 0.75500011 7.5445559e-39
-0.032271404 0.040877156 0.75300002 9.212684e-39
-0.030796185 0.040822875 0.75200003 1.0515983e-38
-0.029285703 0.040714305 0.75000012 1.1700474e-38
-0.027782844 0.040605728 0.74800003 1.0959646e-38
-0.026322858 0.04055145 0.74700004 1.0125976e-38
-0.024833355 0.040442891 0.74500006 9.9455589e-39
-0.023351425 0.04033431 0.74300003 9.7601097e-39
-0.021936184 0.040334295 0.74300003 1.123631e-38
-0.020493351 0.040280025 0.74200004 1.2701373e-38
-0.019079998 0.040280025 0.74200004 1.2244709e-38
-0.017595246 0.040117167 0.73900002 1.1690473e-38
-0.016187623 0.040117163 0.73900002 1.1598644e-38
-0.014739988 0.040008593 0.73700005 1.1415326e-38
-0.01333621 0.040008597 0.73699999 1.1786966e-38
-0.011932418 0.040008597 0.73700005 1.2156144e-38
-0.010528602 0.040008586 0.73700005 1.3997199e-38
-0.0091247875 0.04000859 0.73700005 1.5748183e-38
-0.0077209715 0.040008597 0.73700005 1.6039485e-38
-0.0063085463 0.039954301 0.73600006 1.6207303e-38
-0.004893329 0.039845742 0.73399997 1.5940339e-38
-0.0034952313 0.03984572 0.73400003 1.5555399e-38
-0.002091445 0.039737158 0.73200005 1.4456582e-38
-0.00069717126 0.039737169 0.73200005 1.3345241e-38
0.00069710618 0.039737165 0.73200005 1.3724075e-38
0.002091419 0.039737165 0.73200005 1.399239e-38
0.0034856945 0.039737154 0.73200005 1.4275773e-38
0.0048799701 0.039737158 0.73200005 1.4548111e-38
0.0062657334 0.039682887 0.73099995 1.5479801e-38
0.0076581258 0.039682884 0.73100001 1.6391671e-38
0.0090505145 0.03968288 0.73100001 1.2529529e-38
0.010457108 0.039737172 0.73200005 8.6548355e-39
0.011851422 0.039737154 0.73200011 8.6433322e-39
0.013245698 0.039737165 0.73200005 8.5597644e-39
0.014680013 0.039845739 0.73400003 1.242871e-38
0.016121909 0.039954305 0.73600006 1.6301629e-38
0.017523842 0.039954308 0.73600006 1.8622312e-38
0.018925732 0.039954305 0.73600006 2.0825316e-38
0.020327624 0.039954316 0.73600006 2.0461589e-38
0.021759041 0.040008582 0.73700005 1.9985125e-38
0.023162853 0.040008593 0.73700005 1.3530743e-38
0.024666674 0.040171448 0.74000001 6.9967827e-39
0.02614665 0.040280033 0.74200004 8.4604025e-39
0.027560003 0.040280018 0.74200004 9.9369633e-39
0.029012386 0.040334307 0.74300003 7.2784171e-39
0.030591439 0.04055145 0.74700004 4.6083438e-39
0.032014299 0.04055145 0.74700004 4.5989887e-39
0.033481907 0.040605742 0.74800003 4.5140055e-39
0.034906667 0.040605731 0.74800003 6.6312806e-39
0.036428608 0.040714305 0.75000012 8.6613992e-39
0.037857175 0.040714294 0.75000012 9.7745991e-39
0.039547648 0.040985741 0.75500005 1.0790178e-38
0.041040029 0.041040018 0.75600004 1.1067485e-38
0.042592403 0.041148581 0.75800002 1.1344065e-38
0.044036221 0.041148581 0.75800002 1.1344779e-38
0.04548002 0.041148596 0.75800002 1.1251509e-38
-0.038614284 0.042985726 0.76500005 5.8014639e-39
-0.037060022 0.042873356 0.76300001 5.8915226e-39
-0.035606664 0.042873353 0.76300001 5.9808329e-39
-0.033795204 0.042423815 0.75500011 8.013038e-39
-0.032271426 0.042311437 0.75300002 9.955979e-39
-0.030796198 0.042255268 0.75200003 1.1340731e-38
-0.029285675 0.042142868 0.75000012 1.2721073e-38
-0.027782861 0.042030502 0.74800003 1.1607147e-38
-0.026322864 0.041974299 0.74700004 1.0392128e-38
-0.024833344 0.041861918 0.74500006 7.637427e-39
-0.023351431 0.041749544 0.74300003 4.97745e-39
-0.021936193 0.041749541 0.74300003 6.2646043e-39
-0.020493355 0.041693363 0.74200004 7.6493226e-39
-0.019079998 0.041693348 0.74200004 9.5782379e-39
-0.017595235 0.041524787 0.73899996 1.1506052e-38
-0.016187634 0.04152479 0.73900002 1.1417431e-38
-0.014740022 0.041412398 0.73699999 1.1415969e-38
-0.013336206 0.041412406 0.73699999 1.0861342e-38
-0.011964764 0.041524779 0.73899996 1.0408341e-38
-0.010528598 0.041412398 0.73700005 1.1788818e-38
-0.0091247838 0.041412406 0.73700005 1.3190415e-38
-0.0077209678 0.041412394 0.73700005 1.3737871e-38
-0.0063085705 0.041356221 0.73600006 1.4284523e-38
-0.0049066395 0.041356221 0.73600006 1.1888491e-38
-0.0035047494 0.041356217 0.73600006 9.5893264e-39
-0.0020971522 0.041243836 0.73400003 8.4750545e-39
-0.00069715822 0.041131459 0.73200005 7.4663256e-39
0.00069711736 0.041131448 0.73200005 7.6467932e-39
0.0020885579 0.041075267 0.73099995 7.9273108e-39
0.0034857057 0.041131437 0.73200005 9.6703803e-39
0.0048799831 0.041131441 0.73200005 1.142033e-38
0.0062657259 0.041075248 0.73100001 1.2342685e-38
0.0076580811 0.041075259 0.73100001 1.3255619e-38
0.0090504698 0.041075271 0.73100001 9.1115019e-39
0.010457123 0.041131455 0.73200005 4.9595358e-39
0.011851395 0.041131444 0.73200005 5.3336951e-39
0.013318103 0.041356206 0.73600006 5.802236e-39
0.014719993 0.041356213 0.73600006 9.5822344e-39
0.016121926 0.041356217 0.73600006 1.3365473e-38
0.017523818 0.041356213 0.73600006 1.5303033e-38
0.018925747 0.041356198 0.73600006 1.7334562e-38
0.02035523 0.041412391 0.73700005 1.6868954e-38
0.021759046 0.041412398 0.73700005 1.6505483e-38
0.023225702 0.041524787 0.73899996 1.3079512e-38
0.024666687 0.041580964 0.74000007 9.6686763e-39
0.026146648 0.041693356 0.74200004 1.0128563e-38
0.027597137 0.041749541 0.74300003 1.0595279e-38
0.029012378 0.04174953 0.74300003 8.6609998e-39
0.030509528 0.041861933 0.74500006 6.7281076e-39
0.032014288 0.041974314 0.74700004 5.9819021e-39
0.033437144 0.04197431 0.74700004 5.2364464e-39
0.034906711 0.042030491 0.74800003 6.5318179e-39
0.036331426 0.042030483 0.74800003 7.8276588e-39
0.037857179 0.042142875 0.75000012 9.4972975e-39
0.039547645 0.042423822 0.75500011 1.1249348e-38
0.041040022 0.042480014 0.75600004 1.1249707e-38
0.042480011 0.042480014 0.75600004 1.1250431e-38
0.044036239 0.042592391 0.75800002 1.1158603e-38
-0.038614251 0.044442877 0.76500005 6.810211e-39
-0.037060019 0.044326678 0.76300007 6.53435e-39
-0.03560666 0.044326674 0.76300001 6.1688171e-39
-0.033660956 0.043687642 0.75199997 8.479428e-39
-0.032228582 0.043687657 0.75199997 1.0692828e-38
-0.030796209 0.043687642 0.75200003 1.2261586e-38
-0.029285708 0.043571454 0.75000006 1.3731654e-38
-0.027782839 0.043455258 0.74800009 1.2264063e-38
-0.026322849 0.043397166 0.74700004 1.0678072e-38
-0.02483337 0.043280978 0.74500006 5.4186614e-39
-0.023351405 0.043164775 0.74300009 9.6877368e-41
-0.02190667 0.04310669 0.74200004 1.2864452e-39
-0.020493355 0.043106686 0.74200004 2.4939708e-39
-0.019079998 0.043106686 0.74200004 6.9128702e-39
-0.017595209 0.042932402 0.73900002 1.1325639e-38
-0.016187608 0.042932399 0.73900002 1.1332816e-38
-0.014779986 0.042932399 0.73900002 1.1325261e-38
-0.013372364 0.042932395 0.73900002 9.9261832e-39
-0.01196474 0.042932395 0.73900002 8.5544199e-39
-0.010557117 0.042932406 0.73900002 9.5589e-39
-0.0091247763 0.042816218 0.73700005 1.0594943e-38
-0.0077209622 0.042816211 0.73700005 1.1528747e-38
-0.0063171461 0.042816214 0.73700005 1.2339066e-38
-0.0049066637 0.042758126 0.73600006 7.9237318e-39
-0.0035047326 0.042758115 0.73600006 3.5062982e-39
-0.0020971578 0.042641923 0.73400003 2.4799606e-39
-0.00069903577 0.042641923 0.73400003 1.4787356e-39
0.00069712853 0.042525731 0.73200005 1.6534341e-39
0.0020914022 0.042525742 0.73200005 1.7542309e-39
0.0034952536 0.042641923 0.73400003 4.9655964e-39
0.0048799925 0.042525724 0.73200005 8.1935014e-39
0.006274268 0.042525746 0.73200005 9.2144847e-39
0.0076685436 0.042525735 0.73200005 1.0123134e-38
0.0090504903 0.042467639 0.73100001 5.7006615e-39
0.010457134 0.042525724 0.73200005 1.2878872e-39
0.011916183 0.042758118 0.73600006 2.1133248e-39
0.013318116 0.042758118 0.73600006 2.9506371e-39
0.014739994 0.042816218 0.73700005 6.6405895e-39
0.016143812 0.042816211 0.73700005 1.031583e-38
0.017547628 0.042816214 0.73700005 1.2073288e-38
0.018951418 0.042816214 0.73700005 1.3723478e-38
0.020355234 0.042816203 0.73700005 1.3357592e-38
0.021759048 0.042816207 0.73700005 1.2892284e-38
0.023225728 0.042932402 0.73900002 1.2613156e-38
0.024666691 0.042990498 0.74000001 1.2238634e-38
0.026146647 0.043106694 0.74200004 1.1697301e-38
0.027560003 0.043106683 0.74200004 1.1141267e-38
0.029012403 0.043164786 0.74300009 1.0041397e-38
0.030591449 0.043397166 0.74700004 8.8414156e-39
0.032014281 0.043397162 0.74700004 7.3637772e-39
0.03343714 0.043397177 0.74700004 5.8904296e-39
0.034906693 0.043455254 0.74800003 6.4317231e-39
0.036428578 0.043571439 0.75000006 7.0057959e-39
0.037857167 0.043571442 0.75000006 9.3215145e-39
0.039547667 0.043861911 0.75500005 1.1617042e-38
0.041040011 0.043920022 0.75600004 1.1431576e-38
0.042479996 0.043920014 0.75600004 1.1156438e-38
0.044036206 0.044036213 0.75800002 1.0972419e-38
-0.033660933 0.045120031 0.75200003 7.3706225e-39
-0.032228597 0.045120031 0.75199997 1.0787905e-38
-0.03071427 0.045000024 0.75000006 1.170805e-38
-0.029285703 0.045000009 0.75000006 1.253639e-38
-0.027782833 0.044880029 0.74800003 1.1888905e-38
-0.026322857 0.044820029 0.74700004 1.1147329e-38
-0.024833363 0.044700019 0.74500006 8.1920146e-39
-0.023351416 0.044580013 0.74300009 5.1431479e-39
-0.021936174 0.044580013 0.74300003 5.1442241e-39
-0.020520935 0.044580024 0.74300003 5.0553131e-39
-0.01908 0.044520017 0.74200004 7.7354562e-39
-0.017619018 0.044400003 0.74000001 1.0499868e-38
-0.016209507 0.044400021 0.74000001 1.0688579e-38
-0.014779999 0.044340011 0.73900002 1.0880484e-38
-0.013372375 0.044340018 0.73900002 9.9402284e-39
-0.011964753 0.044340029 0.73900002 9.1000603e-39
-0.01055713 0.044340018 0.73900002 9.9362487e-39
-0.0091495272 0.044340022 0.73900002 1.0764939e-38
-0.0077209566 0.044220019 0.73700005 8.8389213e-39
-0.0063171424 0.044220027 0.73700005 6.8941768e-39
-0.0049133264 0.044220027 0.73700005 5.4269053e-39
-0.0035095103 0.044220019 0.73700005 3.9496872e-39
-0.0020971671 0.044040024 0.73400003 4.8770526e-39
-0.00069904508 0.044040021 0.73400003 5.8864933e-39
0.00069903961 0.044040017 0.73400003 5.1499821e-39
0.0020914152 0.043920022 0.73200005 4.5003149e-39
0.0034952462 0.044040017 0.73400003 5.8817892e-39
0.0048799664 0.043920029 0.73200005 7.2650711e-39
0.0062742792 0.043920025 0.73200005 7.5456083e-39
0.007658083 0.043860018 0.73099995 7.8214749e-39
0.0090504754 0.043860029 0.73100001 4.3220403e-39
0.010514267 0.044160031 0.73600006 9.1873051e-40
0.0119162 0.044160012 0.73600006 1.2864158e-39
0.013318092 0.044160023 0.73600006 1.6545019e-39
0.014740003 0.04422003 0.73700005 3.4055014e-39
0.016143816 0.044220019 0.73700005 5.2350451e-39
0.017547632 0.044220023 0.73700005 6.2574394e-39
0.018951427 0.044220012 0.73700005 7.2608294e-39
0.020410495 0.044340018 0.73900002 6.9914368e-39
0.021759018 0.044220027 0.73700005 6.6126252e-39
0.023225719 0.044340018 0.73900002 7.356646e-39
0.024666704 0.044400021 0.74000001 7.9959043e-39
0.02614665 0.044520017 0.74200004 7.7307969e-39
0.027597178 0.044580016 0.74300003 7.5467657e-39
0.029012395 0.044580009 0.74300009 9.6686665e-39
0.030591441 0.044820022 0.74700004 1.1782679e-38
0.032014273 0.044820011 0.74700004 1.0958672e-38
0.0334819 0.044880014 0.74800003 1.0039544e-38
0.034906678 0.044880021 0.74800003 8.741234e-39
0.036428586 0.045000013 0.75000012 7.4732186e-39
0.0379581 0.045120019 0.75199997 1.0703347e-38
0.039547667 0.045300011 0.75500011 1.3915075e-38
0.040985733 0.045300011 0.75500005 1.2630808e-38
0.042423859 0.045300014 0.75500011 1.1338668e-38
0.044036239 0.045480013 0.75800002 1.1156087e-38
-0.033660945 0.046552394 0.75200003 6.2589024e-39
-0.03222857 0.046552397 0.75200003 1.0869697e-38
-0.030714264 0.04642858 0.75000006 1.1154896e-38
-0.029285699 0.046428584 0.75000012 1.1336783e-38
-0.027857112 0.046428591 0.75000012 1.1516161e-38
-0.02635809 0.046304781 0.74800003 1.1608683e-38
-0.024900028 0.046242885 0.74700004 1.0967599e-38
-0.023414303 0.046119068 0.74500006 1.0213151e-38
-0.021936184 0.045995265 0.74300003 8.9084061e-39
-0.020520944 0.045995258 0.74300003 7.6371005e-39
-0.019105729 0.045995262 0.74300003 8.6570173e-39
-0.01761904 0.045809537 0.74000001 9.5804156e-39
-0.016209492 0.045809537 0.74000001 9.9492135e-39
-0.014799983 0.045809533 0.74000001 1.0319058e-38
-0.013390459 0.045809537 0.74000001 9.9463268e-39
-0.011980953 0.045809548 0.74000001 9.5771814e-39
-0.010557141 0.045747649 0.73900002 1.0228628e-38
-0.009149516 0.045747634 0.73899996 1.0864298e-38
-0.0077419169 0.045747645 0.73900002 6.1681263e-39
-0.0063342936 0.045747653 0.73900002 1.3854666e-39
-0.0049133208 0.045623824 0.73700005 2.8476192e-39
-0.0035095438 0.045623846 0.73699999 4.3249031e-39
-0.0021028742 0.045561917 0.73600006 7.2833917e-39
-0.0006990488 0.045438111 0.73400003 1.0216021e-38
0.00069903402 0.045438122 0.73400003 8.7434144e-39
0.0020971559 0.045438122 0.73400003 7.1735902e-39
0.0034952406 0.045438111 0.73400003 6.7047157e-39
0.0048933234 0.045438118 0.73400003 6.2534345e-39
0.006274255 0.045314316 0.73200005 5.8814346e-39
0.0076685697 0.045314301 0.73200005 5.4254857e-39
0.0090628453 0.045314308 0.73200005 3.0309469e-39
0.010514285 0.045561917 0.73600006 5.5317518e-40
0.011932379 0.045623824 0.73700005 4.5953761e-40
0.013336195 0.045623835 0.73700005 3.6807486e-40
0.014740009 0.045623824 0.73700005 2.7589465e-40
0.016143825 0.045623831 0.73700005 9.2599204e-41
0.017547637 0.045623835 0.73700005 4.6031674e-40
0.018951394 0.045623831 0.73700005 8.3339283e-40
0.020410482 0.045747649 0.73899996 6.4325905e-40
0.021759022 0.045623831 0.73700005 3.681155e-40
0.023225702 0.045747645 0.73900002 2.1129955e-39
0.024633329 0.045747634 0.73899996 3.7725071e-39
0.026076211 0.04580953 0.74000001 3.8672292e-39
0.027560003 0.045933358 0.74200004 3.8729956e-39
0.029012386 0.045995262 0.74300003 9.3042322e-39
0.030591436 0.046242885 0.74700004 1.4735776e-38
0.032057162 0.046304785 0.74800003 1.4465269e-38
0.033481944 0.046304777 0.74800003 1.41761e-38
0.035000026 0.046428584 0.75000012 1.102066e-38
0.036428612 0.046428591 0.75000012 7.9338885e-39
0.037958093 0.046552412 0.75199997 1.2103913e-38
0.039442874 0.046614304 0.75300002 1.6222148e-38
0.040985752 0.046738114 0.75500005 1.3929836e-38
0.042480003 0.046800006 0.75600004 1.1530974e-38
0.043920018 0.046800021 0.75600004 1.1337958e-38
0.045360003 0.046800029 0.75600004 1.1157871e-38
-0.032228559 0.047984794 0.75200003 7.5632618e-39
-0.03071426 0.047857158 0.75000012 9.2202636e-39
-0.029363792 0.047984779 0.75200003 1.0966567e-38
-0.027857108 0.04785715 0.75000012 1.0780378e-38
-0.026358085 0.047729537 0.74800003 1.0599235e-38
-0.024900012 0.047665738 0.74699998 1.0319799e-38
-0.023414329 0.047538124 0.74500006 1.004817e-38
-0.021995243 0.047538109 0.74500006 9.5799559e-39
-0.020576196 0.04753812 0.74500006 9.0289724e-39
-0.019105699 0.047410488 0.74300009 9.2108777e-39
-0.017666684 0.047346693 0.74199998 9.3985172e-39
-0.01625333 0.047346693 0.74200004 1.068603e-38
-0.014839998 0.047346681 0.74200004 1.1969217e-38
-0.013390481 0.04721906 0.74000001 1.1789135e-38
-0.011980936 0.047219053 0.74000001 1.1604743e-38
-0.010571428 0.047219064 0.74000001 1.1424655e-38
-0.0091494918 0.047155261 0.73900002 1.1243827e-38
-0.0077418908 0.047155265 0.73900002 6.6337287e-39
-0.0063342676 0.047155254 0.73900002 1.9371802e-39
-0.0049266443 0.047155265 0.73900002 2.5749826e-39
-0.0035095382 0.04702764 0.73699999 3.1263585e-39
-0.0021028593 0.046963826 0.73600006 7.5541968e-39
-0.00070093008 0.046963826 0.73600012 1.1971284e-38
0.00070096186 0.046963822 0.73600006 1.1878028e-38
0.0020971503 0.046836212 0.73400003 1.1868324e-38
0.0034952331 0.04683622 0.73400003 1.113362e-38
0.0048933551 0.046836216 0.73400003 1.0396784e-38
0.0062914398 0.046836209 0.73400003 9.841825e-39
0.0076895207 0.046836216 0.73400003 9.3765491e-39
0.0091123674 0.046963826 0.73600006 8.0940807e-39
0.010514298 0.046963815 0.73600006 6.8955557e-39
0.01191619 0.04696383 0.73600006 5.5201757e-39
0.013318123 0.04696383 0.73600012 4.1329589e-39
0.014740013 0.047027636 0.73700005 4.2251545e-39
0.016143788 0.047027651 0.73699999 4.2258972e-39
0.017547604 0.04702764 0.73699999 5.9887335e-39
0.018951394 0.04702764 0.73700005 7.73394e-39
0.02035521 0.047027647 0.73700005 4.4185085e-39
0.021759028 0.04702764 0.73700005 1.1034623e-39
0.023257159 0.047219064 0.74000001 2.2994761e-39
0.024666704 0.047219075 0.74000001 3.5927429e-39
0.026076188 0.047219064 0.74000001 3.2240024e-39
0.027560003 0.047346681 0.74200004 2.947117e-39
0.029090475 0.04753812 0.74500006 8.2061888e-39
0.030632392 0.047729548 0.74800003 1.3471974e-38
0.032057151 0.047729537 0.74800003 1.3924645e-38
0.033571463 0.047857154 0.75000012 1.4291267e-38
0.03500003 0.047857158 0.75000012 9.5753681e-39
0.036428615 0.047857154 0.75000012 4.8111803e-39
0.037958115 0.047984779 0.75200003 1.0241807e-38
0.039547622 0.04817621 0.75500005 1.5663668e-38
0.040985748 0.048176203 0.75500011 1.4571307e-38
0.042480014 0.048240017 0.75600004 1.3465643e-38
0.043920003 0.048240021 0.75600004 1.2262045e-38
-0.033795204 0.049614299 0.75500005 2.3027804e-39
-0.032271415 0.049482878 0.75300002 4.1524131e-39
-0.03079618 0.049417164 0.75199997 7.3792181e-39
-0.029363805 0.049417168 0.75200003 1.0499473e-38
-0.027931433 0.04941716 0.75200003 1.0039938e-38
-0.026428552 0.049285728 0.75000006 9.4878374e-39
-0.024933344 0.049154304 0.74800003 9.6643239e-39
-0.023477148 0.04908859 0.74700004 9.8584094e-39
-0.021995272 0.048957165 0.74500006 1.0151148e-38
-0.020576224 0.048957162 0.745 1.0414066e-38
-0.01915716 0.048957158 0.74500006 9.8508255e-39
-0.017690469 0.048825726 0.74300003 9.2112421e-39
-0.016253332 0.048760019 0.74200004 1.1426453e-38
-0.014839999 0.048760019 0.74200004 1.3629427e-38
-0.013426684 0.04876003 0.74200004 1.3635525e-38
-0.012013327 0.048760019 0.74200004 1.3539032e-38
-0.010571409 0.048628587 0.74000001 1.2621399e-38
-0.0091495048 0.048562888 0.73900002 1.1606508e-38
-0.0077419039 0.048562877 0.73900002 7.0936181e-39
-0.0063342806 0.048562884 0.73900002 2.4881904e-39
-0.0049266573 0.048562877 0.73900002 2.2054896e-39
-0.003519034 0.048562884 0.73900002 1.9378949e-39
-0.0021028463 0.048365738 0.73600006 7.8358354e-39
-0.00070095243 0.048365731 0.73600006 1.3629039e-38
0.00070097862 0.048365731 0.73600012 1.511279e-38
0.0020971429 0.04823431 0.73400003 1.6575325e-38
0.0034952275 0.048234306 0.73399997 1.5564401e-38
0.0048933513 0.048234303 0.73400003 1.4455543e-38
0.0062914342 0.04823431 0.73400003 1.3896262e-38
0.0076895189 0.048234306 0.73399997 1.3255566e-38
0.0091123804 0.048365723 0.73600006 1.3257001e-38
0.010514274 0.048365738 0.73600006 1.3163006e-38
0.011916203 0.048365735 0.73600006 1.0593041e-38
0.013336163 0.048431452 0.73699999 7.9136537e-39
0.014739979 0.048431456 0.73700005 8.1737207e-39
0.016143795 0.048431445 0.73699999 8.3807709e-39
0.017547609 0.048431456 0.73700005 1.1534449e-38
0.018951403 0.048431441 0.73700005 1.4546303e-38
0.020410497 0.048562888 0.73900002 8.1934496e-39
0.021847628 0.048628598 0.74000001 1.7506155e-39
0.02325717 0.048628587 0.74000001 2.571754e-39
0.02466668 0.048628587 0.74000001 3.4062006e-39
0.026076205 0.048628584 0.74000001 2.6726279e-39
0.02759715 0.048825733 0.74300003 1.9429788e-39
0.029168587 0.049088594 0.74700004 7.1015634e-39
0.030632414 0.049154308 0.74800003 1.2168315e-38
0.032057133 0.049154304 0.74800003 1.3285784e-38
0.033571471 0.049285728 0.75000012 1.4360861e-38
0.03500006 0.049285721 0.75000012 7.994035e-39
0.036525726 0.049417168 0.75200003 1.6711283e-39
0.0379581 0.049417157 0.75200003 8.3877873e-39
0.039442893 0.049482871 0.75300002 1.502328e-38
0.040985752 0.049614307 0.75500011 1.5226342e-38
0.042423841 0.049614303 0.75500005 1.5391675e-38
0.043919992 0.049680028 0.75600004 1.326937e-38
-0.033839978 0.051120009 0.75600004 2.3946047e-39
-0.03239999 0.051120017 0.75600004 3.6803002e-39
-0.030796193 0.050849557 0.75199997 6.3542888e-39
-0.029363818 0.050849549 0.75200003 9.0196776e-39
-0.027931424 0.050849557 0.75200003 8.9343063e-39
-0.026428549 0.050714303 0.75000012 8.7491639e-39
-0.024933297 0.050579067 0.74800003 6.9960008e-39
-0.023477133 0.050511438 0.74700004 5.25373e-39
-0.021995259 0.050376218 0.74500006 8.2122872e-39
-0.020576213 0.05037621 0.74500006 1.1155954e-38
-0.019157164 0.050376222 0.745 9.9519558e-39
-0.01769048 0.050240967 0.74300003 8.8327626e-39
-0.016275238 0.05024096 0.74300003 9.9416563e-39
-0.014859999 0.050240971 0.74300003 1.1057671e-38
-0.013444759 0.050240979 0.74300003 1.1607964e-38
-0.012029504 0.05024096 0.74300009 1.2252979e-38
-0.010614265 0.050240964 0.74300003 1.1978921e-38
-0.009161884 0.050038118 0.74000001 1.1793411e-38
-0.0077419151 0.049970493 0.73900002 6.6294113e-39
-0.0063342918 0.049970496 0.73900002 1.5626594e-39
-0.0049266685 0.049970504 0.73900002 1.2871361e-39
-0.0035190452 0.0499705 0.73900002 1.0120248e-39
-0.0021028705 0.049767639 0.73600006 4.2417276e-39
-0.00070093939 0.049767625 0.73600006 7.4743186e-39
0.00070095254 0.049767636 0.73600006 1.0606822e-38
0.0021028835 0.049767636 0.73600006 1.3745718e-38
0.0034952592 0.049632397 0.73400003 1.4381019e-38
0.004893342 0.049632404 0.73400003 1.5117822e-38
0.0062914267 0.049632397 0.73400003 1.492479e-38
0.0077104885 0.049767639 0.73600006 1.4747217e-38
0.0091123972 0.049767636 0.73600012 1.4647131e-38
0.010514287 0.049767628 0.73600006 1.4651064e-38
0.011916179 0.049767639 0.73600006 1.234799e-38
0.013318112 0.049767628 0.73600006 1.0040594e-38
0.014739985 0.049835265 0.73700005 1.0032671e-38
0.016143801 0.049835257 0.73700005 1.0048553e-38
0.017547617 0.049835265 0.73700005 1.2907029e-38
0.018951407 0.049835265 0.73700005 1.5845669e-38
0.02041048 0.0499705 0.73899996 1.0774171e-38
0.021818105 0.049970508 0.73899996 5.6948784e-39
0.023225706 0.049970493 0.73900002 6.6157444e-39
0.024666701 0.050038107 0.74000001 7.6349368e-39
0.026076183 0.050038114 0.74000001 7.2737269e-39
0.027597139 0.050240971 0.74300003 6.8973858e-39
0.02916858 0.050511446 0.74700004 6.6293819e-39
0.030591436 0.050511453 0.74700004 6.4569129e-39
0.032057181 0.050579064 0.74800003 8.846152e-39
0.033481933 0.050579056 0.74800009 1.1310918e-38
0.035000026 0.050714307 0.75000006 7.4480036e-39
0.036428589 0.050714307 0.75000012 3.6742242e-39
0.037958089 0.050849549 0.75200003 8.2940656e-39
0.039390486 0.050849542 0.75200003 1.3009665e-38
0.040877149 0.05091716 0.75300002 1.2913943e-38
0.042423837 0.051052392 0.75500005 1.2900993e-38
0.043861941 0.051052392 0.75500011 1.2076589e-38
-0.033839989 0.052560013 0.75600004 2.4878527e-39
-0.032400001 0.05256002 0.75600004 3.1314242e-39
-0.030796204 0.052281931 0.75199997 5.3376341e-39
-0.029402843 0.052351438 0.75300002 7.5506473e-39
-0.027931437 0.052281935 0.75199997 7.8365515e-39
-0.026499065 0.052281938 0.75200003 8.0098122e-39
-0.024999958 0.05214287 0.75000012 4.3170152e-39
-0.023508556 0.052003819 0.74800003 5.668981e-40
-0.022054307 0.051934313 0.74700004 6.2873179e-39
-0.020576201 0.051795259 0.74500006 1.1894965e-38
-0.019157154 0.051795267 0.74500006 1.0151829e-38
-0.017690487 0.051656209 0.74300003 8.3757627e-39
-0.016275249 0.051656213 0.74300003 8.3574856e-39
-0.014860009 0.051656209 0.74300003 8.3811717e-39
-0.01348097 0.051795263 0.74500006 9.6693882e-39
-0.012029516 0.051656198 0.74300009 1.0873326e-38
-0.010614276 0.051656209 0.74300003 1.1431188e-38
-0.0091866814 0.05158668 0.74200004 1.1881676e-38
-0.0077733267 0.051586684 0.74200004 6.2509318e-39
-0.0063428134 0.051447637 0.74000001 5.5317658e-40
-0.0049333274 0.05144763 0.74000001 3.6806225e-40
-0.00352378 0.051447637 0.74000001 9.3291445e-41
-0.0021057315 0.051239058 0.73700005 7.368756e-40
-0.00070191541 0.051239066 0.73700005 1.303698e-39
0.00070190063 0.051239073 0.73700005 6.0945959e-39
0.0021028593 0.051169541 0.73600006 1.0783258e-38
0.0035047885 0.051169544 0.73600006 1.3279347e-38
0.0049066823 0.051169537 0.73600006 1.5660616e-38
0.0063085724 0.051169548 0.73600006 1.5938279e-38
0.0077105034 0.051169552 0.73600006 1.6209811e-38
0.009112373 0.051169541 0.73600006 1.6116514e-38
0.010514302 0.051169541 0.73600006 1.6029677e-38
0.011916196 0.051169537 0.73600006 1.4106849e-38
0.013336176 0.051239073 0.73700005 1.21521e-38
0.014739992 0.051239077 0.73700005 1.1959445e-38
0.016143808 0.05123907 0.73700005 1.1702671e-38
0.017547622 0.051239077 0.73700005 1.4383199e-38
0.019002883 0.051378112 0.73900002 1.7042424e-38
0.02041051 0.051378116 0.73900002 1.3362128e-38
0.021847624 0.051447637 0.74000001 9.661782e-39
0.023257168 0.051447637 0.74000001 1.0745493e-38
0.024666678 0.051447634 0.74000001 1.1781568e-38
0.026146667 0.05158668 0.74200004 1.179741e-38
0.02759717 0.051656201 0.74300009 1.1780133e-38
0.029168576 0.051934309 0.74700004 6.2451921e-39
0.030632382 0.052003823 0.74800003 6.5512525e-40
0.032142878 0.052142885 0.75000006 4.422952e-39
0.033571444 0.052142873 0.75000012 8.1935477e-39
0.035000034 0.052142881 0.75000012 6.9971345e-39
0.036428597 0.05214287 0.75000012 5.708265e-39
0.0379581 0.052281927 0.75199997 8.2879658e-39
0.039390471 0.05228192 0.75200003 1.0881289e-38
0.040877167 0.052351445 0.75300002 1.0702686e-38
0.042423833 0.052490488 0.75500011 1.0424292e-38
0.043919999 0.05256002 0.75600004 1.097457e-38
0.045660041 0.052907642 0.76100004 1.1435185e-38
-0.033929516 0.054142877 0.75800002 2.4871114e-39
-0.032399986 0.054000024 0.75600004 3.4991095e-39
-0.030959997 0.054000016 0.75600004 4.8791657e-39
-0.029402865 0.053785734 0.75300002 6.3549712e-39
-0.02793145 0.053714309 0.75199997 6.6344041e-39
-0.026499055 0.053714316 0.75199997 6.912447e-39
-0.024999989 0.053571455 0.75000006 3.5884577e-39
-0.023508575 0.053428587 0.74800003 3.6781002e-40
-0.022054292 0.053357165 0.74699998 4.9858241e-39
-0.020576227 0.053214315 0.74500006 9.6988295e-39
-0.019157141 0.053214315 0.74500006 8.8532762e-39
-0.017690476 0.053071447 0.74300003 7.997684e-39
-0.01627522 0.053071432 0.74300009 8.922122e-39
-0.01485998 0.053071439 0.74300009 9.9495526e-39
-0.013444741 0.053071447 0.74300003 1.1237063e-38
-0.012029523 0.053071439 0.74300003 1.2618951e-38
-0.010614283 0.053071447 0.74300003 1.3917252e-38
-0.0091990437 0.053071443 0.74300003 1.5203912e-38
-0.0077733658 0.053000029 0.74200004 8.5625852e-39
-0.0063600112 0.053000022 0.74200004 1.8370701e-39
-0.0049466565 0.053000025 0.74200004 2.4799185e-39
-0.0035238005 0.052857168 0.74000001 3.2146025e-39
-0.0021057241 0.052642871 0.73700005 4.4091814e-39
-0.00070190796 0.052642882 0.73700005 5.6026841e-39
0.00070190622 0.052642867 0.73700005 7.4523084e-39
0.0021056831 0.052642882 0.73699999 9.3701633e-39
0.0035047643 0.052571446 0.73600006 1.0216126e-38
0.0049066953 0.052571449 0.73600006 1.1051295e-38
0.0063085873 0.052571461 0.73600006 1.1509437e-38
0.0077104792 0.052571453 0.73600006 1.1976452e-38
0.0091247354 0.052642882 0.73700005 1.2990534e-38
0.010528548 0.052642886 0.73700005 1.4009659e-38
0.011916211 0.052571446 0.73600006 1.2524474e-38
0.013336182 0.052642886 0.73700005 1.0939592e-38
0.014739994 0.052642871 0.73700005 1.2241071e-38
0.01614381 0.052642882 0.73700005 1.3450419e-38
0.017547626 0.052642889 0.73700005 1.5297953e-38
0.019002873 0.052785739 0.73900002 1.704747e-38
0.020410497 0.052785732 0.73900002 1.4651832e-38
0.021847637 0.052857157 0.74000001 1.2334022e-38
0.023257148 0.052857168 0.74000001 1.2787059e-38
0.024733312 0.053000014 0.74200004 1.3274299e-38
0.026146669 0.053000018 0.74200004 1.3637416e-38
0.027597155 0.053071443 0.74300009 1.4006466e-38
0.029168569 0.053357162 0.74700004 7.4555678e-39
0.030632406 0.053428583 0.74800009 1.0149254e-39
0.032142885 0.053571444 0.75000012 5.4395702e-39
0.033571467 0.053571451 0.75000012 9.8587975e-39
0.035000034 0.05357144 0.75000012 8.4715807e-39
0.036525689 0.053714313 0.75199997 7.0876191e-39
0.037958086 0.053714305 0.75199997 9.120941e-39
0.039390478 0.053714313 0.75199997 1.1157856e-38
0.040877149 0.053785738 0.75300002 1.1067486e-38
0.042423829 0.05392858 0.75500011 1.0975293e-38
0.043919984 0.054000024 0.75600004 1.1251158e-38
0.045600042 0.054285731 0.76000005 1.1526666e-38
-0.033929504 0.055586677 0.75800002 2.5775036e-39
-0.032485709 0.055586684 0.75800002 3.7731699e-39
-0.030918995 0.05536668 0.75500011 4.5082252e-39
-0.029402826 0.055220019 0.75300002 5.1564462e-39
-0.027968569 0.055220012 0.75300002 5.4330219e-39
-0.026499029 0.055146687 0.75200003 5.705304e-39
-0.024999985 0.055000015 0.75000012 2.940559e-39
-0.023571398 0.055000022 0.75000012 9.4761407e-41
-0.022054296 0.054780036 0.74699998 3.7732315e-39
-0.020631425 0.054780014 0.74700004 7.4638789e-39
-0.019157171 0.054633353 0.74500006 7.5650499e-39
-0.017690446 0.054486681 0.74300003 7.5452916e-39
-0.016275229 0.054486685 0.74300009 9.5670808e-39
-0.01485999 0.054486677 0.74300003 1.1512522e-38
-0.013444751 0.054486688 0.74300003 1.2894394e-38
-0.012029532 0.054486681 0.74300003 1.4283814e-38
-0.010614293 0.054486685 0.74300003 1.6414733e-38
-0.009199053 0.054486685 0.74300003 1.8512513e-38
-0.0077733658 0.054413352 0.74200004 1.0866763e-38
-0.0063428171 0.054266691 0.74000001 3.13032e-39
-0.0049333312 0.054266684 0.74000001 4.6839704e-39
-0.0035237838 0.054266673 0.74000001 6.2494955e-39
-0.0021057203 0.054046683 0.73700011 8.0829936e-39
-0.00070194149 0.054046702 0.73700005 9.9373025e-39
0.00070187269 0.054046687 0.73700005 8.9260568e-39
0.0021056868 0.054046694 0.73700005 7.9165824e-39
0.0035095029 0.05404669 0.73700005 7.1636003e-39
0.0049133189 0.05404669 0.73700005 6.3460702e-39
0.0063171331 0.054046698 0.73700005 6.9799713e-39
0.0077209473 0.05404669 0.73700005 7.6446857e-39
0.0091247391 0.05404669 0.73700005 9.8591226e-39
0.010528557 0.054046687 0.73700005 1.1969877e-38
0.011932369 0.05404669 0.73700005 1.085742e-38
0.013336185 0.054046694 0.73700005 9.7597327e-39
0.014740001 0.054046687 0.73700005 1.2523081e-38
0.016143816 0.05404669 0.73700005 1.5201776e-38
0.017547632 0.054046683 0.73700005 1.612663e-38
0.01900286 0.054193355 0.73900002 1.705145e-38
0.020438133 0.05426668 0.74000001 1.6047365e-38
0.021847619 0.054266687 0.74000001 1.4916958e-38
0.023257166 0.054266676 0.74000001 1.4794948e-38
0.024733311 0.054413356 0.74200004 1.4732914e-38
0.026146663 0.054413356 0.74200004 1.5471214e-38
0.027597148 0.054486681 0.74300003 1.6111863e-38
0.029168559 0.054780025 0.74700004 8.7391502e-39
0.030632414 0.05485335 0.74800003 1.3912427e-39
0.032057166 0.054853357 0.74800009 6.461575e-39
0.033571471 0.055000011 0.75000012 1.1510383e-38
0.035093345 0.055146694 0.75200003 9.9427325e-39
0.036525737 0.055146687 0.75200003 8.3812011e-39
0.037958112 0.05514669 0.75200003 9.8588522e-39
0.039442863 0.055220027 0.75300002 1.13383e-38
0.040877186 0.055220012 0.75300002 1.1434476e-38
0.042423859 0.055366673 0.75500011 1.1436629e-38
0.044036206 0.055586688 0.75800002 1.1527388e-38
0.045660034 0.055806685 0.76100004 1.1529182e-38
-0.034019016 0.057180978 0.76000005 3.9543087e-39
-0.032485675 0.057030499 0.75800002 4.0479491e-39
-0.030959995 0.056880023 0.75600004 4.5096489e-39
-0.029402848 0.056654297 0.75300002 5.0635359e-39
-0.027968552 0.056654297 0.75300002 5.1575266e-39
-0.026499042 0.056579065 0.75200003 5.3314978e-39
-0.02499998 0.056428578 0.75000012 3.1252781e-39
-0.023508543 0.056278098 0.74800003 8.2831733e-40
-0.022054305 0.056202885 0.74699998 2.8504933e-39
-0.020631433 0.056202881 0.74700004 4.7769242e-39
-0.019208577 0.056202877 0.74700004 4.3256766e-39
-0.017738111 0.056052402 0.74500006 3.9493285e-39
-0.016275216 0.055901911 0.74300003 8.2888752e-39
-0.01486 0.055901922 0.74300003 1.2720704e-38
-0.013480953 0.056052405 0.74500006 1.3086302e-38
-0.012061927 0.05605239 0.74500006 1.3554138e-38
