# .PCD v0.7 - Point Cloud Data file format
VERSION 0.7
FIELDS x y z rgb
SIZE 4 4 4 4
TYPE F F F F
COUNT 1 1 1 1
WIDTH 957
HEIGHT 1
VIEWPOINT 0 0 0 1 0 0 0
POINTS 957
DATA ascii
0.010042861 -0.048875228 0.70300001 6.440051e-39
0.011381901 -0.048875228 0.70299995 9.3021009e-39
0.012720953 -0.048875228 0.70299995 1.2060733e-38
0.014080004 -0.048944771 0.70400006 1.2611725e-38
0.015442863 -0.0490143 0.70500004 1.3153406e-38
0.016833328 -0.049153328 0.70700002 1.3723067e-38
0.01812857 -0.049014285 0.70500004 1.4349357e-38
0.019471433 -0.0490143 0.70500004 7.8174994e-39
0.020814288 -0.049014285 0.70500004 1.377894e-39
0.022157148 -0.0490143 0.70500004 1.3778926e-39
0.02350001 -0.049014285 0.70500004 1.3778926e-39
0.024842856 -0.049014285 0.70500004 3.7713552e-39
0.026185712 -0.049014285 0.70500004 6.1581028e-39
0.027528571 -0.0490143 0.70500004 6.816835e-39
0.028953336 -0.049153343 0.70700002 7.3732205e-39
0.030300006 -0.049153328 0.70700002 9.2156618e-39
0.031646669 -0.049153328 0.70700002 1.1060597e-38
0.033133335 -0.049361899 0.71000004 1.1057342e-38
0.034534279 -0.049431443 0.71099997 1.1149507e-38
0.035989527 -0.049570486 0.71300006 1.013247e-38
0.037347615 -0.049570471 0.713 9.1204912e-39
0.039031431 -0.049987614 0.71900004 9.0311724e-39
0.040457141 -0.050057143 0.72000003 8.9371551e-39
0.041944765 -0.050196186 0.72200006 7.7385993e-39
0.043379996 -0.0502657 0.72300005 6.6355e-39
0.044757146 -0.050265715 0.72300005 6.635144e-39
0.046261907 -0.050404772 0.72500002 6.727704e-39
0.047708578 -0.050474316 0.72600001 6.7277096e-39
0.049091436 -0.050474271 0.72600001 6.8188332e-39
0.050474301 -0.050474286 0.72600007 6.9113918e-39
-0.035651427 -0.049632385 0.73400003 5.6159698e-39
-0.034159996 -0.049497142 0.73200005 4.507844e-39
-0.032631431 -0.049294308 0.72900003 3.6766596e-39
-0.031071428 -0.049023822 0.72500002 2.7626221e-39
-0.029608576 -0.048888579 0.72299999 4.7937776e-39
-0.028192382 -0.048820958 0.72200006 6.7241321e-39
-0.026854288 -0.048888579 0.72300005 6.3582404e-39
-0.025477149 -0.048888564 0.72299999 5.8954518e-39
-0.024066679 -0.048820958 0.72200006 5.9833174e-39
-0.02269144 -0.048820958 0.72200006 6.0737306e-39
-0.021050476 -0.048212394 0.71300006 6.5332808e-39
-0.01969238 -0.048212379 0.713 6.9924569e-39
-0.018334286 -0.048212364 0.713 7.5431098e-39
-0.016976181 -0.048212379 0.71300006 8.0026264e-39
-0.015574291 -0.048077151 0.71099997 5.795685e-39
-0.014219997 -0.048077151 0.71100003 3.5866094e-39
-0.012865715 -0.048077151 0.71100003 2.6661021e-39
-0.011495242 -0.048009515 0.71000004 1.6577277e-39
-0.010114282 -0.047874287 0.708 1.8421386e-39
-0.0087657226 -0.047874287 0.708 2.0236586e-39
-0.0074171377 -0.047874302 0.708 1.6545257e-39
-0.0060599972 -0.047806665 0.70700002 1.2028858e-39
-0.0047133383 -0.047806665 0.70700002 4.2331027e-39
-0.0033571469 -0.047671422 0.70500004 7.2762591e-39
-0.0020114235 -0.047603831 0.70400012 9.5858092e-39
-0.00066952076 -0.047536209 0.70300001 1.1873416e-38
0.00066951808 -0.047536194 0.70299995 6.2524102e-39
0.002008568 -0.047536194 0.70299995 5.5645001e-40
0.003347619 -0.047536194 0.70300001 2.1144193e-39
0.004686669 -0.047536194 0.70300001 3.7036935e-39
0.0060257078 -0.047536194 0.70299995 9.5238592e-39
0.0073647578 -0.047536194 0.70300001 1.5282498e-38
0.0087038083 -0.047536194 0.70300001 9.4824186e-39
0.010042849 -0.047536209 0.70299995 3.5949331e-39
0.011381899 -0.047536209 0.70299995 5.9812519e-39
0.012739054 -0.047603816 0.70400012 8.378676e-39
0.014099997 -0.047671437 0.70500004 1.0302575e-38
0.015442858 -0.047671437 0.70500004 1.2159036e-38
0.016833333 -0.047806665 0.70700002 1.3192208e-38
0.018128574 -0.047671437 0.70500004 1.4086083e-38
0.019471429 -0.047671452 0.70500004 7.8985827e-39
0.020814281 -0.047671422 0.70499998 1.7452458e-39
0.022157144 -0.047671437 0.70500004 2.2044233e-39
0.023499999 -0.047671422 0.70500004 2.5750092e-39
0.024842862 -0.047671437 0.70500004 3.4958893e-39
0.026185717 -0.047671437 0.70500004 4.328178e-39
0.027606662 -0.047806665 0.70700002 2.2045129e-39
0.028953332 -0.047806665 0.70700002 9.9466968e-41
0.030342858 -0.047874287 0.70799994 3.8589784e-39
0.031691436 -0.047874287 0.708 7.6418186e-39
0.033179998 -0.048077136 0.71099997 8.5652028e-39
0.034534279 -0.048077151 0.71099997 9.3956628e-39
0.035989519 -0.048212394 0.713 9.7622803e-39
0.037400011 -0.048280001 0.71400005 1.0134638e-38
0.039031431 -0.048618108 0.71900004 9.9549056e-39
0.040457133 -0.04868573 0.71999997 9.7669158e-39
0.041944765 -0.048820958 0.72200006 8.2928703e-39
0.043380003 -0.048888594 0.72300005 6.7280613e-39
0.04488096 -0.049023822 0.72500002 6.7258907e-39
0.046325721 -0.049091429 0.72600001 6.7273369e-39
0.047708586 -0.049091429 0.72600007 6.8202612e-39
0.049091436 -0.049091414 0.72600001 6.8202738e-39
0.050682869 -0.049294308 0.72900003 7.1876284e-39
-0.037150465 -0.048365712 0.73600006 8.1134971e-39
-0.03574856 -0.048365712 0.73600006 6.725162e-39
-0.03425334 -0.048234299 0.73400003 5.2468342e-39
-0.032631435 -0.047905728 0.72900003 3.4036741e-39
-0.031071434 -0.047642887 0.72500002 1.5687662e-39
-0.029608576 -0.047511429 0.72299999 3.8729115e-39
-0.028231442 -0.047511429 0.72300005 6.2653105e-39
-0.02685429 -0.047511429 0.72300005 6.0823682e-39
-0.025441915 -0.047445714 0.72200006 5.9890684e-39
-0.024066677 -0.047445714 0.72200006 6.2602406e-39
-0.022691436 -0.047445729 0.722 6.4374797e-39
-0.021316187 -0.047445744 0.72200006 6.9942576e-39
-0.01994095 -0.047445744 0.72200006 7.4505638e-39
-0.01833429 -0.046854287 0.71300006 8.2828216e-39
-0.016976196 -0.046854302 0.71300006 9.0178405e-39
-0.015618101 -0.046854287 0.713 6.9016542e-39
-0.014220005 -0.046722859 0.71099997 4.7811869e-39
-0.012865722 -0.046722859 0.71099997 2.9426833e-39
-0.011511428 -0.046722859 0.71100003 1.1070622e-39
-0.010114284 -0.046525702 0.708 1.8417574e-39
-0.0087657236 -0.046525702 0.70799994 2.5764596e-39
-0.0074171401 -0.046525717 0.708 2.7590726e-39
-0.0060600094 -0.046460003 0.70700002 2.9423554e-39
-0.0047133355 -0.046460003 0.70700002 5.0617157e-39
-0.0033571417 -0.04632856 0.70500004 7.182246e-39
-0.0020114328 -0.046262875 0.70400006 8.566656e-39
-0.00067047164 -0.046262875 0.70400012 9.9487903e-39
0.00066952273 -0.046197146 0.70299995 5.3365061e-39
0.0020142808 -0.04632856 0.70500004 6.4321001e-40
0.0033523818 -0.04626286 0.70400006 1.9335705e-39
0.0046933428 -0.046262875 0.70400012 3.3205561e-39
0.0060342862 -0.046262875 0.70400006 6.4545671e-39
0.0073647634 -0.046197146 0.70300001 9.5725865e-39
0.0087038158 -0.046197146 0.70300001 6.9017397e-39
0.01005715 -0.046262875 0.70400006 4.2305971e-39
0.011414285 -0.046328574 0.70500004 7.457014e-39
0.012793329 -0.046460003 0.70700002 1.0772471e-38
0.014139995 -0.046460003 0.70700002 1.1510794e-38
0.015486662 -0.046460003 0.70700002 1.235494e-38
0.016857136 -0.046525702 0.70799994 1.410955e-38
0.018180002 -0.046460003 0.70700002 1.5852878e-38
0.019526668 -0.046460003 0.70700002 9.0221425e-39
0.020873336 -0.046460003 0.70700002 2.2044345e-39
0.022220002 -0.046460018 0.70700002 4.5024743e-39
0.023566667 -0.046460018 0.70700002 6.8034133e-39
0.024913335 -0.046460018 0.70700002 8.6595242e-39
0.02626 -0.046460003 0.70700002 1.0504444e-38
0.02760667 -0.046460003 0.70700002 7.9183018e-39
0.02895334 -0.046460018 0.70700002 5.4204495e-39
0.030342855 -0.046525702 0.70799994 6.0654503e-39
0.031825718 -0.046722859 0.71100003 6.7147966e-39
0.033179998 -0.046722859 0.71100003 8.5590792e-39
0.034631431 -0.046854287 0.71300006 1.0401547e-38
0.03598953 -0.046854302 0.71300006 1.0779668e-38
0.037557147 -0.047117144 0.71700001 1.1058025e-38
0.039031442 -0.047248587 0.71900004 1.0138932e-38
0.040457137 -0.047314301 0.72000003 9.2191454e-39
0.041944765 -0.047445729 0.72200006 8.1092287e-39
0.04332 -0.047445714 0.722 7.0025e-39
0.044757143 -0.047511443 0.72300005 6.8184297e-39
0.046261903 -0.047642857 0.72500002 6.7266124e-39
0.047839999 -0.047839984 0.72800004 6.8195423e-39
0.049226668 -0.047839999 0.72799999 6.8209968e-39
0.05061334 -0.047839999 0.72800004 6.9124918e-39
-0.037150472 -0.046963811 0.73600006 9.4892275e-39
-0.035748571 -0.046963811 0.73600006 7.7404014e-39
-0.034346666 -0.046963811 0.73600006 5.983679e-39
-0.03272095 -0.046644777 0.73100001 3.1227768e-39
-0.031071439 -0.046261907 0.72499996 2.8306789e-40
-0.029608577 -0.046134293 0.72299999 3.0467592e-39
-0.028231442 -0.046134278 0.72300005 5.7143102e-39
-0.026928585 -0.046261907 0.72500002 5.9008678e-39
-0.02547715 -0.046134278 0.72299999 6.0816437e-39
-0.024066675 -0.046070486 0.722 6.4468081e-39
-0.022691425 -0.046070501 0.72200006 6.8138026e-39
-0.021316186 -0.046070486 0.72200006 7.3716441e-39
-0.019940963 -0.046070486 0.72200006 7.9201403e-39
-0.018334292 -0.045496196 0.713 9.0279018e-39
-0.016976185 -0.04549621 0.71300006 1.0033416e-38
-0.01561809 -0.045496196 0.71300006 8.0119478e-39
-0.014220002 -0.045368582 0.71099997 5.9818727e-39
-0.01286572 -0.045368567 0.71099997 3.3085918e-39
-0.011495244 -0.04530476 0.71000004 5.5425558e-40
-0.010142857 -0.04530476 0.71000004 1.8410399e-39
-0.0087657254 -0.045177132 0.70799994 3.1274656e-39
-0.007417141 -0.045177147 0.708 3.9539962e-39
-0.0060685808 -0.045177132 0.70799994 4.6908228e-39
-0.0047133337 -0.04511334 0.70700002 5.8893394e-39
-0.0033666738 -0.04511334 0.70700002 6.995345e-39
-0.0020142929 -0.044985697 0.70500004 7.5499803e-39
-0.0006704735 -0.04492192 0.70400006 8.0058942e-39
0.00067048013 -0.044921935 0.70400012 4.4092094e-39
0.0020114318 -0.04492192 0.70400006 7.3649305e-40
0.0033523827 -0.044921935 0.70400006 1.8392239e-39
0.0047000037 -0.044985726 0.70500004 2.8523472e-39
0.0060428646 -0.044985726 0.70500004 3.4005534e-39
0.0073752389 -0.044921935 0.70400006 3.8657943e-39
0.0087285712 -0.044985712 0.70500004 4.321348e-39
0.010071427 -0.044985712 0.70500004 4.7859149e-39
0.011446667 -0.04511334 0.70700002 8.9360999e-39
0.012793342 -0.04511334 0.70700002 1.3073019e-38
0.014140008 -0.04511334 0.70700002 1.2797172e-38
0.015486664 -0.04511334 0.70700002 1.24464e-38
0.016857143 -0.045177132 0.708 1.5037234e-38
0.018179998 -0.04511334 0.70700002 1.750379e-38
0.019526664 -0.04511334 0.70700002 1.0133186e-38
0.020873331 -0.04511334 0.70700002 2.6715237e-39
0.022219997 -0.045113355 0.70700002 6.7972785e-39
0.023566667 -0.04511334 0.70700002 1.0953977e-38
0.024913337 -0.04511334 0.70700002 1.3833588e-38
0.02626 -0.04511334 0.70700002 1.6575346e-38
0.02760667 -0.04511334 0.70700002 1.3728053e-38
0.028994286 -0.045177147 0.708 1.0762035e-38
0.030428577 -0.04530476 0.71000004 8.2670332e-39
0.031825706 -0.045368567 0.71099997 5.7928852e-39
0.033273343 -0.045496196 0.71300006 8.6466309e-39
0.034631427 -0.045496181 0.71300006 1.1420355e-38
0.036140963 -0.045687646 0.71600008 1.1713445e-38
0.037557147 -0.045751438 0.71700001 1.198033e-38
0.039031439 -0.045879051 0.71900004 1.0322973e-38
0.040457133 -0.045942858 0.72000003 8.5719991e-39
0.041944765 -0.046070471 0.722 7.9223348e-39
0.043320008 -0.046070471 0.72200006 7.1858179e-39
0.044757143 -0.046134293 0.72300005 7.0021077e-39
0.046325713 -0.046325713 0.72600001 6.7266138e-39
0.047839992 -0.046453342 0.72799999 6.8177444e-39
0.049226671 -0.046453342 0.72800004 6.8199038e-39
-0.035797153 -0.045623809 0.73699999 7.3705749e-39
-0.034346662 -0.045561925 0.73600006 6.5393639e-39
-0.032765709 -0.045314282 0.73200005 5.1535512e-39
-0.031071432 -0.044880956 0.72500002 3.8624984e-39
-0.029690485 -0.044880956 0.72500002 5.0671471e-39
-0.028309524 -0.044880971 0.72500002 6.2667707e-39
-0.026928578 -0.044880971 0.72500002 6.1749562e-39
-0.025477152 -0.044757143 0.72299999 6.1727828e-39
-0.024066662 -0.044695243 0.72200006 6.3553566e-39
-0.022691425 -0.044695243 0.72200006 6.6315791e-39
-0.021316186 -0.044695243 0.72200006 6.7255656e-39
-0.019858085 -0.04450953 0.71900004 6.7277096e-39
-0.018488569 -0.04450953 0.71900004 7.4580804e-39
-0.017119043 -0.044509545 0.71900004 8.1063098e-39
-0.015618104 -0.044138104 0.713 7.7353805e-39
-0.01426 -0.044138104 0.71300006 7.3658721e-39
-0.012865717 -0.044014305 0.71099997 4.4181525e-39
-0.011511434 -0.044014305 0.71099997 1.4708169e-39
-0.010142866 -0.043952391 0.71000004 2.0232746e-39
-0.0087657161 -0.043828592 0.708 2.4849674e-39
-0.0074171419 -0.043828562 0.70799994 3.0356259e-39
-0.0060685715 -0.043828562 0.708 3.5895213e-39
-0.0047199968 -0.043828562 0.70799994 4.6919186e-39
-0.0033666617 -0.043766692 0.70700002 5.7978962e-39
-0.0020142882 -0.043642849 0.70500004 6.4454138e-39
-0.00067142624 -0.043642864 0.70500004 7.0843106e-39
0.00067142915 -0.043642879 0.70500004 4.4124647e-39
0.002014291 -0.043642864 0.70500004 1.7477737e-39
0.0033571352 -0.043642864 0.70500004 2.2062057e-39
0.0046999981 -0.043642864 0.70500004 2.6657433e-39
0.0060428591 -0.043642879 0.70500004 2.9416099e-39
0.0073857144 -0.043642849 0.70500004 3.2192814e-39
0.008753336 -0.043766677 0.70700002 3.033828e-39
0.010099996 -0.043766677 0.70700002 2.8487613e-39
0.01144667 -0.043766677 0.70700002 8.0152647e-39
0.012793336 -0.043766677 0.70700002 1.3265655e-38
0.014140002 -0.043766677 0.70700002 1.2619561e-38
0.01548667 -0.043766677 0.70700002 1.2075453e-38
0.016857143 -0.043828577 0.708 1.4569807e-38
0.018180002 -0.043766692 0.70700002 1.705253e-38
0.019526668 -0.043766692 0.70700002 1.0131798e-38
0.020873338 -0.043766677 0.70700002 3.2146656e-39
0.022219993 -0.043766677 0.70700002 6.0704796e-39
0.023566663 -0.043766677 0.70700002 9.034429e-39
0.024913333 -0.043766677 0.70700002 1.226061e-38
0.026259998 -0.043766677 0.70700002 1.5561998e-38
0.027645718 -0.043828577 0.708 1.3076315e-38
0.029076196 -0.043952376 0.71000004 1.0582012e-38
0.030471429 -0.04401429 0.71099997 9.4731321e-39
0.031915236 -0.044138104 0.713 8.3596464e-39
0.033273332 -0.044138104 0.713 1.0307942e-38
0.034680009 -0.044200003 0.71400005 1.2164018e-38
0.036191437 -0.044385731 0.71700001 1.207648e-38
0.037557147 -0.044385716 0.71700001 1.1979975e-38
0.039031446 -0.044509515 0.71900004 9.8598611e-39
0.040457141 -0.044571429 0.72000003 7.834095e-39
0.041944772 -0.044695258 0.72200006 7.0021903e-39
0.043320004 -0.044695258 0.72200006 6.2656749e-39
0.04475715 -0.044757143 0.72300005 6.4511017e-39
0.046325728 -0.044942856 0.72600001 6.6351384e-39
0.047905728 -0.045128599 0.72900003 6.8195325e-39
0.0492943 -0.045128599 0.72900003 7.0953949e-39
-0.035797149 -0.044220015 0.73699999 7.0911223e-39
-0.034346655 -0.044160008 0.73600006 6.9974638e-39
-0.032720957 -0.043860018 0.73100001 7.1814655e-39
-0.031071439 -0.043499991 0.72500002 7.3622862e-39
-0.029731423 -0.043560013 0.72600001 7.0921789e-39
-0.028309532 -0.043500006 0.72500002 6.8174109e-39
-0.026928579 -0.043499991 0.72499996 6.5422856e-39
-0.025547633 -0.043499991 0.72500002 6.1727632e-39
-0.024100006 -0.043379992 0.72299999 6.3535377e-39
-0.022722853 -0.043380007 0.72300005 6.4468081e-39
-0.02134572 -0.043380007 0.72300005 5.9879894e-39
-0.019858088 -0.043139994 0.71900004 5.5259406e-39
-0.01848856 -0.043139994 0.71900004 5.8778571e-39
-0.017119044 -0.043139994 0.71900004 6.1687863e-39
-0.015618095 -0.042780012 0.71300006 7.4566314e-39
-0.01426 -0.042780012 0.71300006 8.6547935e-39
-0.012901905 -0.042779997 0.713 5.5277189e-39
-0.011511431 -0.042660013 0.71100003 2.3988604e-39
-0.010142859 -0.042600006 0.71000004 2.1125976e-39
-0.0087904772 -0.042600006 0.71000004 1.8417588e-39
-0.0074381051 -0.042600006 0.71000004 2.1143996e-39
-0.0060685729 -0.042480022 0.708 2.3927802e-39
-0.0047200127 -0.042479992 0.70799994 3.491223e-39
-0.0033714273 -0.042479992 0.708 4.6029347e-39
-0.00202 -0.042420015 0.70700002 5.4412938e-39
-0.00067142065 -0.042300016 0.70500004 6.1698737e-39
0.00067142356 -0.042300016 0.70500004 4.5006862e-39
0.0020142854 -0.042300001 0.70500004 2.76082e-39
0.0033571408 -0.042300016 0.70500004 2.571754e-39
0.0047000027 -0.042300016 0.70500004 2.3938242e-39
0.0060428581 -0.042300016 0.70500004 2.4813549e-39
0.0073857191 -0.042300001 0.70500004 2.5782182e-39
0.0087533295 -0.04242 0.70700002 1.7452486e-39
0.010099996 -0.042420015 0.70700002 9.2810379e-40
0.011462861 -0.042479992 0.70799994 7.1941304e-39
0.01281143 -0.042480007 0.708 1.3353529e-38
0.014159998 -0.042479992 0.708 1.2523745e-38
0.015552381 -0.042600006 0.71000004 1.1707714e-38
0.016857143 -0.042480007 0.708 1.4113102e-38
0.01820571 -0.042479977 0.70799994 1.6490011e-38
0.019526672 -0.04242 0.70700002 1.0126048e-38
0.020873331 -0.04242 0.70700002 3.6838805e-39
0.022251425 -0.042480007 0.708 5.41866e-39
0.023599993 -0.042479992 0.70799994 7.1029857e-39
0.024948567 -0.042479992 0.708 1.0796214e-38
0.026297137 -0.042480022 0.70799994 1.4460275e-38
0.02772381 -0.042600006 0.71000004 1.2433046e-38
0.02911715 -0.042659998 0.71100003 1.0406913e-38
0.030471429 -0.042659998 0.71100003 1.06842e-38
0.03191524 -0.042780012 0.71300006 1.0952557e-38
0.033273336 -0.042780012 0.71300006 1.1969589e-38
0.034777153 -0.042960018 0.71600002 1.2900862e-38
0.03619143 -0.043019995 0.71700001 1.2448865e-38
0.037557151 -0.043019995 0.71700001 1.1886706e-38
0.039031435 -0.043139994 0.71900004 9.4853248e-39
0.040457141 -0.043199986 0.72000003 7.0958069e-39
0.041944765 -0.043320015 0.72200006 6.1702759e-39
0.043380007 -0.043379992 0.72299999 5.2558319e-39
0.044880949 -0.043499991 0.72499996 5.9015166e-39
0.046325725 -0.043560013 0.72600007 6.544019e-39
0.047708578 -0.043560013 0.72600001 6.9131672e-39
-0.032720953 -0.042467639 0.73100007 7.1771607e-39
-0.031114278 -0.042177141 0.72600001 7.4559084e-39
-0.029731421 -0.042177171 0.72600007 7.1807732e-39
-0.028348573 -0.042177141 0.72600001 7.0007106e-39
-0.026928576 -0.042119041 0.72500002 6.8170606e-39
-0.025547627 -0.042119056 0.72500002 6.7237565e-39
-0.024100006 -0.042002857 0.72299999 6.997077e-39
-0.022722855 -0.042002857 0.72300005 7.1814669e-39
-0.02134572 -0.042002857 0.72300005 7.4573335e-39
-0.019885719 -0.041828573 0.72000003 7.7342833e-39
-0.018488578 -0.041770473 0.71900004 8.1880868e-39
-0.017071418 -0.041654289 0.71700001 8.6519208e-39
-0.015618093 -0.04142192 0.713 9.5760085e-39
-0.014260015 -0.04142189 0.713 1.0503696e-38
-0.012901909 -0.04142192 0.71300006 9.1204295e-39
-0.011511428 -0.041305721 0.71100003 7.8307893e-39
-0.010157146 -0.041305736 0.71100003 7.3640799e-39
-0.0087904818 -0.041247621 0.70999998 6.8998843e-39
-0.0074380985 -0.041247636 0.71000004 6.993159e-39
-0.0060857162 -0.041247636 0.71000004 7.0796093e-39
-0.0047333441 -0.041247606 0.71000004 7.5427272e-39
-0.0033714296 -0.041131437 0.708 8.0887151e-39
-0.0020200056 -0.041073337 0.70700002 9.0250025e-39
-0.00067333918 -0.041073337 0.70700002 1.0040211e-38
0.00067332812 -0.041073337 0.70700002 9.1143171e-39
0.002014291 -0.040957138 0.70500004 8.192016e-39
0.0033571455 -0.040957153 0.70500004 8.1916559e-39
0.0047133355 -0.041073337 0.70700002 8.1927321e-39
0.006060001 -0.041073337 0.70700002 8.3789142e-39
0.0074066673 -0.041073337 0.70700002 8.5607916e-39
0.0087657124 -0.041131422 0.70799994 7.7296086e-39
0.010100001 -0.041073337 0.70700002 6.9852963e-39
0.011462857 -0.041131422 0.70799994 1.0408018e-38
0.012811428 -0.041131437 0.708 1.3817714e-38
0.014159996 -0.041131437 0.70799994 1.3353815e-38
0.015508573 -0.041131437 0.708 1.2985841e-38
0.01685714 -0.041131422 0.70799994 1.4653672e-38
0.018205717 -0.041131437 0.708 1.6219501e-38
0.019554287 -0.041131437 0.70799994 1.2433402e-38
0.020902863 -0.041131422 0.708 8.6498062e-39
0.022251425 -0.041131422 0.708 9.4820192e-39
0.023666667 -0.041247621 0.70999998 1.0325452e-38
0.025019046 -0.041247621 0.71000004 1.1976751e-38
0.026371438 -0.041247636 0.71000004 1.3631546e-38
0.027723812 -0.041247636 0.71000004 1.2336125e-38
0.029117141 -0.041305721 0.71099997 1.1141917e-38
0.030557143 -0.04142192 0.71300006 1.1050452e-38
0.03191524 -0.041421905 0.713 1.0960441e-38
0.033320017 -0.041480035 0.71400011 1.1606908e-38
0.034825727 -0.041654304 0.71700001 1.2265198e-38
0.03619143 -0.041654289 0.71700001 1.1801733e-38
0.037557151 -0.041654304 0.71700001 1.1428964e-38
0.039031442 -0.041770473 0.71900004 9.8580282e-39
0.040457144 -0.041828588 0.72000003 8.3836394e-39
0.041944765 -0.041944772 0.72200006 6.9106841e-39
0.043380003 -0.042002857 0.72299999 5.5331209e-39
0.044880956 -0.042119056 0.72499996 5.9922675e-39
0.046325721 -0.042177141 0.72600001 6.4511059e-39
0.047905717 -0.04235144 0.72900003 6.7273481e-39
-0.031114291 -0.040794298 0.72600007 7.5402273e-39
-0.029813336 -0.040906653 0.72800004 7.3583682e-39
-0.028348569 -0.040794283 0.72600007 7.0886238e-39
-0.026965708 -0.040794283 0.72600001 7.1851453e-39
-0.025547622 -0.040738091 0.72500002 7.2744416e-39
-0.024166685 -0.040738091 0.72499996 7.6381682e-39
-0.022785721 -0.040738091 0.72499996 7.9115153e-39
-0.021404775 -0.040738091 0.72500002 8.9249288e-39
-0.019940957 -0.040569529 0.72200006 9.8414999e-39
-0.018488569 -0.040400967 0.71900004 1.0488663e-38
-0.017071418 -0.040288568 0.71700001 1.1038587e-38
-0.015639989 -0.040120006 0.71400005 1.1692185e-38
-0.014260003 -0.040063813 0.71300006 1.2244631e-38
-0.012901909 -0.040063828 0.713 1.2710984e-38
-0.011543814 -0.040063828 0.713 1.3162984e-38
-0.010157153 -0.039951429 0.71099997 1.2613044e-38
-0.0088028591 -0.039951444 0.71100003 1.19641e-38
-0.0074485759 -0.039951444 0.71100003 1.1879083e-38
-0.0060857106 -0.039895236 0.71000004 1.1780429e-38
-0.0047333385 -0.039895236 0.71000004 1.1695407e-38
-0.0033714306 -0.039782852 0.70799994 1.1507073e-38
-0.0020228527 -0.039782867 0.708 1.2713851e-38
-0.00067333359 -0.039726689 0.70700002 1.3905567e-38
0.00067334116 -0.039726689 0.70700002 1.3816609e-38
0.0020199972 -0.03972666 0.70700002 1.3624318e-38
0.0033666636 -0.03972666 0.70700002 1.3809773e-38
0.00471333 -0.039726675 0.70700002 1.3994898e-38
0.0060599982 -0.039726675 0.70700002 1.4280467e-38
0.0074066645 -0.039726675 0.70700002 1.4454077e-38
0.0087657105 -0.039782852 0.70799994 1.3719375e-38
0.010114281 -0.039782852 0.708 1.2978978e-38
0.01146285 -0.039782837 0.70799994 1.3634048e-38
0.012847625 -0.039895236 0.71000004 1.4181802e-38
0.014159994 -0.039782852 0.70799994 1.4271813e-38
0.015552378 -0.039895251 0.71000004 1.4272233e-38
0.01685714 -0.039782852 0.70799994 1.5111729e-38
0.018205717 -0.039782852 0.708 1.5930327e-38
0.019554283 -0.039782837 0.70799994 1.4829347e-38
0.020902863 -0.039782852 0.708 1.3616449e-38
0.022251422 -0.039782852 0.70799994 1.3533919e-38
0.023666665 -0.039895251 0.71000004 1.3434927e-38
0.025019053 -0.039895251 0.71000004 1.3153338e-38
0.026371427 -0.039895236 0.70999998 1.278671e-38
0.027762864 -0.039951444 0.71099997 1.2322146e-38
0.029117148 -0.039951429 0.71099997 1.1774719e-38
0.030557139 -0.040063828 0.713 1.1415626e-38
0.031960011 -0.040120006 0.71400005 1.0957547e-38
0.03332001 -0.040119991 0.71400005 1.1232719e-38
0.034825727 -0.040288582 0.71700001 1.1517932e-38
0.036191434 -0.040288582 0.71700001 1.1247826e-38
0.03766191 -0.040400952 0.71900004 1.0873277e-38
0.039031446 -0.040400952 0.71900004 1.0317569e-38
0.040457141 -0.040457159 0.72000003 9.6718489e-39
0.04200286 -0.040625721 0.72300005 7.739356e-39
0.043380003 -0.040625706 0.72299999 5.7164443e-39
0.044942867 -0.040794298 0.72600007 5.9919326e-39
0.046517149 -0.040962845 0.72900003 6.2685307e-39
0.047905717 -0.040962845 0.72900003 6.5447715e-39
-0.031328585 -0.03968288 0.73100001 7.2586392e-39
-0.029813353 -0.039519995 0.72799999 7.1718483e-39
-0.028348576 -0.039411426 0.72600001 7.1768944e-39
-0.026965713 -0.039411426 0.72600001 7.2762871e-39
-0.025582854 -0.03941144 0.72600001 7.3673827e-39
-0.024166677 -0.039357141 0.72499996 7.6335398e-39
-0.022785716 -0.039357141 0.72500002 7.8096634e-39
-0.021345723 -0.039248571 0.72300005 8.6390387e-39
-0.019885719 -0.039085731 0.72000003 9.3708654e-39
-0.018488562 -0.039031431 0.7190001 9.9254769e-39
-0.017071417 -0.038922861 0.71700001 1.0382484e-38
-0.015639991 -0.038760006 0.71400005 1.0942447e-38
-0.014280001 -0.038760006 0.71400005 1.1499553e-38
-0.012919994 -0.038760006 0.71400005 1.1777205e-38
-0.011543804 -0.038705721 0.71300006 1.2058802e-38
-0.010185708 -0.038705721 0.71300006 1.1501324e-38
-0.0088028666 -0.038597137 0.71099997 1.0954258e-38
-0.0074485843 -0.038597137 0.71099997 1.1042148e-38
-0.0060857139 -0.038542837 0.70999998 1.1140441e-38
-0.004733332 -0.038542867 0.71000004 1.1043224e-38
-0.0033809496 -0.038542867 0.71000004 1.1050763e-38
-0.0020228536 -0.038434297 0.708 1.1875136e-38
-0.0006733308 -0.038380027 0.70700002 1.2714591e-38
0.00067333557 -0.038380012 0.70700002 1.2612013e-38
0.0020200019 -0.038380012 0.70700002 1.2525897e-38
0.0033666692 -0.038380012 0.70700002 1.2793851e-38
0.0047133355 -0.038380012 0.70700002 1.317558e-38
0.0060600028 -0.038380012 0.70700002 1.3165214e-38
0.0074066692 -0.038380027 0.70700002 1.3265266e-38
0.0087657208 -0.038434282 0.708 1.2885692e-38
0.010114281 -0.038434282 0.70799994 1.2618432e-38
0.011495243 -0.038542867 0.71000004 1.2885682e-38
0.012847625 -0.038542867 0.71000004 1.3259117e-38
0.014200004 -0.038542852 0.71000004 1.3249067e-38
0.015552387 -0.038542867 0.71000004 1.3250182e-38
0.016904758 -0.038542852 0.71000004 1.3524293e-38
0.018257149 -0.038542852 0.71000004 1.3795474e-38
0.019609518 -0.038542852 0.70999998 1.3333404e-38
0.02096191 -0.038542852 0.71000004 1.2861312e-38
0.022314291 -0.038542852 0.71000004 1.2869922e-38
0.023699995 -0.038597122 0.71099997 1.2869186e-38
0.025019052 -0.038542852 0.71000004 1.2592226e-38
0.026408579 -0.038597137 0.71100003 1.2407507e-38
0.027762864 -0.038597152 0.71100003 1.2130235e-38
0.029199056 -0.038705721 0.71300006 1.1851485e-38
0.030600011 -0.038760006 0.71400011 1.1225122e-38
0.031960018 -0.038760006 0.71400011 1.0588748e-38
0.033413339 -0.038868591 0.71600002 9.1140144e-39
0.034825727 -0.038922876 0.71700001 7.6518449e-39
0.03619143 -0.038922861 0.71700001 8.018852e-39
0.037661918 -0.039031431 0.71900004 8.4776525e-39
0.039031435 -0.039031431 0.71900004 8.9393215e-39
0.040457144 -0.039085731 0.72000003 9.3995724e-39
0.04200286 -0.039248571 0.72300005 7.6478792e-39
0.043679997 -0.039519981 0.72799999 5.8050639e-39
0.04506667 -0.03952001 0.72800004 5.808284e-39
0.046453331 -0.039519995 0.72799999 5.9022859e-39
0.048037145 -0.03968288 0.73100001 6.2692818e-39
-0.031328566 -0.038290501 0.73100001 6.9831257e-39
-0.029854292 -0.038185731 0.72900003 7.0764185e-39
-0.028426681 -0.038133338 0.72799999 7.1768762e-39
-0.026965711 -0.038028583 0.72600001 7.3749105e-39
-0.025582863 -0.038028568 0.72600001 7.4577693e-39
-0.024166672 -0.037976205 0.72500002 7.6274427e-39
-0.022722861 -0.03787142 0.72299999 7.7171146e-39
-0.021345723 -0.03787142 0.72300005 8.3581596e-39
-0.019940954 -0.037819058 0.72200006 8.9098872e-39
-0.018514298 -0.037714288 0.72000003 9.3683459e-39
-0.017071417 -0.037557155 0.71700001 9.7374829e-39
-0.015639987 -0.037400007 0.71400011 1.0195228e-38
-0.014280004 -0.037400007 0.71400005 1.0660852e-38
-0.012919999 -0.037400007 0.71400005 1.0838773e-38
-0.011543818 -0.037347615 0.713 1.0941002e-38
-0.010185722 -0.03734763 0.713 1.03785e-38
-0.0088276174 -0.03734763 0.71300006 9.8346573e-39
-0.0074485815 -0.037242845 0.71099997 1.0103344e-38
-0.0060942979 -0.03724286 0.71099997 1.0386393e-38
-0.0047400147 -0.03724286 0.71099997 1.0469989e-38
-0.0033809543 -0.037190452 0.70999998 1.0570441e-38
-0.0020285719 -0.037190452 0.71000004 1.1021376e-38
-0.00067429472 -0.037085697 0.70799994 1.1399475e-38
0.00067428272 -0.037085712 0.708 1.1390143e-38
0.0020199963 -0.037033334 0.70700002 1.1397684e-38
0.0033666627 -0.037033334 0.70700002 1.1847541e-38
0.0047199945 -0.037085697 0.70799994 1.2225672e-38
0.0060600056 -0.037033334 0.70700002 1.2122742e-38
0.007406672 -0.037033349 0.70700002 1.1949074e-38
0.0087657189 -0.037085727 0.708 1.2122657e-38
0.01011428 -0.037085727 0.70799994 1.2224184e-38
0.011462858 -0.037085712 0.708 1.2215221e-38
0.012811425 -0.037085712 0.70799994 1.2224182e-38
0.014200001 -0.037190467 0.71000004 1.2214491e-38
0.015552385 -0.037190482 0.71000004 1.2129128e-38
0.016904764 -0.037190482 0.71000004 1.1939015e-38
0.018282857 -0.037242845 0.71100003 1.1668528e-38
0.019637141 -0.03724286 0.71100003 1.1847176e-38
0.020991426 -0.037242875 0.71099997 1.2031917e-38
0.022345714 -0.037242875 0.71099997 1.2122671e-38
0.023699999 -0.037242875 0.71099997 1.2217368e-38
0.025054283 -0.037242875 0.71099997 1.2122655e-38
0.026408574 -0.03724286 0.71099997 1.2033349e-38
0.02784095 -0.03734763 0.71300006 1.1939021e-38
0.029199047 -0.037347645 0.71300006 1.1854708e-38
0.030600008 -0.037400022 0.71400005 1.104432e-38
0.032049522 -0.037504762 0.71600002 1.0213159e-38
0.033413343 -0.037504777 0.71600002 6.9820803e-39
0.034825727 -0.037557155 0.71700001 3.6885525e-39
0.036292393 -0.03766191 0.71900004 4.882051e-39
0.037661918 -0.03766191 0.71900004 5.9915991e-39
0.039031446 -0.037661895 0.71900004 7.5621184e-39
0.040457137 -0.037714288 0.72000003 9.1218995e-39
0.042119049 -0.037976205 0.72500002 7.5549689e-39
0.043679997 -0.038133338 0.72800004 5.9004825e-39
0.045128576 -0.038185745 0.72900009 5.7168003e-39
0.046644766 -0.038290486 0.73100001 5.4420225e-39
0.048037149 -0.038290486 0.73100001 5.9926893e-39
-0.031371433 -0.036948577 0.73200005 7.0756716e-39
-0.029936194 -0.036898121 0.73100001 7.0767702e-39
-0.028543811 -0.036898091 0.73100001 7.1711197e-39
-0.02707714 -0.036797136 0.72899997 7.1829592e-39
-0.025653351 -0.036746651 0.72799999 7.277673e-39
-0.024199996 -0.03664571 0.72600001 7.4477192e-39
-0.022785718 -0.03659524 0.72500002 7.7153265e-39
-0.021404766 -0.036595255 0.72499996 8.3581666e-39
-0.019940952 -0.0364438 0.72200006 9.0006409e-39
-0.018514292 -0.036342859 0.72000003 9.5527133e-39
-0.017071426 -0.036191419 0.71700001 1.0197379e-38
-0.0156838 -0.036140978 0.71600002 1.0754872e-38
-0.014279997 -0.036039993 0.71400005 1.1303358e-38
-0.012919992 -0.036040008 0.71400011 1.1677142e-38
-0.011559995 -0.036040008 0.71400005 1.2049136e-38
-0.01019999 -0.036040008 0.71400005 1.1490936e-38
-0.0088276174 -0.035989538 0.713 1.093274e-38
-0.0074695377 -0.035989523 0.713 1.1398365e-38
-0.0061114328 -0.035989538 0.71300006 1.1852184e-38
-0.0047533377 -0.035989538 0.71300006 1.2041616e-38
-0.0033857147 -0.035888582 0.71099997 1.2126645e-38
-0.0020285728 -0.035838097 0.71000004 1.2408258e-38
-0.00067618996 -0.035838097 0.71000004 1.2767679e-38
0.00067618914 -0.035838082 0.71000004 1.2867734e-38
0.002028571 -0.035838082 0.71000004 1.3041753e-38
0.003380951 -0.035838082 0.71000004 1.3049679e-38
0.0047333338 -0.035838097 0.71000004 1.3133639e-38
0.0060857129 -0.035838112 0.70999998 1.3325218e-38
0.0074380948 -0.035838112 0.71000004 1.3592064e-38
0.0087904772 -0.035838097 0.71000004 1.3415876e-38
0.010142856 -0.035838097 0.71000004 1.3226122e-38
0.01149524 -0.035838097 0.71000004 1.3419853e-38
0.012847619 -0.035838082 0.71000004 1.3687101e-38
0.014200001 -0.035838112 0.71000004 1.2952052e-38
0.015574287 -0.035888582 0.71099997 1.221449e-38
0.016928568 -0.035888568 0.71099997 1.2122646e-38
0.018282851 -0.035888568 0.71099997 1.2030828e-38
0.019637134 -0.035888568 0.71099997 1.2122681e-38
0.02099143 -0.035888568 0.71100003 1.2214505e-38
0.022345714 -0.035888568 0.71100003 1.2214494e-38
0.023699999 -0.035888568 0.71099997 1.2214497e-38
0.025054283 -0.035888568 0.71099997 1.2122664e-38
0.026482858 -0.035989523 0.71300006 1.1939001e-38
0.02784095 -0.035989523 0.713 1.1847892e-38
0.029199056 -0.035989523 0.71300006 1.1757484e-38
0.030557143 -0.035989553 0.71300006 1.1222607e-38
0.032049529 -0.036140978 0.71600002 1.0675571e-38
0.033413339 -0.036140963 0.71600002 9.2026451e-39
0.034825716 -0.036191404 0.71700001 7.8200568e-39
0.036292393 -0.036292389 0.7190001 6.3510139e-39
0.037661918 -0.036292389 0.71900004 4.9724025e-39
0.039085712 -0.036342844 0.71999997 6.6369181e-39
0.040625714 -0.036494285 0.72300005 8.3897126e-39
0.042293336 -0.036746666 0.72800004 7.373093e-39
0.04367999 -0.036746666 0.72799999 6.453645e-39
0.045128584 -0.036797151 0.72900003 6.2685223e-39
0.046644766 -0.036898121 0.73100001 5.9923096e-39
0.048102867 -0.036948577 0.73199999 6.2678273e-39
0.049497154 -0.036948591 0.73200005 6.5418862e-39
-0.031457134 -0.035651445 0.73400003 7.0749514e-39
-0.029977139 -0.035554305 0.73200005 7.1671694e-39
-0.028543808 -0.035505712 0.73100001 7.1747014e-39
-0.027151439 -0.035505727 0.73100001 7.0914741e-39
-0.02565334 -0.035360008 0.72800004 6.9956897e-39
-0.024199996 -0.035262868 0.72600001 7.3537033e-39
-0.022785723 -0.03521429 0.72499996 7.6256196e-39
-0.021404775 -0.03521429 0.72500002 8.3581498e-39
-0.019968577 -0.035117164 0.72300005 9.0006353e-39
-0.018514298 -0.034971431 0.72000003 9.8275107e-39
-0.017119046 -0.034922868 0.71900004 1.0572958e-38
-0.015683811 -0.03477715 0.71600002 1.1230876e-38
-0.014319993 -0.03477715 0.71600002 1.1868334e-38
-0.012956189 -0.034777164 0.71600008 1.2517631e-38
-0.011559988 -0.034680009 0.71400011 1.3154741e-38
-0.010199993 -0.034679994 0.71400005 1.2603014e-38
-0.0088400012 -0.034679994 0.71400005 1.2049477e-38
-0.007479996 -0.034680009 0.71400005 1.2705587e-38
-0.0061114328 -0.034631431 0.71300006 1.3341988e-38
-0.0047533377 -0.034631416 0.713 1.3533563e-38
-0.0033952324 -0.034631431 0.71300006 1.3708988e-38
-0.0020314357 -0.03453429 0.71099997 1.3900917e-38
-0.00067619461 -0.034485698 0.70999998 1.4078476e-38
0.00067618821 -0.034485698 0.71000004 1.4455489e-38
0.0020285775 -0.034485728 0.71000004 1.4719891e-38
0.0033809501 -0.034485713 0.71000004 1.4358663e-38
0.004733332 -0.034485713 0.71000004 1.3982745e-38
0.0060857129 -0.034485713 0.71000004 1.4636029e-38
0.0074380948 -0.034485713 0.71000004 1.5176588e-38
0.0087904744 -0.034485683 0.70999998 1.4722382e-38
0.010157136 -0.034534276 0.71099997 1.4167087e-38
0.01151142 -0.03453429 0.71099997 1.4733906e-38
0.012865714 -0.034534305 0.71100003 1.5171547e-38
0.014220005 -0.03453429 0.71100003 1.3783598e-38
0.015574288 -0.03453429 0.71099997 1.2308493e-38
0.016928572 -0.03453429 0.71099997 1.2398179e-38
0.018334283 -0.034631446 0.713 1.239818e-38
0.019637136 -0.03453429 0.71099997 1.2398182e-38
0.020991419 -0.03453429 0.71099997 1.2306335e-38
0.022345712 -0.03453429 0.71099997 1.2306324e-38
0.023766663 -0.034631446 0.71300006 1.2214491e-38
0.02512476 -0.034631416 0.713 1.2030823e-38
0.026482863 -0.034631431 0.71300006 1.1847155e-38
0.027840953 -0.034631431 0.71300006 1.1755322e-38
0.029240005 -0.034680009 0.71400005 1.1578477e-38
0.030685727 -0.03477715 0.71600008 1.1412753e-38
0.032094296 -0.034825727 0.71700001 1.1142659e-38
0.033460006 -0.034825727 0.71700001 1.151613e-38
0.034922875 -0.034922853 0.7190001 1.1873755e-38
0.036342863 -0.034971446 0.72000003 7.9133174e-39
0.037714288 -0.034971446 0.72000003 3.8732702e-39
0.039194286 -0.035068572 0.722 5.7149996e-39
0.040738098 -0.03521429 0.72500002 7.5556654e-39
0.042293336 -0.035359994 0.72800004 7.2780177e-39
0.043740012 -0.035408586 0.72900003 7.0032189e-39
0.045252386 -0.035505712 0.73100001 6.8195381e-39
0.046708569 -0.035554275 0.73199999 6.5440428e-39
0.048102867 -0.03555429 0.73200005 6.6362482e-39
-0.031542845 -0.03434667 0.73600006 7.1667841e-39
-0.02997715 -0.034159988 0.73199999 7.1700365e-39
-0.028582854 -0.034160018 0.73200005 7.0853714e-39
-0.027151434 -0.034113348 0.73100001 6.9052835e-39
-0.025688564 -0.034020007 0.72900003 6.7187301e-39
-0.024199992 -0.03388001 0.72600007 7.1721552e-39
-0.022785716 -0.033833325 0.72500002 7.6255972e-39
-0.021404769 -0.033833325 0.72500002 8.2666548e-39
-0.019968579 -0.033739984 0.72300005 9.0002724e-39
-0.018514279 -0.033600017 0.72000003 9.7392696e-39
-0.017119037 -0.033553347 0.7190001 1.0393579e-38
-0.015683807 -0.033413336 0.71600002 1.1133983e-38
-0.014319989 -0.033413351 0.71600002 1.1778265e-38
-0.012956185 -0.033413365 0.71600008 1.2146322e-38
-0.011559992 -0.03332001 0.71400005 1.2601569e-38
-0.010199986 -0.033320025 0.71400005 1.2049136e-38
-0.0088399937 -0.03332001 0.71400011 1.1497033e-38
-0.0074799992 -0.033319995 0.71400005 1.2239954e-38
-0.0061114216 -0.033273339 0.71300006 1.2889258e-38
-0.0047533265 -0.033273339 0.71300006 1.2978222e-38
-0.0033952463 -0.033273324 0.71300006 1.3162615e-38
-0.0020314339 -0.033179983 0.71099997 1.3254453e-38
-0.00067619554 -0.033133328 0.71000004 1.3444226e-38
0.00067714095 -0.033179983 0.71099997 1.3623236e-38
0.0020314236 -0.033179983 0.71099997 1.3808698e-38
0.0033857063 -0.033179998 0.71099997 1.3615338e-38
0.0047400002 -0.033180013 0.71100003 1.3343469e-38
0.0060857101 -0.033133328 0.71000004 1.3707632e-38
0.0074380995 -0.033133343 0.71000004 1.4174651e-38
0.0087904716 -0.033133328 0.71000004 1.3797573e-38
0.01015714 -0.033179998 0.71099997 1.3435283e-38
0.011511424 -0.033179998 0.71099997 1.3706155e-38
0.012865707 -0.033179998 0.71099997 1.4073836e-38
0.014219997 -0.033179998 0.71099997 1.323223e-38
0.015574291 -0.033180013 0.71100003 1.2398191e-38
0.016928576 -0.033180013 0.71100003 1.2398205e-38
0.018282857 -0.033180013 0.71099997 1.2490025e-38
0.01963714 -0.033179998 0.71099997 1.2398175e-38
0.020991422 -0.033179998 0.71099997 1.2398163e-38
0.022408575 -0.033273339 0.713 1.2398152e-38
0.023766678 -0.033273339 0.71300006 1.2306319e-38
0.025124766 -0.033273339 0.71300006 1.2122651e-38
0.02648286 -0.033273354 0.71300006 1.1847142e-38
0.027880004 -0.03332001 0.71400005 1.1939333e-38
0.029240003 -0.03332001 0.71400005 1.2031557e-38
0.03068573 -0.033413351 0.71600008 1.2149967e-38
0.032094285 -0.033460006 0.71700001 1.2251879e-38
0.033553343 -0.033553332 0.7190001 1.2069674e-38
0.034922868 -0.033553332 0.71900004 1.1888843e-38
0.036342856 -0.033600003 0.71999997 8.8417407e-39
0.037714284 -0.033600003 0.71999997 5.8004045e-39
0.039248571 -0.033739999 0.72299999 6.6315833e-39
0.040738095 -0.03383334 0.72499996 7.4616831e-39
0.042293329 -0.033973321 0.72799999 7.0946928e-39
0.043740008 -0.034020007 0.72900003 6.8184661e-39
0.0454381 -0.034253344 0.73400003 6.7269865e-39
0.046963822 -0.034346685 0.73600006 6.5436855e-39
0.048365731 -0.0343467 0.73600006 6.6362496e-39
-0.033079054 -0.033079028 0.73899996 7.3522347e-39
-0.031585716 -0.032989517 0.73700005 7.2593384e-39
-0.030140951 -0.032944754 0.73600006 7.1682372e-39
-0.028660957 -0.032855228 0.73400003 6.9924723e-39
-0.027188571 -0.032765716 0.73199999 6.7248734e-39
-0.02568857 -0.032631457 0.72900003 6.3550006e-39
-0.02426667 -0.032586649 0.72800004 6.9899374e-39
-0.022817142 -0.032497153 0.72600007 7.5352078e-39
-0.021434277 -0.032497153 0.72600001 8.2663017e-39
-0.01996858 -0.032362878 0.72300005 9.0006325e-39
-0.018565726 -0.0323181 0.72200006 9.6438439e-39
-0.017119039 -0.032183811 0.71900004 1.0205273e-38
-0.015683802 -0.032049537 0.71600002 1.0948938e-38
-0.014319999 -0.032049522 0.71600002 1.1689375e-38
-0.012956182 -0.032049537 0.71600008 1.1871627e-38
-0.011559996 -0.031959996 0.71400005 1.1959872e-38
-0.010199989 -0.031959996 0.71400005 1.1494952e-38
-0.0088399984 -0.031960011 0.71400005 1.0946799e-38
-0.0074799922 -0.031960011 0.71400011 1.1683985e-38
-0.0061114365 -0.031915247 0.71300006 1.2424054e-38
-0.0047533414 -0.031915247 0.713 1.2510512e-38
-0.0033952463 -0.031915233 0.713 1.2513374e-38
-0.0020314311 -0.031825736 0.71100003 1.2601615e-38
-0.00067714736 -0.031825736 0.71100003 1.2699905e-38
0.00067714375 -0.031825721 0.71099997 1.2784922e-38
0.0020314255 -0.031825706 0.71099997 1.2870653e-38
0.0033857091 -0.031825706 0.71099997 1.2766258e-38
0.0047399928 -0.031825706 0.71099997 1.2681242e-38
0.0060942755 -0.031825706 0.71099997 1.2859177e-38
0.0074485759 -0.031825721 0.71100003 1.3049651e-38
0.0088028582 -0.031825721 0.71100003 1.2857715e-38
0.010157142 -0.031825721 0.71099997 1.2680519e-38
0.011511427 -0.031825721 0.71099997 1.2765557e-38
0.01286571 -0.031825691 0.71099997 1.2863111e-38
0.014220001 -0.031825691 0.71099997 1.267368e-38
0.015574285 -0.031825691 0.71099997 1.2398177e-38
0.016928568 -0.031825706 0.71099997 1.2490018e-38
0.018334286 -0.031915247 0.71300006 1.2490009e-38
0.019692384 -0.031915233 0.713 1.249e-38
0.021050479 -0.031915233 0.71300006 1.2489995e-38
0.022408577 -0.031915247 0.71300006 1.2489988e-38
0.02376667 -0.031915233 0.71300006 1.2398168e-38
0.025124758 -0.031915247 0.713 1.2122676e-38
0.02648285 -0.031915247 0.713 1.1847155e-38
0.027880011 -0.031960011 0.71400005 1.2214481e-38
0.029240008 -0.031960011 0.71400011 1.2504013e-38
0.030728582 -0.0320943 0.71700001 1.2994796e-38
0.032094285 -0.03209427 0.71700001 1.3358554e-38
0.03355334 -0.032183811 0.71900004 1.2621006e-38
0.034922868 -0.032183811 0.71900004 1.1789823e-38
0.036443815 -0.0323181 0.72200006 9.7637026e-39
0.037819054 -0.0323181 0.72200006 7.7364974e-39
0.039248567 -0.032362863 0.72299999 7.5485132e-39
0.040794291 -0.032497138 0.72600001 7.27658e-39
0.042351436 -0.032631442 0.72900003 7.003572e-39
0.043740008 -0.032631442 0.72900003 6.6351552e-39
0.045314297 -0.032765701 0.73199999 6.6344392e-39
0.046708573 -0.032765716 0.73200005 6.5433155e-39
-0.03312381 -0.03171429 0.73999995 7.4447961e-39
-0.031585731 -0.031585708 0.73700005 7.2586223e-39
-0.030181911 -0.031585693 0.73699999 7.1696651e-39
-0.028739043 -0.031542867 0.73600006 6.9917675e-39
-0.027188569 -0.031371415 0.73200005 6.9089339e-39
-0.025759056 -0.031328589 0.73100001 6.8231703e-39
-0.024300002 -0.031242862 0.72900003 7.1761363e-39
-0.022879999 -0.031200007 0.72800004 7.5341429e-39
-0.021434275 -0.03111428 0.72600007 8.2670248e-39
-0.020023819 -0.031071424 0.72500002 9.0002752e-39
-0.018591441 -0.030985713 0.72299999 9.7371116e-39
-0.017142853 -0.030857161 0.72000003 1.0476863e-38
-0.015749529 -0.03081429 0.71900004 1.1227016e-38
-0.014319995 -0.030685723 0.71600002 1.1974286e-38
-0.012956177 -0.030685723 0.71600008 1.2058978e-38
-0.011592374 -0.030685708 0.71600008 1.2147206e-38
-0.010228556 -0.030685723 0.71600008 1.1868091e-38
-0.0088400012 -0.030599996 0.71400005 1.1590786e-38
-0.0074799964 -0.030600011 0.71400005 1.2054978e-38
-0.0061199898 -0.030600011 0.71400005 1.2520264e-38
-0.0047599832 -0.030600011 0.71400011 1.2607087e-38
-0.0034000026 -0.030599996 0.71400005 1.2788229e-38
-0.0020314385 -0.030471429 0.71099997 1.2882557e-38
-0.00067714456 -0.030471444 0.71100003 1.297833e-38
0.00067905203 -0.030557141 0.71300006 1.2874288e-38
0.0020314283 -0.030471444 0.71099997 1.2857422e-38
0.0033857119 -0.030471429 0.71099997 1.2582985e-38
0.0047399956 -0.030471444 0.71099997 1.2398913e-38
0.0060942783 -0.030471429 0.71099997 1.2490705e-38
0.007448562 -0.030471429 0.71099997 1.2673682e-38
0.0088028517 -0.030471429 0.71099997 1.2765542e-38
0.010157146 -0.030471444 0.71100003 1.2857384e-38
0.011511428 -0.030471444 0.71100003 1.295066e-38
0.012865712 -0.030471444 0.71099997 1.3041038e-38
0.014220003 -0.030471444 0.71099997 1.295205e-38
0.015574287 -0.030471429 0.71099997 1.2857341e-38
0.016928568 -0.030471429 0.71099997 1.276586e-38
0.018334288 -0.030557156 0.71300006 1.2673664e-38
0.019692384 -0.030557156 0.71300006 1.2768008e-38
0.021050479 -0.030557156 0.71300006 1.2949166e-38
0.022408567 -0.030557126 0.713 1.2955981e-38
0.023800015 -0.030599996 0.71400005 1.2857358e-38
0.025160013 -0.030600011 0.71400011 1.2492912e-38
0.026520006 -0.030599996 0.71400005 1.2122674e-38
0.027880004 -0.030599996 0.71400005 1.2216634e-38
0.029321913 -0.030685723 0.71600008 1.2315327e-38
0.030728582 -0.030728579 0.71700001 1.2432316e-38
0.032183815 -0.03081429 0.71900004 1.253561e-38
0.033600003 -0.030857131 0.72000003 1.1787632e-38
0.034971431 -0.030857161 0.72000003 1.104939e-38
0.036443807 -0.030942857 0.72200006 9.9481093e-39
0.037871424 -0.030985713 0.72300005 8.8435596e-39
0.039357137 -0.031071439 0.72500002 7.7357799e-39
0.040794294 -0.031114295 0.72600007 6.6337343e-39
0.042293333 -0.031199992 0.72800004 6.2670902e-39
0.043740001 -0.031242862 0.72899997 5.9923068e-39
0.045438107 -0.031457141 0.73400003 6.1756246e-39
0.046836197 -0.031457156 0.73400003 6.4500339e-39
-0.03321334 -0.030386671 0.74200004 7.4451674e-39
-0.031671423 -0.030263811 0.73900002 7.2597084e-39
-0.030181924 -0.030181915 0.73699999 7.1678799e-39
-0.028739026 -0.030140951 0.73600006 6.9917549e-39
-0.027262859 -0.030059054 0.73400003 7.0954411e-39
-0.025759052 -0.029936209 0.73100001 7.184397e-39
-0.024300005 -0.029854298 0.72900003 7.3569374e-39
-0.022911433 -0.029854298 0.72900003 7.5352176e-39
-0.021434285 -0.029731438 0.72600001 8.2666632e-39
-0.020023813 -0.029690504 0.72500002 9.0006325e-39
-0.018591445 -0.029608563 0.72299999 9.9186316e-39
-0.017142858 -0.029485717 0.72000003 1.0758113e-38
-0.01570572 -0.029362857 0.71700001 1.1508272e-38
-0.014339989 -0.029362857 0.71700001 1.2152933e-38
-0.012974286 -0.029362857 0.71700001 1.2242636e-38
-0.01159237 -0.029321924 0.71600008 1.2332662e-38
-0.010228566 -0.029321939 0.71600008 1.2330496e-38
-0.0088647474 -0.029321924 0.71600008 1.2239005e-38
-0.0075009563 -0.029321924 0.71600002 1.2424456e-38
-0.006119993 -0.029240012 0.71400005 1.2608142e-38
-0.0047599874 -0.029240012 0.71400005 1.2792906e-38
-0.0033999956 -0.029240012 0.71400011 1.2975849e-38
-0.0020371382 -0.029199064 0.71300006 1.3069468e-38
-0.00067905005 -0.029199064 0.71300006 1.3158791e-38
0.00067904458 -0.029199064 0.71300006 1.3060497e-38
0.0020314311 -0.029117152 0.71100003 1.2867846e-38
0.0033857147 -0.029117152 0.71100003 1.2493317e-38
0.0047399974 -0.029117152 0.71099997 1.2037707e-38
0.006094282 -0.029117137 0.71099997 1.2122707e-38
0.0074485657 -0.029117137 0.71099997 1.222027e-38
0.0088028554 -0.029117137 0.71099997 1.258186e-38
0.010157138 -0.029117152 0.71099997 1.2953882e-38
0.011511422 -0.029117137 0.71099997 1.3047171e-38
0.012865716 -0.029117152 0.71100003 1.3141156e-38
0.014220007 -0.029117152 0.71100003 1.3236218e-38
0.015574289 -0.029117152 0.71099997 1.3235498e-38
0.016928572 -0.029117137 0.71099997 1.3042138e-38
0.018334283 -0.029199034 0.71300006 1.2773092e-38
0.01969238 -0.029199049 0.713 1.3142589e-38
0.021050474 -0.029199049 0.713 1.3425633e-38
0.022408579 -0.029199064 0.71300006 1.3435323e-38
0.023800012 -0.029240012 0.71400005 1.333488e-38
0.025160011 -0.029240012 0.71400005 1.2868889e-38
0.026520018 -0.029240012 0.71400011 1.2310679e-38
0.027880006 -0.029239997 0.71400005 1.2214515e-38
0.029362861 -0.029362857 0.71700001 1.2045217e-38
0.030728582 -0.029362842 0.71700001 1.1883451e-38
0.032183815 -0.029444754 0.71900004 1.1602198e-38
0.03360001 -0.029485717 0.72000003 1.0944634e-38
0.035068579 -0.029567629 0.72200006 1.022038e-38
0.036443807 -0.029567614 0.72200006 1.004355e-38
0.037871435 -0.029608563 0.72300005 9.8544717e-39
0.039357137 -0.029690474 0.72500002 7.9169299e-39
0.040794283 -0.029731423 0.72600001 5.99016e-39
0.042351436 -0.029854298 0.72900003 5.622441e-39
0.043740012 -0.029854283 0.72900003 5.2572641e-39
0.045438107 -0.030059054 0.73400003 5.8093672e-39
0.046836197 -0.030059069 0.73399997 6.3596459e-39
0.048234288 -0.030059054 0.73400003 6.3610641e-39
-0.033123821 -0.028895244 0.73999995 7.5366568e-39
-0.031585727 -0.028778076 0.73700005 7.2582846e-39
-0.030181911 -0.028778106 0.73700005 7.1678869e-39
-0.028739035 -0.02873905 0.73600006 7.079273e-39
-0.027262861 -0.028660953 0.73400003 7.1829382e-39
-0.025794286 -0.028582856 0.73199999 7.2787268e-39
-0.024366667 -0.028543815 0.73100001 7.4509239e-39
-0.022911428 -0.028465733 0.72900003 7.6259741e-39
-0.021434281 -0.028348565 0.72600001 8.3588532e-39
-0.020051433 -0.028348565 0.72600001 9.0921079e-39
-0.018591434 -0.028231442 0.72300005 9.9225776e-39
-0.017190471 -0.028192401 0.72200006 1.0853183e-38
-0.015749512 -0.028075233 0.7190001 1.1412498e-38
-0.014339989 -0.027997151 0.71700001 1.2059301e-38
-0.012974285 -0.027997136 0.71700001 1.2243339e-38
-0.01160857 -0.027997151 0.71700001 1.251812e-38
-0.010242851 -0.027997151 0.71700001 1.2425199e-38
-0.0088771479 -0.027997151 0.71700001 1.233406e-38
-0.0075009512 -0.027958095 0.71600002 1.2422285e-38
-0.006137148 -0.027958095 0.71600002 1.2603469e-38
-0.0047599911 -0.027880028 0.71400005 1.2792543e-38
-0.0033999984 -0.027880028 0.71400005 1.3068765e-38
-0.0020371457 -0.027840942 0.71300006 1.315952e-38
-0.00067905098 -0.027840957 0.713 1.3343556e-38
0.00067904737 -0.027840957 0.71300006 1.3431812e-38
0.0020314236 -0.02776286 0.71099997 1.3519684e-38
0.0033857063 -0.02776286 0.71099997 1.3612936e-38
0.0047400002 -0.02776286 0.71100003 1.370657e-38
0.0060942839 -0.027762875 0.71100003 1.3428555e-38
0.0074485675 -0.027762875 0.71099997 1.3247705e-38
0.0088028563 -0.02776286 0.71099997 1.3331599e-38
