# .PCD v0.7 - Point Cloud Data file format
VERSION 0.7
FIELDS x y z rgb
SIZE 4 4 4 4
TYPE F F F F
COUNT 1 1 1 1
WIDTH 967
HEIGHT 1
VIEWPOINT 0 0 0 1 0 0 0
POINTS 967
DATA ascii
-0.018822864 -0.088537157 0.73199999 1.1296126e-38
-0.017404763 -0.088416204 0.73099995 1.1571655e-38
-0.01596857 -0.088174298 0.72900003 1.1847185e-38
-0.01452 -0.087811425 0.72599995 1.2122685e-38
-0.013119047 -0.087690488 0.72499996 1.249002e-38
-0.011738102 -0.087690473 0.72499996 1.2765533e-38
-0.010328564 -0.087448612 0.72300005 1.2949211e-38
-0.0089390567 -0.087327629 0.722 1.3132881e-38
-0.0075428556 -0.087085724 0.72000003 1.3592056e-38
-0.0061628586 -0.086964786 0.71899998 1.3959403e-38
-0.0047933352 -0.086964801 0.71899998 1.3959409e-38
-0.0034238126 -0.086964786 0.71899998 1.395942e-38
-0.0020485686 -0.086722866 0.71699995 1.4234936e-38
-0.00068191689 -0.086601913 0.71599996 1.4422211e-38
0.00068000081 -0.086360022 0.71399999 1.4602313e-38
0.002037138 -0.086239055 0.713 1.4694147e-38
0.0033952335 -0.08623907 0.713 1.5061489e-38
0.004740004 -0.085997149 0.71100003 1.5428841e-38
0.0060942839 -0.085997149 0.71099997 1.607206e-38
0.0074485741 -0.085997164 0.71100003 1.6724241e-38
0.0087904716 -0.085876212 0.70999998 1.7372477e-38
0.010142857 -0.085876212 0.70999998 1.7925645e-38
0.011495237 -0.085876197 0.70999998 1.8208688e-38
0.012847615 -0.085876212 0.70999998 1.838842e-38
0.014200006 -0.085876212 0.71000004 1.8574611e-38
0.015552384 -0.085876226 0.71000004 1.8664647e-38
0.016904771 -0.085876212 0.71000004 1.9129558e-38
0.01825715 -0.085876226 0.71000004 1.9494015e-38
0.01960953 -0.085876212 0.71000004 1.968377e-38
0.020961918 -0.085876226 0.71000004 1.9861335e-38
0.022314295 -0.085876212 0.71000004 1.9958901e-38
0.023666676 -0.085876241 0.71000004 1.9948841e-38
0.025019052 -0.085876212 0.71000004 1.9767307e-38
0.026371431 -0.085876226 0.71000004 1.9481035e-38
0.027723812 -0.085876226 0.71000004 1.9106515e-38
0.029117145 -0.085997149 0.71099997 1.8648047e-38
0.030471435 -0.085997149 0.71100003 1.8832068e-38
0.031825714 -0.085997149 0.71099997 1.8923193e-38
0.033273321 -0.08623907 0.713 1.8831365e-38
0.034631424 -0.08623907 0.713 1.8739183e-38
0.035989527 -0.08623907 0.713 1.8739197e-38
0.037347618 -0.086239055 0.713 1.8649139e-38
0.038760006 -0.086360022 0.71400005 1.8555851e-38
0.040120002 -0.086360022 0.71400005 1.8373992e-38
0.041654281 -0.086722866 0.71699995 1.8189265e-38
0.043019999 -0.086722896 0.71699995 1.7915546e-38
0.044509523 -0.086964801 0.71899998 1.8282883e-38
0.045879044 -0.086964786 0.71899998 1.8559472e-38
0.047248576 -0.086964786 0.71900004 1.8558046e-38
0.048618097 -0.086964786 0.71900004 1.8561612e-38
0.050057143 -0.087085739 0.72000003 1.8012372e-38
0.058179058 -0.089020982 0.73600006 7.3684001e-39
0.059419058 -0.088779077 0.73400003 7.4627299e-39
0.060982857 -0.089020982 0.736 7.5560171e-39
-0.026040953 -0.087976217 0.73900002 9.0024206e-39
-0.024566678 -0.087738097 0.73699999 9.5527287e-39
-0.023131434 -0.087619066 0.736 1.0102663e-38
-0.021670477 -0.087380975 0.73399997 1.047e-38
-0.02021716 -0.087142855 0.73199999 1.0928802e-38
-0.018822867 -0.08714287 0.73199999 1.1296126e-38
-0.017404776 -0.087023824 0.73099995 1.1663484e-38
-0.015968569 -0.086785719 0.72900003 1.1939005e-38
-0.014520003 -0.086428583 0.72599995 1.2214512e-38
-0.013119045 -0.086309522 0.72499996 1.2490018e-38
-0.011705718 -0.086071461 0.72300005 1.2765529e-38
-0.010314295 -0.085952416 0.722 1.2949203e-38
-0.0089390604 -0.085952371 0.722 1.3224712e-38
-0.007542857 -0.085714296 0.71999997 1.3500222e-38
-0.00616286 -0.08559528 0.71900004 1.3867569e-38
-0.0047933324 -0.085595265 0.71899998 1.3959409e-38
-0.0034238102 -0.085595265 0.71899998 1.4051246e-38
-0.0020485737 -0.085357159 0.71699995 1.4234918e-38
-0.00067999464 -0.085000023 0.71400005 1.4510426e-38
0.00068000081 -0.085000038 0.71400005 1.4694097e-38
0.0020371343 -0.084880963 0.713 1.4877774e-38
0.0033952373 -0.084880993 0.713 1.5061449e-38
0.0047399993 -0.084642857 0.71100003 1.5336958e-38
0.0060942792 -0.084642857 0.71099997 1.5612467e-38
0.0074485694 -0.084642857 0.71099997 1.5887986e-38
0.0088028591 -0.084642872 0.71100003 1.6167452e-38
0.010157138 -0.084642872 0.71099997 1.6530843e-38
0.011495238 -0.084523827 0.71000004 1.6720609e-38
0.012847626 -0.084523842 0.71000004 1.6898199e-38
0.014200004 -0.084523827 0.71000004 1.699651e-38
0.015552384 -0.084523827 0.71000004 1.7084758e-38
0.016904764 -0.084523842 0.71000004 1.7273092e-38
0.018257141 -0.084523827 0.71000004 1.7449595e-38
0.01960953 -0.084523812 0.71000004 1.7548971e-38
0.020961907 -0.084523812 0.71000004 1.7541792e-38
0.022314284 -0.084523827 0.70999998 1.7641155e-38
0.023666663 -0.084523827 0.70999998 1.7726878e-38
0.02501905 -0.084523812 0.71000004 1.7639332e-38
0.026371431 -0.084523827 0.70999998 1.7541733e-38
0.02776286 -0.084642872 0.71100003 1.7358756e-38
0.029117139 -0.084642872 0.71099997 1.7173641e-38
0.030471429 -0.084642872 0.71099997 1.7266903e-38
0.03182571 -0.084642857 0.71099997 1.7358026e-38
0.033273324 -0.084880948 0.713 1.7175076e-38
0.034631427 -0.084880963 0.713 1.7081816e-38
0.03598953 -0.084880963 0.713 1.6991066e-38
0.037400015 -0.085000038 0.71400005 1.6989979e-38
0.03876001 -0.085000023 0.71400005 1.6899926e-38
0.040232383 -0.085238114 0.71600002 1.6899937e-38
0.041654292 -0.085357174 0.71699995 1.6716634e-38
0.043020003 -0.085357159 0.71700001 1.6531887e-38
0.044509523 -0.085595265 0.71899998 1.653368e-38
0.045879047 -0.08559528 0.71899998 1.662587e-38
0.047248568 -0.085595265 0.71900004 1.6350718e-38
0.048618093 -0.08559528 0.71900004 1.61681e-38
0.050057147 -0.08571431 0.71999997 1.5710334e-38
0.051428571 -0.085714296 0.71999997 1.516113e-38
0.057783809 -0.08702381 0.73099995 7.1847333e-39
0.059419055 -0.087380975 0.73400003 7.2794218e-39
0.060817152 -0.087380975 0.73400003 7.3734279e-39
0.06221525 -0.087380975 0.73400003 7.2816092e-39
-0.027448568 -0.086568579 0.73899996 8.2684415e-39
-0.026040945 -0.086568579 0.73899996 9.0020604e-39
-0.024566678 -0.086334288 0.73699999 9.5520098e-39
-0.023162868 -0.086334288 0.73699999 1.0010829e-38
-0.021729521 -0.086217165 0.736 1.0470006e-38
-0.020272383 -0.085982874 0.73399997 1.0836977e-38
-0.018822871 -0.085748568 0.73199999 1.1296143e-38
-0.017404767 -0.085631445 0.73099995 1.1663486e-38
-0.015968576 -0.085397169 0.72899997 1.1938994e-38
-0.014520003 -0.085045725 0.72599995 1.2214501e-38
-0.013119058 -0.084928587 0.72499996 1.2490007e-38
-0.011705724 -0.084694311 0.72299999 1.267368e-38
-0.010328577 -0.084694311 0.72299999 1.3041024e-38
-0.008939052 -0.084577173 0.722 1.3316537e-38
-0.0075428579 -0.084342882 0.72000003 1.3500215e-38
-0.0061628572 -0.084225759 0.71900004 1.3683893e-38
-0.0047933343 -0.084225759 0.71900004 1.3867572e-38
-0.003423807 -0.084225744 0.71899998 1.405124e-38
-0.0020485793 -0.083991438 0.71699995 1.4326744e-38
-0.00067999464 -0.083640039 0.71400005 1.4510415e-38
0.00068000826 -0.083640024 0.71400005 1.4785921e-38
0.002037138 -0.083522871 0.713 1.5061429e-38
0.0033952401 -0.083522871 0.713 1.5153265e-38
0.004740003 -0.083288595 0.71099997 1.5153273e-38
0.0060942932 -0.08328858 0.71100003 1.5153283e-38
0.0074380948 -0.083171457 0.71000004 1.5061459e-38
0.00879048 -0.083171442 0.71000004 1.5061471e-38
0.010142858 -0.083171442 0.71000004 1.5061468e-38
0.011495238 -0.083171442 0.71000004 1.5245135e-38
0.012847616 -0.083171457 0.71000004 1.542881e-38
0.014199996 -0.083171427 0.70999998 1.5428813e-38
0.015552382 -0.083171457 0.70999998 1.5429524e-38
0.016904762 -0.083171442 0.70999998 1.5428801e-38
0.018257141 -0.083171442 0.70999998 1.5428808e-38
0.01960952 -0.083171442 0.70999998 1.5336979e-38
0.020961907 -0.083171457 0.70999998 1.52455e-38
0.022314286 -0.083171442 0.70999998 1.5336973e-38
0.023666665 -0.083171457 0.70999998 1.5429514e-38
0.025019053 -0.083171457 0.71000004 1.5520621e-38
0.026408572 -0.08328858 0.71099997 1.5612811e-38
0.02776286 -0.083288595 0.71099997 1.5704282e-38
0.029117145 -0.08328858 0.71099997 1.570428e-38
0.030471433 -0.083288595 0.71099997 1.570428e-38
0.031915236 -0.083522871 0.71300006 1.5704636e-38
0.033273328 -0.083522886 0.713 1.5612441e-38
0.034631431 -0.083522871 0.713 1.5428774e-38
0.035989527 -0.083522901 0.713 1.5336941e-38
0.037400004 -0.083640009 0.71399999 1.5245102e-38
0.038760006 -0.083640039 0.71400005 1.5336934e-38
0.040232375 -0.0838743 0.71599996 1.5429137e-38
0.041654289 -0.083991438 0.71699995 1.5336951e-38
0.043019999 -0.083991438 0.71699995 1.515364e-38
0.044385709 -0.083991453 0.71700001 1.4877776e-38
0.045751426 -0.083991453 0.71700001 1.4602983e-38
0.047248572 -0.084225744 0.71899998 1.4234919e-38
0.048618097 -0.084225744 0.71899998 1.377753e-38
0.050057147 -0.084342867 0.72000003 1.3408389e-38
0.051428568 -0.084342852 0.71999997 1.2951365e-38
0.053020004 -0.084694326 0.72300005 1.1479848e-38
0.054547619 -0.084928587 0.72499996 9.9251028e-39
0.05616001 -0.085280016 0.72800004 8.4636283e-39
0.057625711 -0.085397154 0.72899997 7.0006966e-39
0.059176192 -0.085631445 0.73099995 7.0964585e-39
0.060651429 -0.085748598 0.73199999 7.1886695e-39
0.062045708 -0.085748568 0.73199999 7.1901227e-39
-0.027448565 -0.085160971 0.73900002 8.1758871e-39
-0.026146667 -0.085506693 0.74200004 8.9095061e-39
-0.024633329 -0.085160956 0.73899996 9.4601715e-39
-0.02316287 -0.08493048 0.73699999 1.001083e-38
-0.021729533 -0.084815234 0.736 1.0378175e-38
-0.020272378 -0.084584773 0.73399997 1.0745152e-38
-0.018822864 -0.084354296 0.73199999 1.1204324e-38
-0.017404767 -0.084239036 0.73099995 1.1571654e-38
-0.015968574 -0.084008589 0.72900003 1.1847148e-38
-0.014520005 -0.083662882 0.72599995 1.221449e-38
-0.013119047 -0.083547637 0.72500002 1.2398161e-38
-0.011705706 -0.083317161 0.72300005 1.2673667e-38
-0.010328573 -0.083317161 0.72300005 1.2949173e-38
-0.0089390557 -0.083201915 0.722 1.3316525e-38
-0.0075428584 -0.082971439 0.72000003 1.3500206e-38
-0.0061628553 -0.082856223 0.71900004 1.3683888e-38
-0.0047933324 -0.082856223 0.71900004 1.3867569e-38
-0.0034142851 -0.082625732 0.71699995 1.4051233e-38
-0.0020485746 -0.082625732 0.71699995 1.4326733e-38
-0.0006799965 -0.082280025 0.71399999 1.4510404e-38
0.00067903969 -0.082164779 0.713 1.478591e-38
0.0020371417 -0.08216475 0.713 1.4969578e-38
0.0033952261 -0.082164764 0.71299994 1.506141e-38
0.0047399984 -0.081934288 0.71099997 1.515326e-38
0.0060942885 -0.081934303 0.71099997 1.5153274e-38
0.0074485685 -0.081934288 0.71099997 1.5153287e-38
0.0088028582 -0.081934303 0.71099997 1.5245134e-38
0.010142851 -0.081819072 0.70999998 1.5336966e-38
0.011495236 -0.081819057 0.70999998 1.5428799e-38
0.012847616 -0.081819057 0.70999998 1.5612459e-38
0.014200005 -0.081819072 0.71000004 1.5612448e-38
0.015552385 -0.081819072 0.71000004 1.5704271e-38
0.016904771 -0.081819057 0.71000004 1.5704258e-38
0.018257149 -0.081819057 0.71000004 1.5704265e-38
0.01960953 -0.081819057 0.71000004 1.5704272e-38
0.020961907 -0.081819072 0.71000004 1.5704272e-38
0.022345718 -0.081934288 0.71100003 1.5704271e-38
0.023699999 -0.081934288 0.71099997 1.5612427e-38
0.025019053 -0.081819057 0.71000004 1.5796089e-38
0.026408568 -0.081934288 0.71099997 1.5979774e-38
0.027762858 -0.081934288 0.71099997 1.5796117e-38
0.029117148 -0.081934303 0.71100003 1.5704289e-38
0.030471427 -0.081934288 0.71099997 1.5704294e-38
0.031915229 -0.082164764 0.71299994 1.5704287e-38
0.033273324 -0.082164764 0.713 1.5612444e-38
0.034631435 -0.082164779 0.713 1.5612441e-38
0.035989519 -0.082164764 0.71299994 1.5520602e-38
0.037400011 -0.08228001 0.71400005 1.5428771e-38
0.038759999 -0.08228001 0.71399999 1.5336938e-38
0.040232372 -0.082510486 0.71599996 1.5336945e-38
0.041596189 -0.082510471 0.71599996 1.5245117e-38
0.043019995 -0.082625732 0.71699995 1.5153284e-38
0.044385709 -0.082625732 0.71699995 1.4877781e-38
0.045751426 -0.082625732 0.71699995 1.460227e-38
0.047248576 -0.082856208 0.71899998 1.4235641e-38
0.048618097 -0.082856223 0.71899998 1.3961223e-38
0.050057154 -0.082971454 0.72000003 1.3500622e-38
0.051571425 -0.083201915 0.722 1.3132912e-38
0.053020008 -0.083317176 0.72299999 1.1574926e-38
0.054547623 -0.083547622 0.72499996 1.002089e-38
0.056005716 -0.083662868 0.72600001 8.557612e-39
0.057625711 -0.084008574 0.72900003 7.0024832e-39
0.059257127 -0.084354281 0.73199999 7.0953711e-39
0.060817152 -0.084584802 0.73400003 7.1868661e-39
0.062215239 -0.084584773 0.73399997 7.0972012e-39
-0.026146665 -0.084093362 0.74199998 8.8180279e-39
-0.024566686 -0.083526671 0.73699999 9.3683346e-39
-0.023131436 -0.083413348 0.736 9.9189903e-39
-0.02172952 -0.083413333 0.736 1.0285976e-38
-0.020272374 -0.083186701 0.73399997 1.0653323e-38
-0.018822867 -0.08296001 0.73199999 1.1112504e-38
-0.017404767 -0.082846656 0.73099995 1.1479831e-38
-0.015968582 -0.08262004 0.72899997 1.1847157e-38
-0.014520008 -0.082280025 0.72599995 1.212266e-38
-0.013137153 -0.08228001 0.72599995 1.2398162e-38
-0.011738101 -0.082166687 0.72499996 1.2673671e-38
-0.010328569 -0.081940025 0.72300005 1.2949181e-38
-0.0089390492 -0.081826687 0.722 1.3224694e-38
-0.0075428593 -0.081600025 0.72000003 1.3408372e-38
-0.0061628525 -0.081486702 0.71900004 1.3592051e-38
-0.0047933296 -0.081486687 0.71900004 1.3867568e-38
-0.0034142907 -0.081260011 0.71699995 1.4051225e-38
-0.0020457192 -0.081146687 0.71599996 1.4326719e-38
-0.0006799965 -0.080920011 0.71400005 1.4510395e-38
0.00067904434 -0.080806687 0.713 1.4694073e-38
0.0020371389 -0.080806687 0.713 1.4877741e-38
0.0033952298 -0.080806687 0.71299994 1.506141e-38
0.0047399946 -0.080580011 0.71099997 1.5153259e-38
0.0060942848 -0.080580026 0.71099997 1.5245109e-38
0.007448575 -0.080580026 0.71100003 1.524511e-38
0.0088028545 -0.080580026 0.71099997 1.5428784e-38
0.010142862 -0.080466688 0.71000004 1.5612458e-38
0.01149524 -0.080466688 0.71000004 1.5704294e-38
0.012847618 -0.080466688 0.71000004 1.5704282e-38
0.014200006 -0.080466688 0.71000004 1.5796105e-38
0.015552384 -0.080466688 0.71000004 1.588794e-38
0.016904764 -0.080466703 0.71000004 1.5887942e-38
0.018282855 -0.080579996 0.71099997 1.5887943e-38
0.01960953 -0.080466688 0.71000004 1.6071617e-38
0.020961909 -0.080466703 0.70999998 1.6163449e-38
0.022314288 -0.080466703 0.71000004 1.5979776e-38
0.023700004 -0.080580011 0.71100003 1.5796098e-38
0.025019042 -0.080466703 0.70999998 1.6071599e-38
0.026408574 -0.080580011 0.71100003 1.625527e-38
0.027762853 -0.080580011 0.71099997 1.5979763e-38
0.029117147 -0.080580011 0.71099997 1.5704271e-38
0.030557141 -0.080806687 0.713 1.5704285e-38
0.031915233 -0.080806673 0.71299994 1.5612445e-38
0.033273328 -0.080806687 0.713 1.5704275e-38
0.034679994 -0.080920026 0.71399999 1.5704268e-38
0.036040012 -0.080920041 0.71400005 1.5612424e-38
0.037400015 -0.080920026 0.71400005 1.552059e-38
0.038868573 -0.081146687 0.71600002 1.5336919e-38
0.040232379 -0.081146687 0.71599996 1.5153258e-38
0.041654285 -0.081260011 0.71699995 1.5153269e-38
0.043019999 -0.081260026 0.71700001 1.5061436e-38
0.044385705 -0.081259996 0.71699995 1.4878127e-38
0.045751423 -0.081260026 0.71699995 1.4602612e-38
0.047248568 -0.081486687 0.71899998 1.4327457e-38
0.048618093 -0.081486687 0.71899998 1.4051962e-38
0.05005715 -0.081600025 0.72000003 1.3683912e-38
0.051571425 -0.081826672 0.722 1.3317278e-38
0.053020012 -0.081940025 0.72300005 1.1758217e-38
0.054547627 -0.082166687 0.72500002 1.0113072e-38
0.056160007 -0.082506672 0.72800004 8.5601189e-39
0.057625711 -0.08262001 0.72899997 7.0021287e-39
0.059176195 -0.082846671 0.73099995 7.0957424e-39
0.060651433 -0.08296001 0.73199999 7.0968298e-39
0.062215243 -0.083186686 0.73399997 7.0975599e-39
-0.027597142 -0.082791433 0.74300003 8.1758857e-39
-0.026146669 -0.082680032 0.74200004 8.726191e-39
-0.024566676 -0.082122862 0.73699999 9.4608848e-39
-0.023162875 -0.082122862 0.73699999 1.0102658e-38
-0.021670472 -0.081788614 0.73399997 1.0378166e-38
-0.020272385 -0.081788585 0.73399997 1.0653328e-38
-0.018822871 -0.081565723 0.73199999 1.1020684e-38
-0.017404756 -0.081454292 0.73099995 1.1388008e-38
-0.01596858 -0.08123146 0.72899997 1.1755332e-38
-0.01452001 -0.080897152 0.72599995 1.2122665e-38
-0.013137155 -0.080897167 0.72599995 1.2398163e-38
-0.0117381 -0.080785736 0.72499996 1.2673675e-38
-0.010328562 -0.080562875 0.72300005 1.2949188e-38
-0.0089514302 -0.080562904 0.72300005 1.3224698e-38
-0.0075638201 -0.080451459 0.722 1.3408373e-38
-0.0061714365 -0.080228582 0.71999997 1.3592051e-38
-0.0047933268 -0.080117166 0.71900004 1.3867565e-38
-0.0034238042 -0.080117181 0.71900004 1.4051216e-38
-0.0020485751 -0.079894319 0.71700001 1.4234868e-38
-0.00067999604 -0.079560027 0.71400005 1.4510388e-38
0.00067904062 -0.079448566 0.713 1.4694072e-38
0.0020371426 -0.079448581 0.713 1.4877741e-38
0.0033952261 -0.079448566 0.713 1.506141e-38
0.0047533293 -0.079448581 0.713 1.5336929e-38
0.0060942876 -0.079225719 0.71099997 1.5336941e-38
0.0074485703 -0.079225719 0.71100003 1.5336934e-38
0.0088028572 -0.079225719 0.71099997 1.5428763e-38
0.010157147 -0.079225719 0.71099997 1.5612441e-38
0.011511419 -0.079225704 0.71099997 1.5612448e-38
0.012865709 -0.079225734 0.71099997 1.5704269e-38
0.01422 -0.079225704 0.71100003 1.5796089e-38
0.01557428 -0.079225734 0.71099997 1.588794e-38
0.016976185 -0.079448596 0.713 1.5887954e-38
0.018282849 -0.079225734 0.71099997 1.5887951e-38
0.019637141 -0.079225719 0.71099997 1.5887947e-38
0.020961907 -0.079114303 0.70999998 1.5887943e-38
0.022345711 -0.079225719 0.71099997 1.5887937e-38
0.023700003 -0.079225749 0.71100003 1.5796098e-38
0.02505428 -0.079225719 0.71099997 1.5979764e-38
0.026408572 -0.079225749 0.71099997 1.6071587e-38
0.027762849 -0.079225719 0.71099997 1.5887902e-38
0.029117141 -0.079225734 0.71099997 1.5704254e-38
0.030471429 -0.079225734 0.71100003 1.579611e-38
0.031915229 -0.079448566 0.713 1.5796109e-38
0.033273324 -0.079448596 0.713 1.5704271e-38
0.034631427 -0.079448581 0.713 1.5612423e-38
0.036039997 -0.079560027 0.71399999 1.5520574e-38
0.037400011 -0.079560027 0.71400005 1.5428738e-38
0.038868561 -0.079782873 0.71599996 1.5245064e-38
0.040232386 -0.079782873 0.71600002 1.5153242e-38
0.041654281 -0.079894319 0.71699995 1.5061419e-38
0.043020003 -0.079894304 0.71699995 1.4969587e-38
0.044385716 -0.079894319 0.71699995 1.4785918e-38
0.045751426 -0.079894319 0.71700001 1.4602238e-38
0.047248572 -0.080117151 0.71899998 1.4418914e-38
0.048685718 -0.080228597 0.71999997 1.4143059e-38
0.050196186 -0.080451459 0.722 1.3592054e-38
0.051642857 -0.080562875 0.72299999 1.2949197e-38
0.053166673 -0.080785736 0.72500002 1.1483407e-38
0.054622855 -0.080897152 0.72599995 1.0112341e-38
0.056160007 -0.081120014 0.72800004 8.5586798e-39
0.057625711 -0.08123146 0.72899997 7.0032091e-39
0.059014287 -0.081231445 0.72899997 6.9128015e-39
0.060651429 -0.081565738 0.73199999 6.823124e-39
0.062045716 -0.081565738 0.73199999 7.0064405e-39
0.063613333 -0.081788585 0.73399997 7.09792e-39
0.065011419 -0.081788585 0.73399997 7.0057286e-39
-0.027597133 -0.081376195 0.74300003 8.1773262e-39
-0.026146673 -0.081266671 0.74200004 8.6354345e-39
-0.024633327 -0.080938101 0.73900002 9.4619624e-39
-0.023162866 -0.080719069 0.73699999 1.0287044e-38
-0.021670483 -0.080390498 0.73400003 1.0470354e-38
-0.02027238 -0.080390498 0.73400003 1.0653671e-38
-0.018822875 -0.080171436 0.73199999 1.1020662e-38
-0.017428584 -0.080171451 0.73199999 1.1296154e-38
-0.01601238 -0.080061913 0.73100001 1.1663484e-38
-0.014520013 -0.079514295 0.72599995 1.2030821e-38
-0.013137157 -0.07951431 0.72599995 1.2398159e-38
-0.011738098 -0.079404756 0.72499996 1.2673673e-38
-0.010328569 -0.079185739 0.72299999 1.2949188e-38
-0.0089514265 -0.079185739 0.72300005 1.3132859e-38
-0.0075638131 -0.079076201 0.722 1.3408364e-38
-0.0061714374 -0.078857154 0.71999997 1.3592043e-38
-0.0047933245 -0.07874763 0.71900004 1.3867556e-38
-0.0034238014 -0.07874766 0.71900004 1.4051218e-38
-0.0020485797 -0.078528583 0.71699995 1.4234879e-38
-0.00067998859 -0.078200027 0.71400005 1.4418553e-38
0.00067904434 -0.078090489 0.713 1.4602226e-38
0.0020371389 -0.078090489 0.713 1.47859e-38
0.0033952298 -0.078090489 0.713 1.5153245e-38
0.0047533321 -0.078090489 0.713 1.5520593e-38
0.0061114277 -0.078090504 0.713 1.5428761e-38
0.0074485731 -0.077871442 0.71099997 1.5336926e-38
0.0088028628 -0.077871442 0.71100003 1.5428761e-38
0.010157143 -0.077871442 0.71099997 1.5520597e-38
0.011511432 -0.077871442 0.71099997 1.5612432e-38
0.012865712 -0.077871427 0.71099997 1.5704257e-38
0.014220003 -0.077871442 0.71099997 1.5796082e-38
0.015574283 -0.077871427 0.71099997 1.5887949e-38
0.016928574 -0.077871442 0.71099997 1.5887979e-38
0.018282864 -0.077871427 0.71100003 1.5796129e-38
0.019637136 -0.077871457 0.71099997 1.5704279e-38
0.02096191 -0.077761933 0.71000004 1.5612431e-38
0.022314295 -0.077761918 0.71000004 1.5704254e-38
0.023699995 -0.077871442 0.71099997 1.5796099e-38
0.025054291 -0.077871457 0.71100003 1.5887944e-38
0.026408572 -0.077871442 0.71099997 1.5887932e-38
0.027762856 -0.077871457 0.71100003 1.5796084e-38
0.029117145 -0.077871427 0.71099997 1.5704264e-38
0.030557141 -0.078090504 0.71300006 1.588795e-38
0.031915225 -0.078090489 0.713 1.597979e-38
0.033273328 -0.078090504 0.713 1.5796124e-38
0.034680005 -0.078200042 0.71400005 1.5520598e-38
0.036040008 -0.078200012 0.71400005 1.5428743e-38
0.037504762 -0.078419045 0.71599996 1.5336903e-38
0.038868573 -0.078419074 0.71599996 1.5245062e-38
0.040288575 -0.078528598 0.71700001 1.5061407e-38
0.041654274 -0.078528583 0.71699995 1.4969588e-38
0.043019995 -0.078528583 0.71699995 1.4877761e-38
0.04450953 -0.07874763 0.71900004 1.4785935e-38
0.045879044 -0.078747645 0.71899998 1.4602252e-38
0.047248568 -0.07874763 0.71899998 1.4418567e-38
0.048685715 -0.078857154 0.71999997 1.4234901e-38
0.050196182 -0.079076201 0.722 1.3408746e-38
0.051642865 -0.079185724 0.72300005 1.258258e-38
0.053166669 -0.079404771 0.72500002 1.1297955e-38
0.054622855 -0.07951428 0.72599995 1.002087e-38
0.05616001 -0.079733372 0.72800004 8.5593987e-39
0.057625715 -0.07984288 0.72900003 7.002486e-39
0.059176184 -0.080061927 0.73099995 6.8209534e-39
0.060651425 -0.080171421 0.73199999 6.5468888e-39
0.062215235 -0.080390513 0.73399997 6.914598e-39
0.063786671 -0.080609545 0.736 7.189394e-39
-0.027671428 -0.080176204 0.745 7.5337659e-39
-0.026181903 -0.079960942 0.74299997 8.0837083e-39
-0.024666669 -0.079638109 0.73999995 8.54289e-39
-0.023162868 -0.079315245 0.73699993 9.0928197e-39
-0.021818101 -0.079530492 0.73899996 9.7356612e-39
-0.020410478 -0.079530478 0.73899996 1.0469626e-38
-0.018925723 -0.079207629 0.736 1.1020997e-38
-0.017428586 -0.078777149 0.73199999 1.1571642e-38
-0.01601238 -0.078669533 0.73099995 1.1939694e-38
-0.014520015 -0.078131452 0.72599995 1.2398154e-38
-0.013137144 -0.078131452 0.72599995 1.2674019e-38
-0.011738087 -0.078023836 0.72500002 1.2949178e-38
-0.010328565 -0.077808604 0.72300005 1.3133217e-38
-0.008951433 -0.077808589 0.72300005 1.3408359e-38
-0.0075638061 -0.077700973 0.722 1.3592384e-38
-0.0061714235 -0.077485725 0.72000003 1.3775704e-38
-0.0047933366 -0.077378124 0.71900004 1.3959742e-38
-0.003423814 -0.077378139 0.71900004 1.423489e-38
-0.0020485858 -0.077162847 0.71699995 1.4326724e-38
-0.0006799993 -0.076839998 0.71399999 1.4418553e-38
0.00067904155 -0.076732382 0.713 1.451038e-38
0.0020371324 -0.076732397 0.71299994 1.4602224e-38
0.0033952345 -0.076732382 0.713 1.4969574e-38
0.0047533293 -0.076732412 0.713 1.5245078e-38
0.0061114212 -0.076732367 0.71299994 1.533691e-38
0.0074695158 -0.076732397 0.713 1.5336917e-38
0.0088276183 -0.076732382 0.713 1.542876e-38
0.010157139 -0.07651715 0.71099997 1.5520588e-38
0.011511428 -0.07651715 0.71099997 1.5520581e-38
0.012865708 -0.07651715 0.71099997 1.561241e-38
0.014219999 -0.07651715 0.71099997 1.5704238e-38
0.015574289 -0.076517165 0.71100003 1.5704286e-38
0.01692857 -0.07651715 0.71099997 1.5704332e-38
0.018257145 -0.076409534 0.71000004 1.5612472e-38
0.019609522 -0.076409549 0.71000004 1.5612446e-38
0.020961907 -0.076409534 0.71000004 1.5704262e-38
0.022314288 -0.076409549 0.70999998 1.5704241e-38
0.023666665 -0.076409534 0.71000004 1.5796101e-38
0.025054291 -0.07651715 0.71100003 1.588796e-38
0.02640857 -0.07651715 0.71099997 1.5887947e-38
0.02776286 -0.07651715 0.71099997 1.5796099e-38
0.029117139 -0.076517165 0.71099997 1.5704273e-38
0.030557135 -0.076732382 0.71299994 1.5796119e-38
0.031915229 -0.076732382 0.713 1.5887965e-38
0.033273332 -0.076732397 0.713 1.5704306e-38
0.034680013 -0.076840028 0.71400005 1.5520609e-38
0.036040008 -0.076840028 0.71400005 1.5336912e-38
0.037504762 -0.077055246 0.71599996 1.5245069e-38
0.038922861 -0.077162877 0.71699995 1.506139e-38
0.040288571 -0.077162877 0.71699995 1.4969573e-38
0.041654289 -0.077162862 0.71699995 1.4877755e-38
0.043020003 -0.077162892 0.71699995 1.4785937e-38
0.044509534 -0.077378124 0.71900004 1.4694117e-38
0.045879059 -0.077378124 0.71900004 1.451043e-38
0.047314294 -0.07748571 0.72000003 1.4234907e-38
0.048820954 -0.077700973 0.722 1.4051239e-38
0.050265722 -0.077808589 0.72300005 1.3316915e-38
0.051642861 -0.077808589 0.72299999 1.2582588e-38
0.053166665 -0.078023821 0.72499996 1.1116447e-38
0.054622851 -0.078131452 0.72599995 9.7460883e-39
0.056160018 -0.078346685 0.72800004 8.3753689e-39
0.057625718 -0.078454316 0.72899997 7.0953907e-39
0.059176188 -0.078669518 0.73099995 7.0053278e-39
0.060651422 -0.078777149 0.73199999 6.9145798e-39
0.062384766 -0.079207629 0.736 7.2812155e-39
0.063786678 -0.079207629 0.73600006 7.5556584e-39
0.065277137 -0.079315245 0.73699999 7.3719986e-39
-0.027745705 -0.078968555 0.74699998 6.8912776e-39
-0.026252382 -0.078757152 0.74500006 7.5327009e-39
-0.024733329 -0.078440011 0.74200004 7.7163803e-39
-0.023225706 -0.078122869 0.73900002 7.8078403e-39
-0.021759048 -0.077911451 0.73699999 9.0020436e-39
-0.020410486 -0.078122869 0.73899996 1.0195548e-38
-0.018822856 -0.077382863 0.73199999 1.1022427e-38
-0.017428579 -0.077382892 0.73199999 1.1756746e-38
-0.01601238 -0.077277154 0.73099995 1.2216635e-38
-0.014520016 -0.076748595 0.72599995 1.2675454e-38
-0.013137146 -0.07674858 0.72599995 1.2950601e-38
-0.0117381 -0.076642886 0.72500002 1.3133938e-38
-0.010328571 -0.076431438 0.72299999 1.3409828e-38
-0.0089514293 -0.076431468 0.72300005 1.359276e-38
-0.0075638238 -0.076325729 0.722 1.3776771e-38
-0.0061714244 -0.076114297 0.72000003 1.3960087e-38
-0.0048000002 -0.076114297 0.71999997 1.4143762e-38
-0.0034238116 -0.076008603 0.71900004 1.4327451e-38
-0.0020485658 -0.075797185 0.71699995 1.4418946e-38
-0.00068191456 -0.075691432 0.71599996 1.4418567e-38
0.00067999709 -0.075479999 0.71399999 1.4418547e-38
0.0020371361 -0.075374305 0.71299994 1.441855e-38
0.0033952307 -0.07537429 0.713 1.4694059e-38
0.0047533331 -0.075374305 0.713 1.496957e-38
0.0061114174 -0.07537429 0.713 1.5153246e-38
0.0074695195 -0.075374305 0.713 1.5336922e-38
0.0088276211 -0.07537429 0.713 1.5428763e-38
0.010157145 -0.075162888 0.71100003 1.542877e-38
0.011511431 -0.075162888 0.71099997 1.5520614e-38
0.012865714 -0.075162873 0.71100003 1.5520591e-38
0.014220002 -0.075162873 0.71099997 1.5520569e-38
0.015574292 -0.075162873 0.71099997 1.5520601e-38
0.016904764 -0.075057164 0.70999998 1.5520635e-38
0.018257141 -0.075057164 0.70999998 1.5428782e-38
0.019609518 -0.075057164 0.70999998 1.5612438e-38
0.020961899 -0.075057149 0.70999998 1.5704258e-38
0.022314284 -0.075057149 0.70999998 1.5796078e-38
0.023666665 -0.075057164 0.70999998 1.5796093e-38
0.025054291 -0.075162873 0.71099997 1.5887944e-38
0.026408572 -0.075162858 0.71099997 1.588794e-38
0.027762856 -0.075162873 0.71099997 1.5796101e-38
0.029117154 -0.075162873 0.71099997 1.5704269e-38
0.030557131 -0.07537429 0.71299994 1.5704273e-38
0.031915233 -0.075374305 0.713 1.5704283e-38
0.033273328 -0.075374305 0.713 1.5612458e-38
0.034680009 -0.075480029 0.71400005 1.5428767e-38
0.036040012 -0.075480029 0.71400005 1.5336912e-38
0.037504751 -0.075691447 0.71599996 1.5153235e-38
0.03892285 -0.07579717 0.71699989 1.4969559e-38
0.040288564 -0.075797155 0.71699995 1.4785906e-38
0.041654281 -0.075797185 0.71699995 1.4785923e-38
0.043019999 -0.075797155 0.71699995 1.469409e-38
0.04450953 -0.076008588 0.71900004 1.4602259e-38
0.045879051 -0.076008603 0.71900004 1.4418938e-38
0.04731429 -0.076114312 0.72000003 1.4143066e-38
0.04882095 -0.076325729 0.722 1.3776083e-38
0.050265726 -0.076431453 0.72300005 1.3132877e-38
0.051785722 -0.076642886 0.72499996 1.2491104e-38
0.053166665 -0.076642871 0.72499996 1.093026e-38
0.054622851 -0.076748595 0.72599995 9.378382e-39
0.056160007 -0.076959997 0.72799999 8.2846068e-39
0.057625718 -0.077065736 0.72899997 7.0950348e-39
0.059176188 -0.077277139 0.73099995 7.1900834e-39
0.060817145 -0.077594295 0.73399997 7.2819259e-39
0.062384769 -0.077805713 0.736 7.6485575e-39
0.063786678 -0.077805713 0.736 7.9229948e-39
0.065454297 -0.078122869 0.73900002 7.554585e-39
-0.027745707 -0.077545717 0.74699998 4.5946741e-39
-0.026252378 -0.077338114 0.745 3.8578517e-39
-0.024733331 -0.07702671 0.74200004 4.2259238e-39
-0.023257151 -0.076819062 0.73999995 4.5928804e-39
-0.021759063 -0.076507613 0.73699999 5.3282552e-39
-0.020410467 -0.076715246 0.73900002 6.0640196e-39
-0.01882286 -0.075988576 0.73199999 6.9813012e-39
-0.017428583 -0.075988591 0.73199999 7.9918462e-39
-0.01603429 -0.075988576 0.73199999 8.9101969e-39
-0.014560006 -0.07557334 0.72799999 9.8299868e-39
-0.013137148 -0.075365737 0.72599995 1.0471042e-38
-0.011754294 -0.075365722 0.72599995 1.1021376e-38
-0.010357141 -0.075261921 0.72499996 1.1388756e-38
-0.0089761959 -0.075261936 0.72499996 1.1847899e-38
-0.0075742877 -0.075054318 0.72300005 1.2307041e-38
-0.0061885812 -0.074950486 0.722 1.2765861e-38
-0.0048000016 -0.074742869 0.71999997 1.3133562e-38
-0.0034285679 -0.074742854 0.72000003 1.3501299e-38
-0.0020542855 -0.074639082 0.71900004 1.3685007e-38
-0.00068190665 -0.074327618 0.71599996 1.3959405e-38
0.00068000547 -0.07412003 0.71400005 1.4235955e-38
0.0020400009 -0.074120015 0.71399999 1.4510383e-38
0.0034000056 -0.074120045 0.71400005 1.4879157e-38
0.0047600088 -0.07412003 0.71400005 1.5245435e-38
0.0061114212 -0.074016213 0.713 1.5430193e-38
0.0074695232 -0.074016213 0.713 1.5612432e-38
0.0088276174 -0.074016213 0.713 1.561387e-38
0.010185708 -0.074016213 0.713 1.5612458e-38
0.011511427 -0.073808581 0.71099997 1.5613556e-38
0.012865718 -0.073808581 0.71099997 1.5612801e-38
0.014219998 -0.073808581 0.71099997 1.5613839e-38
0.015574289 -0.073808581 0.71099997 1.5612424e-38
0.01692858 -0.073808581 0.71100003 1.5521683e-38
0.018282859 -0.073808566 0.71099997 1.5520601e-38
0.019637149 -0.073808581 0.71100003 1.57057e-38
0.020961909 -0.073704779 0.71000004 1.5796449e-38
0.022345718 -0.073808581 0.71099997 1.5888991e-38
0.023699999 -0.073808566 0.71099997 1.5979757e-38
0.025054289 -0.073808581 0.71099997 1.6072316e-38
0.026408579 -0.073808581 0.71100003 1.6163438e-38
0.027762858 -0.073808581 0.71099997 1.6072324e-38
0.029117148 -0.073808566 0.71099997 1.597977e-38
0.030471429 -0.073808581 0.71099997 1.5888292e-38
0.031915236 -0.074016213 0.713 1.5887942e-38
0.033273332 -0.074016213 0.713 1.5704638e-38
0.034680001 -0.07412003 0.71399999 1.5612431e-38
0.036040004 -0.074120015 0.71399999 1.5429105e-38
0.037504759 -0.074327648 0.71599996 1.5245072e-38
0.038922857 -0.074431449 0.71699995 1.5061757e-38
0.040288571 -0.074431449 0.71700001 1.496958e-38
0.041654285 -0.074431434 0.71699989 1.4786284e-38
0.043140002 -0.074639082 0.71900004 1.469408e-38
0.044509523 -0.074639082 0.71900004 1.4510758e-38
0.045879047 -0.074639067 0.71900004 1.4419283e-38
0.047314279 -0.074742869 0.71999997 1.423597e-38
0.04882095 -0.074950516 0.722 1.4143776e-38
0.050265718 -0.075054303 0.72300005 1.3133943e-38
0.051785719 -0.075261906 0.72499996 1.2216307e-38
0.053166676 -0.075261921 0.72500002 1.0566498e-38
0.054622851 -0.075365722 0.72599995 8.9202765e-39
0.056160003 -0.07557334 0.72800004 8.1005729e-39
0.057625718 -0.075677171 0.72900003 7.2794246e-39
0.059176195 -0.075884759 0.73099995 7.1886555e-39
0.060982872 -0.076403812 0.73600006 7.0982592e-39
0.062469516 -0.076507628 0.73699999 7.2812155e-39
0.063873328 -0.076507643 0.73699999 7.5560073e-39
-0.027671428 -0.075919062 0.745 2.2962616e-39
-0.026252385 -0.075919062 0.745 9.3294248e-41
-0.024733344 -0.075613365 0.74199998 7.35791e-40
-0.023257136 -0.075409546 0.74000001 1.2871487e-39
-0.0218181 -0.075307637 0.73899996 1.561565e-39
-0.020410476 -0.075307637 0.73900002 1.8377903e-39
-0.018951427 -0.075103819 0.73699999 3.0309371e-39
-0.017428586 -0.074594319 0.73199999 4.1333218e-39
-0.016034294 -0.074594304 0.73199999 5.602331e-39
-0.01456 -0.074186683 0.72799999 6.9805781e-39
-0.013137151 -0.07398288 0.72599995 7.9900483e-39
-0.011754295 -0.07398288 0.72599995 8.9087956e-39
-0.010357143 -0.07388097 0.72500002 9.4594821e-39
-0.0089761848 -0.073880985 0.72500002 1.0010826e-38
-0.0075952406 -0.07388097 0.72500002 1.074584e-38
-0.0062142811 -0.07388097 0.72499996 1.1480522e-38
-0.0048199906 -0.073677182 0.72300005 1.2031532e-38
-0.003438107 -0.073575243 0.722 1.2583283e-38
-0.0020542836 -0.073269546 0.71900004 1.3043915e-38
-0.00068286591 -0.073065743 0.71699995 1.341017e-38
0.00068000547 -0.072760031 0.71400005 1.4054801e-38
0.0020400009 -0.072760016 0.71400005 1.4605454e-38
0.0034000028 -0.072760016 0.71399999 1.5067141e-38
0.0047599995 -0.072760016 0.71399999 1.5431633e-38
0.0061200052 -0.072760031 0.71400005 1.5617476e-38
0.0074695186 -0.072658107 0.713 1.5798994e-38
0.008827609 -0.072658077 0.71299994 1.5801148e-38
0.010185705 -0.072658107 0.713 1.5798998e-38
0.011543807 -0.072658092 0.713 1.5800076e-38
0.012901898 -0.072658107 0.71299994 1.5707505e-38
0.014259993 -0.072658092 0.713 1.5708922e-38
0.015574284 -0.072454274 0.71099997 1.5615302e-38
0.016928576 -0.072454274 0.71100003 1.5617107e-38
0.018282853 -0.072454289 0.71099997 1.5615672e-38
0.019637145 -0.072454274 0.71099997 1.5800778e-38
0.020991433 -0.072454289 0.71100003 1.5890083e-38
0.022345714 -0.072454289 0.71099997 1.5982975e-38
0.023700003 -0.072454289 0.71099997 1.6073399e-38
0.025054283 -0.072454289 0.71099997 1.6258172e-38
0.026408572 -0.072454304 0.71099997 1.644039e-38
0.027840946 -0.072658122 0.713 1.6349613e-38
0.02919904 -0.072658107 0.71299994 1.6256353e-38
0.030557139 -0.072658107 0.713 1.6164527e-38
0.031915233 -0.072658092 0.713 1.5980511e-38
0.033320006 -0.072760031 0.71400005 1.588869e-38
0.034680001 -0.072760016 0.71400005 1.5705003e-38
0.036140949 -0.072963804 0.71599996 1.5521676e-38
0.037557133 -0.073065743 0.71699995 1.5337632e-38
0.03892285 -0.073065728 0.71699995 1.5245784e-38
0.040288564 -0.073065728 0.71699995 1.5062856e-38
0.041770484 -0.073269546 0.71899998 1.4878492e-38
0.043140005 -0.073269546 0.71900004 1.4694452e-38
0.04450953 -0.073269561 0.71900004 1.4511129e-38
0.045942862 -0.073371455 0.72000003 1.432782e-38
0.047314286 -0.07337144 0.71999997 1.4420736e-38
0.048888579 -0.073677167 0.72300005 1.4420362e-38
0.050404757 -0.07388097 0.72499996 1.3225767e-38
0.051785719 -0.07388097 0.72500002 1.194223e-38
0.053240001 -0.07398288 0.72599995 1.0198797e-38
0.054773342 -0.074186698 0.72800004 8.370697e-39
0.056237143 -0.074288607 0.72899997 7.9179767e-39
0.057783805 -0.074492395 0.73099995 7.4616649e-39
0.059257135 -0.074594304 0.73199999 7.1868731e-39
0.061065715 -0.075103819 0.73699999 6.8216821e-39
0.062469523 -0.075103804 0.73699999 7.0049915e-39
0.064046681 -0.075307637 0.73900002 7.0964655e-39
-0.027671428 -0.074500009 0.745 5.7081515e-39
-0.026181895 -0.074300021 0.74300003 4.8705141e-39
-0.024733335 -0.074200034 0.74199998 4.7872896e-39
-0.023225706 -0.073899999 0.73900002 4.6861256e-39
-0.021759054 -0.073700011 0.73699999 3.4908265e-39
-0.020355243 -0.073700011 0.73699999 2.2962489e-39
-0.018951442 -0.073700011 0.73699993 4.3166299e-39
-0.017428588 -0.073200017 0.73199999 6.3370164e-39
-0.016012384 -0.073100016 0.73099995 6.6200604e-39
-0.014559994 -0.07280001 0.72800004 6.888028e-39
-0.013137152 -0.072600022 0.72599995 6.2451739e-39
-0.011754298 -0.072600007 0.72599995 5.6023534e-39
-0.010357142 -0.07250002 0.72500002 5.5109033e-39
-0.0089761829 -0.07250002 0.72499996 5.418688e-39
-0.0075952387 -0.07250002 0.72499996 5.6026953e-39
-0.0061971443 -0.072300017 0.72300005 5.7867195e-39
-0.0048133456 -0.072200015 0.722 6.1540558e-39
-0.0034285693 -0.072000012 0.72000003 6.613955e-39
-0.0020542813 -0.071900025 0.71900004 7.0727779e-39
-0.00068287103 -0.071700007 0.71699995 7.6227245e-39
0.00068000547 -0.071400017 0.71400005 8.2673751e-39
0.0020400074 -0.071400031 0.71400005 8.9112997e-39
0.0034000038 -0.071400031 0.71400005 8.9105823e-39
0.0047599995 -0.071400017 0.71399999 8.9084579e-39
0.0061200024 -0.071400002 0.71399999 9.0935905e-39
0.0074695232 -0.071300015 0.713 9.276544e-39
0.0088276062 -0.071300015 0.713 9.553484e-39
0.010185709 -0.071300015 0.713 9.7371368e-39
0.011543811 -0.07130003 0.713 1.0012984e-38
0.012901895 -0.071300015 0.71299994 1.0198091e-38
0.01425999 -0.07130003 0.713 1.0104822e-38
0.015574279 -0.071099982 0.71099997 9.920435e-39
0.01692857 -0.071100011 0.71099997 1.0655838e-38
0.018282861 -0.071099997 0.71100003 1.1299052e-38
0.01963714 -0.071100011 0.71099997 1.1573847e-38
0.02099143 -0.071099997 0.71100003 1.184789e-38
0.022345711 -0.071100011 0.71099997 1.2491068e-38
0.023700001 -0.071099997 0.71099997 1.3133601e-38
0.02505428 -0.071100026 0.71099997 1.3501344e-38
0.026482858 -0.071300015 0.713 1.3960123e-38
0.027840951 -0.0713 0.713 1.4144114e-38
0.029199041 -0.071300015 0.71299994 1.4327447e-38
0.030557137 -0.0713 0.713 1.4235633e-38
0.031960003 -0.071400017 0.71399999 1.4236371e-38
0.033320013 -0.071400031 0.71400005 1.4144197e-38
0.034777142 -0.071600005 0.71599996 1.4144539e-38
0.036140952 -0.07160002 0.71600002 1.4052326e-38
0.037557147 -0.071700007 0.71700001 1.4052302e-38
0.038922857 -0.071700037 0.71700001 1.3868965e-38
0.040288568 -0.071700007 0.71699995 1.3779317e-38
0.041770477 -0.07190001 0.71899998 1.3593168e-38
0.043139998 -0.071900025 0.71900004 1.3500245e-38
0.04450953 -0.071900025 0.71900004 1.3317997e-38
0.045942862 -0.072000012 0.72000003 1.3225451e-38
0.047445718 -0.072200015 0.722 1.2952102e-38
0.048888575 -0.072300017 0.72300005 1.2768402e-38
0.050404772 -0.07250002 0.72500002 1.1300798e-38
0.051785722 -0.07250002 0.72500002 9.8321602e-39
0.053240001 -0.072600022 0.72599995 9.0113931e-39
0.054773338 -0.07280001 0.72800004 8.0984177e-39
0.056237146 -0.072900027 0.72900003 7.7350204e-39
0.057783805 -0.07310003 0.73099995 7.3701937e-39
0.059257131 -0.073200017 0.73199999 7.1883192e-39
0.061231434 -0.073900014 0.73899996 7.0060761e-39
0.062639043 -0.073900014 0.73899996 7.18938e-39
0.064133324 -0.074000016 0.73999995 7.4634431e-39
0.065720007 -0.074200019 0.74200004 7.1875681e-39
-0.026181888 -0.072884768 0.74300003 9.582149e-39
-0.024633335 -0.072492391 0.73899996 8.8567864e-39
-0.023225712 -0.072492391 0.73900002 8.0948234e-39
-0.021759061 -0.072296202 0.73699999 5.4186642e-39
-0.020355243 -0.072296202 0.73699999 2.7554446e-39
-0.018951433 -0.072296187 0.73699999 5.6941889e-39
-0.017428592 -0.071805716 0.73199999 8.5594001e-39
-0.016034301 -0.071805701 0.73199999 7.7447342e-39
-0.014559988 -0.071413368 0.72800004 6.8137942e-39
-0.013137155 -0.071217149 0.72599995 4.5921349e-39
-0.0117543 -0.071217164 0.72599995 2.2976965e-39
-0.010357141 -0.07111907 0.72500002 1.5630265e-39
-0.0089761969 -0.071119055 0.72499996 7.4115937e-40
-0.0075742728 -0.070922896 0.72300005 4.5954322e-40
-0.0061971406 -0.070922866 0.72300005 9.2557165e-41
-0.0048133391 -0.070824772 0.722 3.6770212e-40
-0.00342858 -0.070628583 0.71999997 5.5174445e-40
-0.0020542925 -0.070530489 0.71900004 1.1942482e-39
-0.00068190991 -0.070236191 0.71599996 1.7452542e-39
0.00068000267 -0.070040032 0.71399999 2.4799325e-39
0.0020400083 -0.070040017 0.71400005 3.1234985e-39
0.0033952382 -0.069941923 0.713 2.755439e-39
0.0047600069 -0.070040032 0.71400005 2.2962812e-39
0.0061200024 -0.070040017 0.71399999 2.5718087e-39
0.0074799978 -0.070040002 0.71399999 2.7561957e-39
0.0088276099 -0.069941908 0.713 3.2146543e-39
0.010185705 -0.069941923 0.713 3.674894e-39
0.011543808 -0.069941923 0.713 4.2248182e-39
0.012901898 -0.069941923 0.713 4.6850705e-39
0.014259993 -0.069941908 0.713 4.5003233e-39
0.015574293 -0.069745734 0.71100003 4.2251755e-39
0.016928574 -0.069745705 0.71099997 5.6023506e-39
0.018282864 -0.069745734 0.71099997 6.9806033e-39
0.019637136 -0.069745705 0.71099997 7.4390662e-39
0.020991433 -0.069745734 0.71099997 7.8067529e-39
0.022345722 -0.069745719 0.71100003 9.0002416e-39
0.023699995 -0.069745734 0.71099997 1.0102647e-38
0.025054291 -0.069745719 0.71100003 1.0836994e-38
0.026482852 -0.069941923 0.713 1.1480181e-38
0.027840955 -0.069941923 0.713 1.193898e-38
0.029199038 -0.069941923 0.713 1.2306692e-38
0.030600008 -0.070040017 0.71400005 1.2398179e-38
0.031960003 -0.070040017 0.71400005 1.2490383e-38
0.033413325 -0.070236206 0.71599996 1.2490035e-38
0.034777142 -0.070236206 0.71599996 1.2490384e-38
0.036191422 -0.070334285 0.71699995 1.2581853e-38
0.03755714 -0.0703343 0.71699995 1.2674034e-38
0.03892285 -0.0703343 0.71699995 1.2581829e-38
0.040400956 -0.070530504 0.71899998 1.2399259e-38
0.041770477 -0.070530489 0.71899998 1.239821e-38
0.043140002 -0.070530489 0.71900004 1.2307801e-38
0.044509534 -0.070530504 0.71900004 1.2218828e-38
0.045942869 -0.070628583 0.72000003 1.2036244e-38
0.047445707 -0.070824772 0.722 1.1577437e-38
0.048888579 -0.070922896 0.72300005 1.1025687e-38
0.050404765 -0.07111907 0.72500002 9.3762155e-39
0.051785722 -0.07111907 0.72499996 7.7253388e-39
0.053240001 -0.071217164 0.72599995 7.8243602e-39
0.054773342 -0.071413353 0.72800004 7.825435e-39
0.056160014 -0.071413353 0.72800004 7.5527983e-39
0.057625718 -0.071511433 0.72900003 7.1872472e-39
0.059580952 -0.072198093 0.736 7.1893982e-39
0.061314281 -0.0725905 0.73999995 7.1893926e-39
0.062723808 -0.072590485 0.73999995 7.4663284e-39
0.064306661 -0.072786704 0.74199998 7.7389622e-39
-0.024633344 -0.071084782 0.73899996 8.2042886e-39
-0.023225706 -0.071084782 0.73899996 7.7235592e-39
-0.021759061 -0.070892408 0.73699999 5.7924732e-39
-0.020410474 -0.071084782 0.73900002 3.9493243e-39
-0.018951435 -0.070892379 0.73699993 7.0875322e-39
-0.017428584 -0.070411459 0.73199999 1.0328706e-38
-0.016034294 -0.070411459 0.73199999 9.9534973e-39
-0.014579997 -0.070122868 0.72900003 9.591483e-39
-0.013173326 -0.070026666 0.72799999 8.277393e-39
-0.011754301 -0.069834307 0.72599995 7.0759995e-39
-0.01035714 -0.06973812 0.72499996 8.564739e-39
-0.008976195 -0.069738105 0.72499996 1.0125584e-38
-0.0075742793 -0.069545746 0.72300005 6.9963595e-39
-0.0061885775 -0.069449544 0.722 3.9492865e-39
-0.0048133419 -0.069449544 0.722 2.2962475e-39
-0.0034285819 -0.06925714 0.71999997 5.5139553e-40
-0.0020542901 -0.069160983 0.71900004 1.194265e-39
-0.00068190804 -0.068872392 0.71600002 1.8370925e-39
0.00068000361 -0.068680018 0.71399999 2.1125765e-39
0.002039999 -0.068680033 0.71399999 2.4799185e-39
0.0033952345 -0.068583846 0.713 6.7143959e-39
0.0047533265 -0.068583831 0.713 1.0928798e-38
0.0061371396 -0.068872407 0.71599996 1.1960525e-38
0.0074695232 -0.068583816 0.713 1.3042461e-38
0.0088276137 -0.068583831 0.713 1.3337695e-38
0.010185708 -0.068583816 0.713 1.3501627e-38
0.011543811 -0.068583846 0.713 1.2140947e-38
0.012901895 -0.068583816 0.713 1.065328e-38
0.014259997 -0.068583846 0.713 8.0818838e-39
0.015574289 -0.068391442 0.71099997 5.4186544e-39
0.016928568 -0.068391442 0.71099997 6.4288449e-39
0.018282859 -0.068391442 0.71099997 7.5308708e-39
0.019637149 -0.068391457 0.71100003 9.0974552e-39
0.02099143 -0.068391442 0.71099997 1.0653278e-38
0.02234572 -0.068391457 0.71100003 1.0382435e-38
0.023699999 -0.068391442 0.71099997 1.01941e-38
0.025124755 -0.068583831 0.713 1.0285936e-38
0.026482856 -0.068583831 0.713 1.0469607e-38
0.027840951 -0.068583831 0.713 1.083946e-38
0.029199041 -0.068583831 0.713 1.1204291e-38
0.030600013 -0.068680033 0.71400005 1.1112455e-38
0.032049518 -0.068872392 0.71600002 1.102062e-38
0.033413332 -0.068872407 0.71599996 1.1387962e-38
0.034825716 -0.068968594 0.71699995 1.1755304e-38
0.036191437 -0.068968594 0.71700001 1.0378847e-38
0.037661906 -0.069160983 0.71899998 9.0002388e-39
0.039031431 -0.069160983 0.71899998 8.9084033e-39
0.040400952 -0.069160968 0.71899998 8.9084215e-39
0.041770473 -0.069160983 0.71899998 9.3679745e-39
0.043139998 -0.069160968 0.71900004 9.9200609e-39
0.04450953 -0.069160968 0.71900004 8.1780521e-39
0.045942865 -0.069257155 0.72000003 6.4389342e-39
0.047445714 -0.069449544 0.722 6.4339288e-39
0.048888583 -0.069545746 0.72300005 6.3395723e-39
0.050404765 -0.069738105 0.72499996 5.6102581e-39
0.051785722 -0.069738105 0.72499996 4.8788126e-39
0.053239994 -0.069834307 0.72599995 5.8018395e-39
0.054773346 -0.070026696 0.72800004 6.8156173e-39
0.056237143 -0.070122898 0.72900003 6.9106799e-39
0.057625711 -0.070122883 0.72899997 7.0957789e-39
0.059580952 -0.070796192 0.736 7.0957718e-39
0.061480001 -0.071373343 0.74199998 7.0957676e-39
0.062893346 -0.071373358 0.74200004 7.0961222e-39
0.064306669 -0.071373358 0.74200004 7.1876045e-39
-0.024666678 -0.069771454 0.74000001 7.6485911e-39
-0.023225714 -0.069677144 0.73899996 7.2722612e-39
-0.021759052 -0.0694886 0.73699999 6.1698583e-39
-0.020272382 -0.069205746 0.73399997 5.0656897e-39
-0.018874295 -0.069205731 0.73399997 8.5615469e-39
-0.01747619 -0.069205716 0.73399997 1.1965249e-38
-0.016034298 -0.069017142 0.73199999 1.2148252e-38
-0.014580005 -0.068734303 0.72899997 1.2239325e-38
-0.013173334 -0.068640009 0.72800004 1.2033009e-38
-0.011754288 -0.068451449 0.72599995 1.1782636e-38
-0.010357153 -0.06835717 0.72499996 1.5678134e-38
-0.0089761838 -0.06835717 0.72500002 1.9427565e-38
-0.0075638164 -0.068074301 0.722 1.3635074e-38
-0.0061885705 -0.068074301 0.722 7.8243209e-39
-0.0048000054 -0.067885727 0.72000003 4.224793e-39
-0.0034285819 -0.067885742 0.71999997 5.5282065e-40
-0.0020542878 -0.067791462 0.71900004 1.2860809e-39
-0.00068191037 -0.067508578 0.71599996 1.9292769e-39
0.00068000361 -0.067320019 0.71400005 1.8370701e-39
0.002039999 -0.067320034 0.71399999 1.759298e-39
0.0033952382 -0.06722571 0.71300006 1.069396e-38
0.0047533219 -0.06722571 0.713 1.952167e-38
0.006111424 -0.06722571 0.713 2.1482882e-38
0.0074695167 -0.06722571 0.713 2.3391308e-38
0.008827609 -0.06722571 0.713 2.3407779e-38
0.010185712 -0.067225724 0.713 2.3388064e-38
0.011543797 -0.06722571 0.71299994 2.0092405e-38
0.012901898 -0.067225724 0.713 1.6653157e-38
0.014259993 -0.067225724 0.713 1.1663468e-38
0.015574285 -0.06703715 0.71099997 6.621515e-39
0.016928576 -0.06703715 0.71100003 7.3472629e-39
0.018282855 -0.067037165 0.71099997 8.008771e-39
0.019637145 -0.06703715 0.71100003 1.076707e-38
0.020991426 -0.067037165 0.71099997 1.3528584e-38
0.022345716 -0.06703715 0.71099997 1.1866209e-38
0.023766665 -0.067225739 0.71300006 1.0212787e-38
0.025124757 -0.06722571 0.713 9.8267652e-39
0.02652001 -0.067320034 0.71400005 9.4773907e-39
0.027840946 -0.067225695 0.71299994 9.7443198e-39
0.029240001 -0.067320019 0.71399999 1.0027683e-38
0.030685719 -0.067508608 0.71599996 9.8267582e-39
0.032094281 -0.067602873 0.71699995 9.5580747e-39
0.033459991 -0.067602858 0.71699995 1.028595e-38
0.034825709 -0.067602873 0.71699995 1.1038942e-38
0.036191426 -0.067602873 0.71699995 8.177706e-39
0.03766191 -0.067791447 0.71900004 5.3379592e-39
0.039031431 -0.067791447 0.71899998 5.3268189e-39
0.040400952 -0.067791447 0.71899998 5.3268343e-39
0.041770477 -0.067791462 0.71899998 6.4288757e-39
0.043139998 -0.067791462 0.71899998 7.5412965e-39
0.044509523 -0.067791447 0.71899998 4.2255244e-39
0.045942865 -0.067885742 0.72000003 8.3192708e-40
0.047445711 -0.068074316 0.722 1.2871697e-39
0.048888586 -0.068168595 0.72300005 1.6606017e-39
0.050404765 -0.068357155 0.72499996 1.8464181e-39
0.05185714 -0.068451449 0.72599995 2.0315423e-39
0.053386677 -0.068640023 0.72800004 3.8718577e-39
0.054848567 -0.068734303 0.72899997 5.7132452e-39
0.056237146 -0.068734318 0.72900003 6.3618474e-39
0.057783805 -0.068922877 0.73099995 7.0039518e-39
0.059176181 -0.068922877 0.73099995 7.0021301e-39
0.061479997 -0.069960028 0.74200004 7.0035706e-39
0.062893339 -0.069960043 0.74200004 6.8188304e-39
