# .PCD v0.7 - Point Cloud Data file format
VERSION 0.7
FIELDS x y z rgb
SIZE 4 4 4 4
TYPE F F F F
COUNT 1 1 1 1
WIDTH 972
HEIGHT 1
VIEWPOINT 0 0 0 1 0 0 0
POINTS 972
DATA ascii
0.041148581 0.042592391 0.75800002 1.1067454e-38
0.042760976 0.042760953 0.76100004 1.1158945e-38
0.044210512 0.042760953 0.76099998 1.0975288e-38
-0.035373311 0.044036202 0.75799996 6.635137e-39
-0.033705696 0.043745715 0.75300002 7.1865283e-39
-0.032228548 0.043687627 0.75199997 7.6453625e-39
-0.030714288 0.043571435 0.75000006 8.0130786e-39
-0.029285716 0.043571427 0.75000006 8.28892e-39
-0.027782856 0.043455224 0.74800009 7.8261314e-39
-0.026322853 0.043397151 0.74700004 7.270099e-39
-0.024899995 0.043397158 0.74699998 6.1680772e-39
-0.02341431 0.043280952 0.74500012 5.0703799e-39
-0.021995245 0.043280955 0.74500006 3.214681e-39
-0.020520926 0.043164764 0.74300003 1.2911368e-39
-0.019105678 0.043164779 0.74299997 2.298435e-39
-0.017619029 0.042990483 0.73999995 3.3122099e-39
-0.016209498 0.042990491 0.73999995 1.7466989e-39
-0.01477997 0.042932387 0.73900002 9.4387261e-41
-0.013372388 0.042932395 0.73900002 2.2044625e-39
-0.01196475 0.042932387 0.73900002 4.3277982e-39
-0.010557141 0.042932384 0.73900002 8.0209455e-39
-0.009149503 0.042932384 0.73900002 1.1595376e-38
-0.0077418964 0.042932387 0.73900008 7.4480919e-39
-0.0063171163 0.042816199 0.73699999 3.2175382e-39
-0.0049133301 0.042816181 0.73700005 3.1238866e-39
-0.0035095101 0.042816184 0.73700005 3.0374489e-39
-0.002105694 0.042816181 0.73699999 6.4457824e-39
-0.00070187432 0.042816196 0.73699999 9.7583342e-39
0.00070194172 0.042816188 0.73699999 1.1976035e-38
0.0021057317 0.042816192 0.73700005 1.4188403e-38
0.0035095478 0.042816192 0.73700005 1.585837e-38
0.0049133413 0.042816184 0.73699999 1.74185e-38
0.0063343048 0.04293238 0.73900002 1.7608988e-38
0.007741916 0.042932384 0.73900002 1.7780035e-38
0.0091495207 0.042932387 0.73900008 1.5200323e-38
0.010528581 0.042816184 0.73699999 1.2513392e-38
0.0119324 0.042816196 0.73699999 1.3158726e-38
0.013372405 0.042932391 0.73900002 1.3799409e-38
0.014779986 0.042932376 0.73900002 1.4446908e-38
0.016187623 0.042932376 0.73900002 1.5086896e-38
0.017595259 0.042932391 0.73900002 1.0962202e-38
0.01908002 0.043106668 0.74200004 6.7158588e-39
0.020493345 0.04310666 0.74200004 3.3982735e-39
0.021906668 0.043106664 0.7420001 9.2590796e-41
0.023351427 0.043164767 0.74300003 2.8480508e-39
0.024766676 0.043164779 0.74300003 5.6214405e-39
0.026181923 0.043164782 0.74299997 7.8355678e-39
0.027597141 0.043164764 0.74300003 9.9434429e-39
0.029168559 0.043397155 0.74700004 6.9942688e-39
0.03071429 0.043571431 0.75000006 4.0619831e-39
0.032142837 0.043571431 0.75000006 4.1376686e-39
0.033571433 0.043571427 0.75000006 4.2356124e-39
0.034999978 0.04357142 0.75000006 5.0535321e-39
0.036525708 0.043687616 0.75200003 5.9030847e-39
0.038008597 0.043745715 0.75300002 8.3995778e-39
0.039547622 0.043861903 0.75500005 1.0882355e-38
0.041040044 0.043920007 0.75600004 1.088127e-38
0.042704802 0.044152394 0.75999999 1.0881284e-38
0.044152409 0.044152383 0.76000005 1.0515034e-38
-0.035373341 0.045480005 0.75800002 7.4602244e-39
-0.033795249 0.045299999 0.75500005 7.7361092e-39
-0.032271419 0.04518 0.75300002 8.0130506e-39
-0.030796191 0.045120005 0.75200003 8.6569739e-39
-0.029285714 0.044999994 0.75000006 9.3001839e-39
-0.02785714 0.045000009 0.75 8.8417253e-39
-0.026358088 0.044879999 0.74800003 8.380401e-39
-0.024900008 0.044819996 0.74699998 6.9099625e-39
-0.023477154 0.044819999 0.74700004 5.346587e-39
-0.02199525 0.044699989 0.74500012 3.403314e-39
-0.020576185 0.044700004 0.74500012 1.377908e-39
-0.019105705 0.044580013 0.74300003 3.8664319e-39
-0.017666662 0.044520002 0.74200004 6.4450004e-39
-0.016209509 0.044400003 0.73999995 5.4301465e-39
-0.014779974 0.044340018 0.73900002 4.5017414e-39
-0.013372391 0.044340011 0.73900002 4.9630643e-39
-0.011964757 0.044340003 0.73900002 5.5104913e-39
-0.010557121 0.044340003 0.73900002 6.9952861e-39
-0.0091495104 0.044340018 0.73900002 8.3828743e-39
-0.0077419039 0.04434 0.73900002 5.6113175e-39
-0.0063342918 0.044340014 0.73900002 2.9398653e-39
-0.0049132966 0.044220012 0.73699999 2.3892377e-39
-0.0035095101 0.044220001 0.73700005 1.84001e-39
-0.0021056903 0.044219993 0.73700005 3.4062273e-39
-0.0007019004 0.044219997 0.73699999 4.970997e-39
0.00070191937 0.044220008 0.73699999 6.1698583e-39
0.0021057355 0.044220004 0.73699999 7.3641696e-39
0.0035095236 0.044220008 0.73700005 8.3844942e-39
0.0049133413 0.044220008 0.73700005 9.3957637e-39
0.0063342992 0.04434 0.73900002 1.0132962e-38
0.0077209771 0.044220001 0.73699999 1.0863292e-38
0.0091247652 0.044220004 0.73700005 1.0219317e-38
0.010528584 0.044219997 0.73700005 9.5714543e-39
0.011932401 0.044220008 0.73700005 1.0036021e-38
0.01333622 0.044220008 0.73699999 1.050988e-38
0.014780006 0.044339992 0.73900008 1.0866792e-38
0.016187618 0.044340011 0.73900002 1.124061e-38
0.017595256 0.044340007 0.73900002 9.573957e-39
0.019080004 0.044519994 0.74200004 7.9072344e-39
0.020493355 0.044519991 0.74200004 6.991696e-39
0.021906652 0.044519991 0.7420001 6.1533454e-39
0.023320002 0.044519991 0.74200004 4.6847019e-39
0.024766708 0.044580016 0.74299997 3.3089757e-39
0.026181927 0.044580013 0.74300003 6.4432334e-39
0.027597174 0.044580016 0.74300003 9.572473e-39
0.029168548 0.044820007 0.74700004 9.6725748e-39
0.03071429 0.044999991 0.75000006 9.8551345e-39
0.032142866 0.045000002 0.75 9.667481e-39
0.033660974 0.045120001 0.75199997 9.5602509e-39
0.035093337 0.045120008 0.75199997 8.7337622e-39
0.036525756 0.045120001 0.75199997 7.9227425e-39
0.038008612 0.04518 0.75300002 1.1066746e-38
0.039547626 0.045300011 0.75500005 1.4189146e-38
0.040985737 0.045300007 0.75500005 1.2721565e-38
0.042704787 0.045600016 0.75999999 1.1153202e-38
0.044152398 0.045600019 0.76000005 1.0973134e-38
-0.035373319 0.046923812 0.75799996 8.199946e-39
-0.033839975 0.046800017 0.75600004 8.284597e-39
-0.032357134 0.046738099 0.75500005 8.3793206e-39
-0.030796198 0.046552386 0.75200003 9.3019986e-39
-0.029363807 0.046552382 0.75199997 1.0223232e-38
-0.027931444 0.046552371 0.75200003 9.8602044e-39
-0.026358109 0.046304762 0.74800003 9.4889122e-39
-0.024933329 0.046304759 0.74800003 7.5607213e-39
-0.023477137 0.046242863 0.74699998 5.6199523e-39
-0.022054305 0.046242867 0.74700004 3.5819683e-39
-0.020576214 0.046119057 0.74500012 1.4740567e-39
-0.019157147 0.046119053 0.74500006 5.5277343e-39
-0.017666655 0.045933332 0.74200004 9.4813353e-39
-0.01625333 0.045933343 0.74200004 9.2112211e-39
-0.014799984 0.045809526 0.74000001 8.8359687e-39
-0.013372371 0.045747619 0.73900008 7.8189456e-39
-0.011964761 0.045747623 0.73900002 6.7154917e-39
-0.010557124 0.045747634 0.73900002 5.9743575e-39
-0.0091495141 0.045747627 0.73900002 5.1524946e-39
-0.0077419057 0.04574763 0.73900002 3.8578223e-39
-0.0063342713 0.04574763 0.73900002 2.5753666e-39
-0.0049266592 0.045747627 0.73900002 1.5616028e-39
-0.0035190226 0.045747623 0.73900002 5.5212561e-40
-0.0021057145 0.045623817 0.73700005 3.6773295e-40
-0.00070189667 0.045623809 0.73699999 9.5085107e-41
0.00070192124 0.045623805 0.73699999 3.6771193e-40
0.0021057392 0.045623805 0.73699999 5.5573255e-40
0.0035047533 0.045561898 0.73600006 9.1881459e-40
0.004913345 0.045623802 0.73700005 1.2933326e-39
0.0063171629 0.045623817 0.73700005 2.5718577e-39
0.0077209808 0.045623813 0.73699999 3.8657803e-39
0.0091247996 0.045623809 0.73699999 5.2422127e-39
0.010528587 0.045623802 0.73700005 6.6237038e-39
0.011932406 0.045623805 0.73700005 6.9042466e-39
0.013336197 0.045623809 0.73699999 7.183339e-39
0.014780002 0.045747627 0.73900002 7.2694334e-39
0.01618764 0.045747623 0.73900002 7.3666372e-39
0.017619064 0.045809526 0.73999995 8.2774462e-39
0.019080009 0.045933329 0.7420001 9.1165409e-39
0.020493334 0.045933332 0.74200004 1.0692113e-38
0.021906685 0.045933347 0.74200004 1.2148525e-38
0.023320008 0.045933329 0.7420001 6.5206874e-39
0.024766682 0.04599525 0.74300003 9.2447443e-40
0.026252387 0.046119057 0.74500006 5.0552893e-39
0.027671453 0.046119049 0.74500006 9.2123351e-39
0.029207624 0.046304762 0.74800003 1.2451385e-38
0.030714264 0.046428572 0.75000006 1.5568747e-38
0.032142866 0.046428565 0.75000006 1.5208914e-38
0.033660997 0.046552382 0.75199997 1.481466e-38
0.035093356 0.046552382 0.75200003 1.2398232e-38
0.036525752 0.046552379 0.75199997 9.9517751e-39
0.03810953 0.046738099 0.75500005 1.3754797e-38
0.039547637 0.04673811 0.755 1.7507845e-38
0.041040022 0.046800006 0.75600004 1.4478698e-38
0.042704798 0.047047626 0.76000005 1.1437705e-38
0.044152413 0.047047626 0.75999999 1.1432664e-38
0.045600023 0.047047626 0.76000005 1.1342623e-38
-0.035373326 0.048367627 0.75800002 8.4826425e-39
-0.033840001 0.048240002 0.75600004 8.2939101e-39
-0.032357126 0.048176199 0.755 8.1927854e-39
-0.030837128 0.048048574 0.75300002 8.2871684e-39
-0.029402843 0.048048571 0.75300002 8.2975871e-39
-0.02793142 0.047984757 0.75199997 8.5723915e-39
-0.026428591 0.04785715 0.75000006 8.7560485e-39
-0.025000023 0.047857136 0.75000006 7.6486275e-39
-0.023508566 0.047729518 0.74800003 6.5415471e-39
-0.02205429 0.047665719 0.74700004 3.679189e-39
-0.020631433 0.047665719 0.74700004 8.2691323e-40
-0.019208575 0.04766573 0.74699998 4.7873232e-39
-0.017690474 0.047410481 0.74300003 8.7520562e-39
-0.016275225 0.047410499 0.74299997 1.050341e-38
-0.014799995 0.047219042 0.74000001 1.2251125e-38
-0.013390465 0.047219053 0.74000001 1.1787255e-38
-0.011964766 0.047155254 0.73900002 1.1323069e-38
-0.01055713 0.04715525 0.73900002 1.0488311e-38
-0.0091494955 0.047155246 0.73900002 9.5584516e-39
-0.0077419132 0.04715525 0.73900002 8.7380054e-39
-0.0063342769 0.047155242 0.73900002 7.8189329e-39
-0.0049266666 0.047155242 0.73900002 6.7158308e-39
-0.0035190301 0.047155257 0.73900002 5.6023254e-39
-0.0021056829 0.047027621 0.73699999 3.7656155e-39
-0.00070189481 0.047027614 0.73700005 1.9289056e-39
0.0007019231 0.047027618 0.73700005 3.6748562e-39
0.0021057411 0.047027618 0.73699999 5.5108486e-39
0.0035047589 0.046963807 0.73600006 5.7981933e-39
0.0049066823 0.046963818 0.73600006 6.0615043e-39
0.0063171647 0.047027614 0.73700005 4.0411234e-39
0.0077209566 0.047027618 0.73699999 2.0207439e-39
0.0091247745 0.047027633 0.73699999 3.4922656e-39
0.010528593 0.047027625 0.73699999 4.9605755e-39
0.01193238 0.047027614 0.73700005 5.7017335e-39
0.013336199 0.047027614 0.73700005 6.5286369e-39
0.014740016 0.047027618 0.73699999 6.1649061e-39
0.016187632 0.047155239 0.73900002 5.8007493e-39
0.017619055 0.047219042 0.74000001 9.3930507e-39
0.019079993 0.047346659 0.7420001 1.2895448e-38
0.020493343 0.047346659 0.74200004 1.3828244e-38
0.021906668 0.047346674 0.74200004 1.4758345e-38
0.023351442 0.047410484 0.74300003 1.1792612e-38
0.024766689 0.047410499 0.74299997 8.8330807e-39
0.02625238 0.04753809 0.74500012 8.4646737e-39
0.027671421 0.047538105 0.74500006 8.0246029e-39
0.029207608 0.047729515 0.74800003 1.1615607e-38
0.030714294 0.047857143 0.75000006 1.5117184e-38
0.03214284 0.047857147 0.75000006 1.511789e-38
0.033660989 0.04798476 0.75199997 1.511103e-38
0.035093348 0.04798476 0.75200003 1.186876e-38
0.036574304 0.048048563 0.75300002 8.6697089e-39
0.038109541 0.048176214 0.755 1.3004039e-38
0.0396 0.048240002 0.75600004 1.7322804e-38
0.041148592 0.048367638 0.75799996 1.5213443e-38
0.042704813 0.048495255 0.75999999 1.3185477e-38
0.044152398 0.048495259 0.76000005 1.2078376e-38
-0.03537333 0.049811441 0.75799996 8.6627304e-39
-0.033839975 0.049679995 0.75600004 8.3990579e-39
-0.032399967 0.049680009 0.75600004 8.0148639e-39
-0.030919045 0.049614277 0.75500005 7.1718525e-39
-0.029402824 0.04948286 0.75300002 6.3568153e-39
-0.027931402 0.049417134 0.75199997 7.1915884e-39
-0.02649904 0.049417138 0.75200003 8.0177492e-39
-0.024999989 0.04928571 0.75000006 7.7365044e-39
-0.023571445 0.04928571 0.75000006 7.3615954e-39
-0.0220838 0.049154278 0.74800003 3.7656295e-39
-0.020631446 0.049088586 0.74700004 1.8476681e-40
-0.019208562 0.049088582 0.74700004 4.1347735e-39
-0.017690441 0.04882573 0.74299997 8.0109108e-39
-0.016275223 0.048825733 0.74300003 1.1890278e-38
-0.014799977 0.048628576 0.73999995 1.5656973e-38
-0.013390444 0.048628587 0.73999995 1.5847464e-38
-0.011980942 0.048628576 0.74000001 1.5930687e-38
-0.010571409 0.048628591 0.74000001 1.5005872e-38
-0.0091618765 0.048628587 0.73999995 1.3993514e-38
-0.0077419169 0.048562866 0.73900002 1.3533245e-38
-0.0063342825 0.048562862 0.73900002 1.3072272e-38
-0.0049266443 0.048562858 0.73900002 1.1880204e-38
-0.0035190338 0.048562873 0.73900002 1.0673047e-38
-0.0021114273 0.048562862 0.73900002 7.1635456e-39
-0.00070186501 0.048431434 0.73699999 3.6756031e-39
0.00070192496 0.048431423 0.73700005 7.0760402e-39
0.0021028707 0.048365712 0.73600006 1.040296e-38
0.0035047682 0.048365727 0.73600006 1.0609266e-38
0.0049066879 0.048365723 0.73600006 1.0768128e-38
0.0063171405 0.048431419 0.73700005 5.4186558e-39
0.0077209584 0.048431434 0.73700005 9.2197031e-41
0.0091247763 0.04843143 0.73699999 1.7455961e-39
0.010528593 0.048431426 0.73699999 3.308603e-39
0.011964775 0.048562858 0.73900002 4.5968209e-39
0.01337241 0.048562873 0.73900002 5.7935662e-39
0.014779991 0.048562862 0.73900002 5.0603326e-39
0.016209539 0.048628576 0.74000001 4.2402983e-39
0.017619072 0.048628576 0.73999995 1.0507383e-38
0.01908003 0.048760016 0.74200004 1.6675837e-38
0.020493325 0.048760001 0.74200004 1.6966462e-38
0.021906676 0.048760001 0.74200004 1.7239771e-38
0.023351448 0.048825733 0.74299997 1.7058568e-38
0.024766665 0.048825718 0.74300003 1.67493e-38
0.02625238 0.048957158 0.74500006 1.176252e-38
0.027671445 0.048957154 0.74500006 6.8152978e-39
0.029207645 0.049154285 0.74800003 1.0776477e-38
0.030714268 0.04928571 0.75000006 1.4649732e-38
0.03214287 0.049285702 0.75000006 1.5033598e-38
0.033660982 0.049417142 0.75200003 1.5279264e-38
0.035093371 0.049417149 0.75199997 1.1296192e-38
0.036574323 0.049482863 0.75300002 7.3782232e-39
0.038109548 0.049614288 0.75500005 1.226821e-38
0.03960003 0.049679998 0.75600004 1.705156e-38
0.041148584 0.049811434 0.75800002 1.5958514e-38
0.042704798 0.04994287 0.76000005 1.4839941e-38
0.044036198 0.049811438 0.75800002 1.2719429e-38
0.04536001 0.049679998 0.75600004 1.0517181e-38
-0.035373334 0.051255241 0.75800002 5.3573756e-39
-0.033839967 0.051120006 0.75600004 6.9218357e-39
-0.032399993 0.051119994 0.75600004 8.4794336e-39
-0.030919036 0.051052392 0.755 7.9154866e-39
-0.029402861 0.050917134 0.75300002 7.4502009e-39
-0.027968546 0.050917145 0.75300002 9.3044789e-39
-0.026499046 0.05084952 0.75200003 1.1141563e-38
-0.025066653 0.050849531 0.75200003 9.3956277e-39
-0.023634261 0.050849527 0.75199997 7.637448e-39
-0.022142874 0.050714273 0.75000006 4.045068e-39
-0.020714302 0.050714288 0.75000006 3.6806365e-40
-0.019208575 0.050511435 0.74700004 2.208005e-39
-0.017690467 0.050240953 0.74300003 4.1444901e-39
-0.016275218 0.050240967 0.74300003 6.2714608e-39
-0.014839981 0.050173335 0.74200004 8.4963571e-39
-0.013390457 0.050038099 0.73999995 1.0975595e-38
-0.011980925 0.050038099 0.73999995 1.3556656e-38
-0.010557141 0.049970482 0.73900002 1.4196256e-38
-0.0091495346 0.049970482 0.73900008 1.4845915e-38
-0.0077418983 0.049970482 0.73900002 1.4190505e-38
-0.0063428227 0.050038107 0.73999995 1.3546579e-38
-0.0049333181 0.050038092 0.74000001 1.3451871e-38
-0.0035237854 0.050038103 0.74000001 1.3454339e-38
-0.0021114328 0.049970474 0.73900002 8.2777853e-39
-0.00070379843 0.049970489 0.73900002 3.1260544e-39
0.00070192869 0.04983525 0.73699999 7.920897e-39
0.00210288 0.049767621 0.73600006 1.2721524e-38
0.0035047738 0.049767632 0.73600006 1.3091087e-38
0.0049066674 0.049767613 0.73600006 1.3452579e-38
0.0063085873 0.049767617 0.73600006 8.1934496e-39
0.0077209603 0.049835227 0.73700005 2.939096e-39
0.0091247782 0.049835227 0.73700005 3.4908265e-39
0.010528596 0.049835239 0.73700005 4.1351127e-39
0.011932413 0.049835235 0.73699999 5.7038509e-39
0.013372405 0.049970485 0.73900002 7.2643424e-39
0.01478001 0.049970474 0.73900002 4.872319e-39
0.016187621 0.049970489 0.73900002 2.3881993e-39
0.01761906 0.050038103 0.74000001 8.1143869e-39
0.019028595 0.050038099 0.73999995 1.3751876e-38
0.020493332 0.050173327 0.7420001 1.4757772e-38
0.021906657 0.050173324 0.74200004 1.5767608e-38
0.02332001 0.050173324 0.74200004 1.4841365e-38
0.024766698 0.050240964 0.74300003 1.3914668e-38
0.026181946 0.05024096 0.74299997 9.0153672e-39
0.027745694 0.050511435 0.74700004 4.1359072e-39
0.0292076 0.050579049 0.74800003 7.6439696e-39
0.030632382 0.050579049 0.74800003 1.1151351e-38
0.032142844 0.050714284 0.75000006 1.2254867e-38
0.033571444 0.050714284 0.75000006 1.3431065e-38
0.035093363 0.050849531 0.75199997 1.0485426e-38
0.036574312 0.050917134 0.75300002 7.6558316e-39
0.038109526 0.051052395 0.75500005 1.1070692e-38
0.039600033 0.051120009 0.75600004 1.4574828e-38
0.041148607 0.051255245 0.75799996 1.3649336e-38
0.042704787 0.051390488 0.76000005 1.2720899e-38
0.044152424 0.051390503 0.75999999 1.1894342e-38
-0.035373311 0.052699067 0.75800002 1.9465423e-39
-0.033839963 0.052560017 0.75600004 5.4513999e-39
-0.03239999 0.052560005 0.75600004 8.8406673e-39
-0.030919055 0.052490484 0.75500005 8.6519376e-39
-0.029480921 0.052490491 0.755 8.4761854e-39
-0.027968559 0.052351419 0.75300002 1.1342125e-38
-0.026499024 0.052281905 0.75199997 1.4186889e-38
-0.025066661 0.052281905 0.75200003 1.1067008e-38
-0.023634268 0.052281905 0.75199997 7.9205103e-39
-0.022142868 0.052142862 0.75 4.2247944e-39
-0.0207143 0.052142847 0.75000006 5.5137591e-40
-0.019208586 0.051934291 0.74700004 3.6770632e-40
-0.0177381 0.05179524 0.74500012 1.8800661e-40
-0.016275212 0.051656213 0.74299997 7.3868748e-40
-0.014839999 0.051586661 0.74200004 1.306935e-39
-0.013390467 0.051447626 0.74000001 6.1849951e-39
-0.011980932 0.051447622 0.74000001 1.106129e-38
-0.010557123 0.051378112 0.73900002 1.3376593e-38
-0.0091495402 0.051378101 0.73900002 1.557059e-38
-0.0077523645 0.051447619 0.74000001 1.4835536e-38
-0.006342832 0.05144763 0.74000001 1.4003641e-38
-0.0049466491 0.051586665 0.74200004 1.5110337e-38
-0.003533324 0.051586665 0.74200004 1.6108973e-38
-0.0021142641 0.051447615 0.74000001 9.367599e-39
-0.00070380216 0.051378105 0.73900002 2.5858048e-39
0.00070193241 0.051239047 0.73699999 8.7596316e-39
0.0021057187 0.05123904 0.73700005 1.4925922e-38
0.0035095403 0.051239047 0.73700005 1.5488454e-38
0.0049133562 0.051239043 0.73700005 1.6029696e-38
0.0063171759 0.051239062 0.73699999 1.0871756e-38
0.007720992 0.051239055 0.73699999 5.7027747e-39
0.0091247819 0.051239043 0.73700005 5.3268189e-39
0.010557151 0.051378094 0.73900002 4.9727893e-39
0.011964788 0.051378105 0.73900002 6.9110583e-39
0.013372398 0.051378105 0.73900002 8.7419935e-39
0.014780005 0.051378105 0.73900002 4.6839774e-39
0.016209546 0.051447626 0.73999995 5.5717168e-40
0.017666668 0.051586673 0.74200004 5.7172291e-39
0.019080019 0.051586665 0.74200004 1.0785447e-38
0.020493345 0.051586665 0.74200004 1.2545074e-38
0.021936208 0.051656201 0.74300003 1.4275591e-38
0.023320016 0.051586661 0.74200004 1.2624694e-38
0.024766674 0.051656201 0.74300003 1.0952573e-38
0.026252396 0.051795244 0.74500006 6.1562517e-39
0.027671432 0.05179524 0.74500012 1.3826318e-39
0.029207638 0.052003805 0.74800003 4.5115281e-39
0.030714275 0.052142862 0.75000006 7.647222e-39
0.032142844 0.052142847 0.75000006 9.5865434e-39
0.033660967 0.052281898 0.75200003 1.1504271e-38
0.03509336 0.052281912 0.75199997 9.6502857e-39
0.03667143 0.05249048 0.75500005 7.8362642e-39
0.038160011 0.052560009 0.75600004 9.967223e-39
0.039600041 0.052560002 0.75600004 1.2082333e-38
0.041148577 0.052699063 0.75800002 1.1342651e-38
0.042704802 0.052838109 0.75999999 1.0608306e-38
0.044326697 0.05304667 0.76299995 1.1067824e-38
0.045780022 0.053046674 0.76299995 1.1527729e-38
-0.033839989 0.054000001 0.75600004 3.1354305e-39
-0.032399986 0.054000016 0.75600004 4.8824041e-39
-0.030919017 0.05392858 0.755 7.3712349e-39
-0.02948094 0.053928584 0.75500005 9.8583897e-39
-0.027968543 0.053785719 0.75300002 1.161373e-38
-0.026499029 0.053714283 0.75199997 1.3370819e-38
-0.025066666 0.05371429 0.75200003 1.1986486e-38
-0.023571415 0.053571437 0.75 1.0589862e-38
-0.02214287 0.053571422 0.75000006 6.0686789e-39
-0.020631427 0.053357154 0.74699998 1.6534005e-39
-0.019208573 0.053357158 0.74700004 3.8617572e-39
-0.017738076 0.053214286 0.74500006 6.1544216e-39
-0.016275236 0.053071439 0.74300003 6.6261589e-39
-0.014839992 0.053000003 0.7420001 7.0720577e-39
-0.013390448 0.052857146 0.73999995 7.1811067e-39
-0.011980945 0.052857149 0.74000001 7.2694642e-39
-0.010557124 0.052785728 0.73900002 8.7511383e-39
-0.0091495197 0.052785713 0.73900008 1.031663e-38
-0.0077523477 0.052857142 0.73999995 1.151442e-38
-0.006342845 0.052857142 0.74000001 1.2797262e-38
-0.0049466696 0.052999996 0.74200004 1.3175738e-38
-0.0035333184 0.052999996 0.74200004 1.3646649e-38
-0.0021114179 0.052785721 0.73900002 1.0307102e-38
-0.00070380775 0.052785721 0.73900002 7.0896902e-39
0.00070193427 0.052642863 0.73699999 1.0688553e-38
0.0021057541 0.052642863 0.73699999 1.437669e-38
0.0035190454 0.052785721 0.73900002 1.5947231e-38
0.0049133338 0.052642848 0.73699999 1.7510526e-38
0.0063171498 0.05264286 0.73699999 1.2987209e-38
0.0077209678 0.05264286 0.73699999 8.3574001e-39
0.0091247857 0.052642871 0.73699999 8.7319069e-39
0.010528574 0.05264286 0.73700005 9.1201311e-39
0.011932393 0.052642856 0.73700005 1.1518331e-38
0.013372394 0.052785732 0.73900002 1.3904545e-38
0.01478 0.052785721 0.73900002 8.5607916e-39
0.016209535 0.052857138 0.74000001 3.2146039e-39
0.017666675 0.052999992 0.7420001 4.6014634e-39
0.01908 0.052999996 0.74200004 6.0762936e-39
0.020493353 0.052999988 0.74200004 8.1918199e-39
0.021906678 0.053000003 0.74200004 1.037863e-38
0.023319999 0.052999992 0.74200004 1.0951145e-38
0.024766678 0.05307145 0.74300003 1.1482021e-38
0.026181927 0.053071447 0.74299997 6.9852626e-39
0.027671458 0.053214289 0.74500006 2.4810648e-39
0.029207651 0.053428564 0.74800003 4.0473367e-39
0.030714275 0.053571425 0.75000006 5.6149721e-39
0.032142852 0.053571425 0.75000006 8.5665957e-39
0.033660959 0.053714279 0.75200003 1.1604317e-38
0.035093352 0.05371429 0.75200003 9.9440763e-39
0.036671467 0.053928591 0.755 8.3876261e-39
0.038109545 0.05392858 0.75500005 1.0420294e-38
0.039600015 0.054000001 0.7560001 1.2443913e-38
0.041148599 0.054142874 0.75800002 1.1802149e-38
0.042704787 0.054285716 0.76000005 1.1158585e-38
0.044326697 0.054499995 0.76300001 1.1434808e-38
0.046080012 0.054857131 0.76800001 1.1802159e-38
-0.033929531 0.055586662 0.75800002 8.2693565e-40
-0.032485709 0.055586677 0.75800002 9.3023377e-40
-0.030959984 0.055440012 0.75600004 6.0916602e-39
-0.029480958 0.055366676 0.75500005 1.1144451e-38
-0.02796855 0.055220008 0.75300002 1.1883485e-38
-0.026499039 0.055146668 0.75199997 1.2539285e-38
-0.025000012 0.055 0.75000006 1.2918145e-38
-0.023571437 0.055000003 0.75000006 1.3165935e-38
-0.022142867 0.054999985 0.75000006 7.9900497e-39
-0.020659031 0.054853331 0.74800003 2.759769e-39
-0.019208586 0.054779995 0.74700004 7.4556141e-39
-0.017738106 0.054633342 0.74500006 1.2059959e-38
-0.016319038 0.054633349 0.74500006 1.2448122e-38
-0.014859986 0.05448667 0.74300003 1.2799654e-38
-0.013426658 0.05441333 0.74200004 8.1063308e-39
-0.011980925 0.054266669 0.73999995 3.4155739e-39
-0.010571394 0.05426668 0.73999995 4.2249023e-39
-0.0091618896 0.054266673 0.74000001 4.9807528e-39
-0.0077523571 0.054266669 0.74000001 8.2914942e-39
-0.0063428245 0.054266665 0.73999995 1.1602618e-38
-0.004933292 0.05426668 0.73999995 1.1332516e-38
-0.0035333352 0.054413341 0.74200004 1.104617e-38
-0.0021114235 0.05419334 0.73900002 1.1307607e-38
-0.00070378726 0.054193337 0.73900002 1.1508574e-38
0.000703823 0.054193348 0.73900002 1.2620364e-38
0.0021114296 0.054193333 0.73900008 1.3736384e-38
0.0035238212 0.054266673 0.73999995 1.6413608e-38
0.0049333535 0.054266669 0.73999995 1.8982803e-38
0.0063343123 0.054193344 0.73900002 1.5024862e-38
0.0077209696 0.054046672 0.73699999 1.1043279e-38
0.0091247875 0.054046672 0.73699999 1.2122692e-38
0.010557141 0.05419334 0.73900002 1.3261365e-38
0.011964777 0.05419334 0.73900002 1.6137378e-38
0.013372383 0.05419334 0.73900008 1.8970944e-38
0.014779994 0.054193337 0.73900002 1.244016e-38
0.016209556 0.054266676 0.73999995 5.8003639e-39
0.017666686 0.054413334 0.74200004 3.5819459e-39
0.019080007 0.054413334 0.7420001 1.2900452e-39
0.020493334 0.054413334 0.74200004 3.8586098e-39
0.021906685 0.054413345 0.74200004 6.4450915e-39
0.023320006 0.05441333 0.7420001 9.3189179e-39
0.024766685 0.054486681 0.74299997 1.2055303e-38
0.026252387 0.054633342 0.74500012 7.821161e-39
0.027671428 0.054633342 0.74500006 3.5909801e-39
0.029207632 0.054853328 0.74800003 3.5820033e-39
0.030714303 0.054999996 0.75000006 3.4995047e-39
0.032142852 0.055 0.75000006 7.5517572e-39
0.033660982 0.055146664 0.75199997 1.1601112e-38
0.035093348 0.055146668 0.75200003 1.0317193e-38
0.036671448 0.055366669 0.755 8.9422446e-39
0.038109526 0.055366673 0.75500005 1.0882344e-38
0.039600018 0.055440012 0.75600004 1.2813051e-38
0.041148566 0.055586677 0.75800002 1.2263126e-38
0.042704772 0.055733349 0.76000005 1.1619924e-38
0.044442873 0.056099996 0.7650001 1.1894001e-38
0.045900021 0.056099996 0.76500005 1.2079828e-38
-0.033929508 0.057030488 0.75800002 3.8657046e-39
-0.032485716 0.057030492 0.75800002 3.7670756e-39
-0.030959977 0.056880008 0.75600004 7.185099e-39
-0.029480925 0.056804772 0.755 1.059165e-38
-0.028042847 0.056804765 0.75500005 1.1424295e-38
-0.026499042 0.056579046 0.75200003 1.2168725e-38
-0.02506665 0.056579053 0.75199997 1.2909925e-38
-0.023571437 0.056428567 0.75000006 1.3543695e-38
-0.022142863 0.056428574 0.75000006 7.6334683e-39
-0.020659052 0.05627808 0.74800009 1.6534747e-39
-0.019234298 0.056278083 0.74800003 6.7249504e-39
-0.017785741 0.056202862 0.74700004 1.1804627e-38
-0.016319046 0.056052387 0.74500006 1.2639063e-38
-0.014859982 0.055901915 0.74300003 1.3561317e-38
-0.013444731 0.055901919 0.74299997 1.0696791e-38
-0.012013324 0.055826668 0.74200004 7.9287583e-39
-0.010571405 0.055676192 0.74000001 7.1825417e-39
-0.0091618709 0.055676203 0.73999995 6.4564855e-39
-0.0077523701 0.055676196 0.74000001 8.1066728e-39
-0.0063428357 0.055676192 0.74000001 9.8562443e-39
-0.0049333032 0.055676192 0.74000001 9.7518854e-39
-0.0035333277 0.05582666 0.74200004 9.7349746e-39
-0.0021114273 0.05560096 0.73900002 1.2150985e-38
-0.00070379284 0.055600952 0.73900002 1.4557459e-38
0.00070381927 0.055600964 0.73900002 1.4561502e-38
0.0021114259 0.055600952 0.73900008 1.4565445e-38
0.0035238082 0.055676185 0.74000001 1.6778463e-38
0.0049333405 0.055676196 0.73999995 1.8992528e-38
0.0063171536 0.055450473 0.73700005 1.6130888e-38
0.007741889 0.055600949 0.73900002 1.3259577e-38
0.0091247894 0.055450473 0.73699999 1.2787468e-38
0.010557162 0.055600956 0.73900002 1.235882e-38
0.011964773 0.055600971 0.73900002 1.6044475e-38
0.01337238 0.05560096 0.73900008 1.9625653e-38
0.014780015 0.055600952 0.73900002 1.3913509e-38
0.016209545 0.055676199 0.73999995 8.18954e-39
0.01766667 0.055826664 0.74200004 4.963423e-39
0.019079989 0.055826664 0.7420001 1.8374288e-39
0.020493342 0.055826657 0.74200004 5.7070753e-39
0.021906666 0.055826675 0.74200004 9.662882e-39
0.023320017 0.055826668 0.74200004 1.0596009e-38
0.024766687 0.055901919 0.74300003 1.1517592e-38
0.026252385 0.056052394 0.74500006 9.0258349e-39
0.027671421 0.056052379 0.74500012 6.6319505e-39
0.029285707 0.056428563 0.75000006 5.8853653e-39
0.030714279 0.056428559 0.75000006 5.0553061e-39
0.032142881 0.056428574 0.75 8.2868139e-39
0.033571426 0.056428574 0.75000006 1.1512171e-38
0.035093341 0.05657905 0.75200003 9.9477323e-39
0.036671426 0.056804772 0.75500005 8.4769869e-39
0.03810956 0.056804772 0.755 1.0418504e-38
0.039600022 0.056880012 0.75600004 1.2448225e-38
0.041148592 0.057030499 0.75800002 1.1989417e-38
0.042704787 0.05718096 0.75999999 1.1531686e-38
0.044442896 0.057557147 0.76500005 1.162102e-38
-0.033929508 0.058474302 0.75799996 6.9149903e-39
-0.032485716 0.058474306 0.75800002 6.6337245e-39
-0.030959973 0.058320016 0.75600004 8.3814492e-39
-0.029480945 0.058242865 0.75500005 1.0039187e-38
-0.027968545 0.058088578 0.75300002 1.0961881e-38
-0.02649905 0.058011424 0.75200003 1.1798517e-38
-0.025066659 0.058011435 0.75199997 1.2917116e-38
-0.023571433 0.057857156 0.75 1.3903162e-38
-0.022142863 0.057857141 0.75000006 7.2553839e-39
-0.020659039 0.057702854 0.74800003 5.5536681e-40
-0.019234283 0.057702854 0.74800003 6.077004e-39
-0.017738087 0.057471443 0.74500006 1.1520117e-38
-0.016319048 0.057471428 0.74500012 1.2925696e-38
-0.014860002 0.057317153 0.74300003 1.4203092e-38
-0.013444755 0.057317153 0.74300003 1.3374728e-38
-0.012013344 0.057239994 0.74200004 1.2424757e-38
-0.010599993 0.057240006 0.74200004 1.0119495e-38
-0.0091866404 0.057240002 0.74200004 7.8257727e-39
-0.0077733453 0.057239991 0.74200004 7.9140335e-39
-0.0063599944 0.057240006 0.74200004 8.0047998e-39
-0.0049466416 0.057240002 0.74200004 8.267759e-39
-0.0035333463 0.057240006 0.7420001 8.4722547e-39
-0.0021114347 0.057008572 0.73900002 1.3004498e-38
-0.00070379657 0.057008583 0.73900002 1.7507005e-38
0.0007038379 0.057008583 0.73900002 1.650225e-38
0.0021114184 0.057008583 0.73900002 1.5394487e-38
0.0035238287 0.057085723 0.73999995 1.723443e-38
0.0049333312 0.057085723 0.74000001 1.8989699e-38
0.0063343029 0.057008576 0.73900002 1.724661e-38
0.0077419095 0.057008579 0.73900008 1.5469054e-38
0.0091247652 0.056854289 0.73699999 1.3408459e-38
0.010557156 0.057008583 0.73900002 1.1428297e-38
0.011964767 0.057008587 0.73900002 1.5872314e-38
0.013390497 0.057085726 0.73999995 2.0268873e-38
0.014800031 0.057085726 0.73999995 1.5398654e-38
0.016209533 0.057085726 0.74000001 1.048902e-38
0.017666677 0.057239998 0.74200004 6.4288645e-39
0.019080028 0.057240013 0.74200004 2.3091983e-39
0.020493323 0.057240002 0.74200004 7.653612e-39
0.021906676 0.057239994 0.74200004 1.2889683e-38
0.023320027 0.057239994 0.74200004 1.1884886e-38
0.024766693 0.057317153 0.74299997 1.0868968e-38
0.02618191 0.057317153 0.74300003 1.0315817e-38
0.027671447 0.057471424 0.74500006 9.6639582e-39
0.029285708 0.057857152 0.75000006 8.1809164e-39
0.030714279 0.057857137 0.75000006 6.6283533e-39
0.032142855 0.057857137 0.75000006 9.0275865e-39
0.033571426 0.057857137 0.75000006 1.1324902e-38
0.034906697 0.057702854 0.74800003 9.66827e-39
0.036671463 0.058242872 0.755 7.9263285e-39
0.038160022 0.058320008 0.75600004 1.004937e-38
0.039600026 0.058320004 0.75600004 1.2075859e-38
0.041148584 0.058474299 0.75800002 1.1805743e-38
0.042985741 0.059014287 0.76500005 1.1436253e-38
0.044442862 0.059014291 0.76500005 1.1434105e-38
-0.03560663 0.060313344 0.76299995 5.6246425e-39
-0.034019012 0.060076199 0.75999999 7.0115496e-39
-0.032485694 0.059918117 0.75799996 8.4812146e-39
-0.030959999 0.059760004 0.75600004 8.1062776e-39
-0.029402843 0.059522867 0.75300002 7.7422076e-39
-0.027968558 0.059522852 0.75300002 9.0326116e-39
-0.026499057 0.059443802 0.75200003 1.0411662e-38
-0.025066664 0.059443817 0.75199997 1.0878096e-38
-0.02357143 0.059285719 0.75000006 1.1426492e-38
-0.022142887 0.059285708 0.75000006 6.0719454e-39
-0.020659026 0.059127614 0.74800003 7.3506372e-40
-0.019208567 0.059048578 0.74700004 3.4093942e-39
-0.017738091 0.058890477 0.74500012 6.0899492e-39
-0.016319051 0.058890492 0.74500006 8.769068e-39
-0.014900016 0.058890477 0.74500012 1.1440496e-38
-0.01344475 0.058732402 0.74299997 1.0040311e-38
-0.012029532 0.058732387 0.74300003 8.7255142e-39
-0.010599984 0.058653332 0.74200004 8.4607262e-39
-0.0091866571 0.058653329 0.74200004 8.2817258e-39
-0.0077837892 0.058732394 0.74299997 8.3728508e-39
-0.006359987 0.058653332 0.74200004 8.460006e-39
-0.0049466603 0.058653329 0.74200004 8.6461699e-39
-0.0035333091 0.058653343 0.74200004 8.9422124e-39
-0.0021114142 0.058416203 0.73900002 1.3280452e-38
-0.00070475211 0.058495253 0.73999995 1.7698973e-38
0.00070194731 0.058258109 0.73699999 1.6592297e-38
0.0021142832 0.05849525 0.74000001 1.5479519e-38
0.0035238157 0.05849525 0.74000001 1.742027e-38
0.0049333479 0.058495246 0.73999995 1.936318e-38
0.0063428823 0.058495238 0.73999995 1.6875745e-38
0.007741902 0.058416191 0.73900008 1.437927e-38
0.0091495402 0.058416206 0.73900008 1.1225596e-38
0.01055715 0.058416206 0.73900002 8.2058314e-39
0.011964787 0.058416199 0.73900002 1.2260269e-38
0.013390485 0.058495238 0.74000001 1.6311348e-38
0.014800018 0.05849525 0.74000001 1.4276891e-38
0.016209552 0.05849525 0.73999995 1.2214529e-38
0.017666684 0.058653325 0.74200004 7.9039904e-39
0.019080009 0.05865334 0.74200004 3.5099121e-39
0.020493329 0.058653325 0.7420001 7.652589e-39
0.021906655 0.058653325 0.74200004 1.179555e-38
0.023320006 0.058653321 0.74200004 1.1051859e-38
0.024766671 0.058732387 0.74300003 1.040043e-38
0.026252376 0.058890481 0.74500012 1.0311851e-38
0.027671441 0.058890481 0.74500006 1.0221071e-38
0.02928571 0.059285719 0.75000006 9.7615138e-39
0.030714286 0.059285711 0.75 9.3916761e-39
0.032142855 0.059285719 0.75000006 1.0498021e-38
0.03357143 0.059285711 0.75000006 1.1602192e-38
0.035093356 0.059443817 0.75199997 9.7590181e-39
0.036671441 0.059680965 0.755 7.918072e-39
0.038109522 0.059680954 0.75500005 9.3997055e-39
0.0396 0.059760004 0.75600004 1.087805e-38
0.041040033 0.059760001 0.75600004 1.0880568e-38
0.042985734 0.06047143 0.76500005 1.0881284e-38
0.044559039 0.060629539 0.76700002 1.0972041e-38
0.046020031 0.060629535 0.76699996 1.1063132e-38
-0.035699982 0.061928559 0.76500005 4.1524187e-39
-0.033929493 0.061361909 0.75799996 7.2081322e-39
-0.032399964 0.061200012 0.75600004 1.0222521e-38
-0.030919062 0.061119061 0.75500005 7.8200498e-39
-0.029480929 0.06111905 0.755 5.3480584e-39
-0.027968539 0.060957149 0.75300002 7.1977163e-39
-0.02653428 0.060957149 0.75300002 9.0305082e-39
-0.025066646 0.060876194 0.75200003 8.9404944e-39
-0.02357146 0.060714286 0.75000006 8.8389003e-39
-0.022142859 0.060714293 0.75000006 4.8705309e-39
-0.020659046 0.060552377 0.74800003 9.1944237e-40
-0.019157134 0.060309529 0.74500006 8.26881e-40
-0.017738095 0.06030954 0.74500006 6.5761115e-40
-0.016319057 0.060309526 0.74500006 4.6195051e-39
-0.01489999 0.06030954 0.74500006 8.565535e-39
-0.013444748 0.060147636 0.74300003 6.8044909e-39
-0.012029499 0.060147632 0.74300003 4.9663293e-39
-0.010614252 0.060147628 0.74299997 6.8073272e-39
-0.0091990344 0.060147632 0.74300003 8.6494223e-39
-0.0077837855 0.060147628 0.74300003 8.8359659e-39
-0.0063600037 0.060066659 0.74200004 8.919538e-39
-0.0049466509 0.06006667 0.74200004 9.0985314e-39
-0.0035237723 0.059904777 0.73999995 9.3113438e-39
-0.0021142398 0.059904773 0.73999995 1.3567788e-38
-0.00070380775 0.059823819 0.73900002 1.7792602e-38
0.00070382672 0.05982383 0.73900002 1.6688805e-38
0.0021114352 0.059823815 0.73900008 1.5578529e-38
0.0035238361 0.059904769 0.73999995 1.7603935e-38
0.0049333386 0.059904769 0.74000001 1.9635063e-38
0.0063342918 0.059823822 0.73900002 1.642224e-38
0.0077419002 0.059823811 0.73900008 1.3165982e-38
0.0091495346 0.059823822 0.73900002 9.0003397e-39
0.010557146 0.059823819 0.73900002 4.8885824e-39
0.011964781 0.059823819 0.73900002 8.5591661e-39
0.013390506 0.059904773 0.73999995 1.2258759e-38
0.014800009 0.059904762 0.74000001 1.3183559e-38
0.016209541 0.059904762 0.74000001 1.3988515e-38
0.017666666 0.06006667 0.74200004 9.3701549e-39
0.019080017 0.060066666 0.74200004 4.6976835e-39
0.020520987 0.060147636 0.74300003 7.6504296e-39
0.02193621 0.060147636 0.74299997 1.0590938e-38
0.023351453 0.060147636 0.74300003 1.031003e-38
0.024766676 0.060147636 0.74299997 9.9430394e-39
0.0262524 0.060309529 0.74500006 1.03093e-38
0.02767141 0.060309533 0.74500012 1.068993e-38
0.029207619 0.06055237 0.74800003 1.1435391e-38
0.030714286 0.060714278 0.75000006 1.2065683e-38
0.032142859 0.06071429 0.75 1.1970259e-38
0.033660956 0.060876183 0.75200003 1.1784781e-38
0.035093375 0.060876194 0.75200003 9.8476137e-39
0.036574315 0.060957145 0.75300002 7.8301672e-39
0.038109556 0.061119054 0.755 8.7532501e-39
0.039547633 0.06111905 0.75500005 9.6830789e-39
0.040985741 0.06111905 0.755 9.9564288e-39
0.042985726 0.061928555 0.76500005 1.0236963e-38
0.04455905 0.062090479 0.76700002 1.0509607e-38
0.046020016 0.062090494 0.76699996 1.0696841e-38
-0.03569999 0.063385703 0.76500005 2.5790324e-39
-0.034153301 0.063219994 0.76300001 4.4279532e-39
-0.032485705 0.062805727 0.75799996 6.3600677e-39
-0.030959988 0.062640011 0.75600004 4.7873666e-39
-0.029598065 0.062805742 0.75799996 3.2236759e-39
-0.028079985 0.062640011 0.75600004 4.5176461e-39
-0.026604762 0.062557146 0.75500005 5.899098e-39
-0.02506665 0.062308569 0.75200003 7.6428696e-39
-0.023634259 0.062308572 0.75199997 9.4748796e-39
-0.022142883 0.06214286 0.75000006 7.2693549e-39
-0.020659035 0.061977133 0.74800003 5.1431493e-39
-0.01915714 0.061728563 0.74500012 2.8476206e-39
-0.0177381 0.061728578 0.74500006 5.5245071e-40
-0.016319059 0.061728578 0.74500012 3.5012297e-39
-0.014859991 0.06156287 0.74300003 6.3459777e-39
-0.013444744 0.061562881 0.74300003 4.8744573e-39
-0.012029495 0.061562881 0.74299997 3.4050992e-39
-0.010614276 0.061562866 0.74300003 4.9702571e-39
-0.0091990288 0.061562866 0.74300003 6.6315469e-39
-0.0077837799 0.061562873 0.74299997 6.4421362e-39
-0.0063600224 0.061480001 0.7420001 6.2523583e-39
-0.0049466714 0.061480001 0.74200004 5.982223e-39
-0.0035333203 0.061479993 0.74200004 5.8197971e-39
-0.002114279 0.0613143 0.73999995 1.1351889e-38
-0.00070378912 0.061231446 0.73900002 1.6878552e-38
0.000703823 0.061231446 0.73900002 1.5767228e-38
0.0021114277 0.061231431 0.73900002 1.4653719e-38
0.0035238231 0.061314292 0.73999995 1.6319666e-38
0.0049333554 0.061314292 0.73999995 1.8079204e-38
0.0063428599 0.061314292 0.74000001 1.446744e-38
0.0077418927 0.061231438 0.73900002 1.0933179e-38
0.009149529 0.061231438 0.73900002 8.6465889e-39
0.010600002 0.061479997 0.74200004 6.4619323e-39
0.012013353 0.061479997 0.74200004 1.0593476e-38
0.013426675 0.061479997 0.7420001 1.4746221e-38
0.014800026 0.0613143 0.73999995 1.5766874e-38
0.016253352 0.061480008 0.74200004 1.6686236e-38
0.017666673 0.061479993 0.7420001 1.0587358e-38
0.01908 0.061479993 0.74200004 4.5050541e-39
0.020520965 0.061562859 0.74300003 7.0897238e-39
0.021936214 0.06156287 0.74300003 9.6686483e-39
0.023351461 0.061562873 0.74299997 1.0126747e-38
0.024833329 0.061728567 0.74500012 1.0681305e-38
0.02625237 0.061728586 0.74500006 1.2161393e-38
0.027745731 0.061894286 0.74700004 1.3641217e-38
0.029285716 0.062142868 0.75000006 1.2626774e-38
0.030714259 0.06214286 0.75000006 1.1699791e-38
0.032228589 0.062308572 0.75199997 1.0866438e-38
0.033705734 0.06239143 0.75300002 1.0137116e-38
0.035140019 0.062391434 0.75300002 1.0403636e-38
0.03667146 0.062557161 0.755 1.0679203e-38
0.038109537 0.062557146 0.75500005 1.2165133e-38
0.039600037 0.062640011 0.75600004 1.3643811e-38
0.041528575 0.06338571 0.76500005 1.3641999e-38
0.042985748 0.06338571 0.76500005 1.3733491e-38
0.044559065 0.063551456 0.76699996 1.3826777e-38
0.046020027 0.063551456 0.76700002 1.3921104e-38
-0.038614258 0.06484285 0.76500005 5.2458098e-39
-0.037157144 0.064842865 0.76500005 3.1253314e-39
-0.035699971 0.064842857 0.76500005 9.2273262e-40
-0.03424285 0.064842857 0.76500005 1.6567173e-39
-0.032614276 0.064503819 0.76100004 2.3956823e-39
-0.030959988 0.064079985 0.7560001 1.7456339e-39
-0.029598098 0.064249545 0.75800002 1.0141898e-39
-0.028080011 0.064080007 0.75600004 1.8410806e-39
-0.026604755 0.06399525 0.75500005 2.6737083e-39
-0.025099987 0.063825712 0.75300002 6.3492903e-39
-0.023634268 0.063740954 0.75200003 1.0038471e-38
-0.022142852 0.063571431 0.75 9.7719086e-39
-0.02065905 0.063401893 0.74800003 9.3880495e-39
-0.01920858 0.06331715 0.74700004 4.9598427e-39
-0.017738102 0.063147627 0.74500012 4.6170262e-40
-0.016319036 0.063147627 0.74500006 2.3037991e-39
-0.014899997 0.063147627 0.74500006 4.1390643e-39
-0.013444766 0.062978104 0.74300003 2.9419659e-39
-0.012061892 0.063147627 0.74500006 1.7495436e-39
-0.01061427 0.062978119 0.74299997 3.2210695e-39
-0.0091990232 0.062978119 0.74299997 4.6014718e-39
-0.007783806 0.062978104 0.74300003 4.0490253e-39
-0.006368557 0.062978096 0.74299997 3.496213e-39
-0.004946664 0.062893316 0.7420001 2.849773e-39
-0.003533337 0.062893339 0.74200004 2.2260075e-39
-0.0021114291 0.06263905 0.73900002 9.0488106e-39
-0.00070379284 0.062639065 0.73900002 1.5850776e-38
0.00070192496 0.062469523 0.73700005 1.4755966e-38
0.002111424 0.062639043 0.73900002 1.3643894e-38
0.0035238138 0.062723801 0.74000001 1.5125457e-38
0.0049333479 0.062723815 0.73999995 1.6494309e-38
0.0063428786 0.062723815 0.73999995 1.2618135e-38
0.0077523813 0.062723815 0.74000001 8.6562957e-39
0.0091619156 0.062723815 0.74000001 8.3750508e-39
0.010600009 0.062893331 0.74200004 8.0116843e-39
0.012013335 0.062893339 0.74200004 1.260636e-38
0.013426686 0.062893339 0.74200004 1.7231195e-38
0.014840008 0.062893339 0.7420001 1.8359468e-38
0.016253332 0.062893339 0.74200004 1.9349477e-38
0.017666684 0.062893331 0.74200004 1.1787662e-38
0.019080006 0.062893331 0.7420001 4.2377872e-39
0.020520968 0.062978104 0.74300003 6.5347592e-39
0.021936217 0.062978104 0.74299997 8.7441809e-39
0.023351435 0.062978089 0.74300003 1.0030585e-38
0.024900004 0.063317157 0.74699998 1.1328126e-38
0.026322834 0.06331715 0.74700004 1.4013604e-38
0.027782861 0.063401908 0.74800003 1.6580725e-38
0.029285718 0.063571416 0.75000006 1.3914658e-38
0.03071429 0.063571431 0.75000006 1.123596e-38
0.032228578 0.063740954 0.75199997 9.8422412e-39
0.033705723 0.063825697 0.75300002 8.4690331e-39
0.035140038 0.063825712 0.75300002 1.0950765e-38
0.036671441 0.063995242 0.755 1.3451179e-38
0.038109519 0.063995235 0.75500005 1.5583892e-38
0.039547626 0.063995242 0.755 1.7601386e-38
0.04098573 0.063995242 0.75500005 1.7418059e-38
0.042985741 0.06484285 0.76500005 1.7140405e-38
0.044559073 0.06501241 0.76700002 1.7142205e-38
-0.038614295 0.066299997 0.76500005 5.9765309e-39
-0.037254281 0.066473357 0.76699996 4.0454422e-39
-0.035699975 0.066299997 0.76500005 2.1158444e-39
-0.034153298 0.066126674 0.76300001 2.8552143e-39
-0.032614265 0.065953344 0.76099998 3.5859214e-39
-0.03116476 0.065953329 0.76100004 2.1150877e-39
-0.029519981 0.065520003 0.75600004 7.3647903e-40
-0.028042851 0.065433338 0.75500005 1.8399399e-39
-0.026534257 0.065260008 0.75300002 2.9416534e-39
-0.025099998 0.065260001 0.75300002 7.0025505e-39
-0.023634272 0.065173328 0.75200003 1.1067696e-38
-0.022142852 0.065000013 0.75000006 1.0972621e-38
-0.020659043 0.064826652 0.74800003 1.0972592e-38
-0.01920856 0.064740017 0.74699998 5.981158e-39
-0.017738078 0.064566672 0.74500006 1.1024099e-39
-0.016319042 0.064566664 0.74500012 3.4018958e-39
-0.014900003 0.064566679 0.74500006 5.6070071e-39
-0.013480935 0.064566672 0.74500006 5.3357872e-39
-0.0120619 0.064566679 0.74500012 5.0516712e-39
-0.01064286 0.064566672 0.74500006 5.0548997e-39
-0.0092237908 0.064566672 0.74500006 5.146738e-39
-0.0077838004 0.064393349 0.74299997 3.4947767e-39
-0.0063685812 0.064393334 0.74300003 1.8442475e-39
-0.0049533341 0.064393334 0.74300003 1.5644348e-39
-0.0035333296 0.064306661 0.7420001 1.1957196e-39
-0.0021142696 0.064133346 0.73999995 5.0729611e-39
-0.00070379843 0.064046681 0.73900002 8.9440943e-39
0.0007038379 0.064046681 0.73900002 1.0049759e-38
0.0021114165 0.064046666 0.73900002 1.1233578e-38
0.0035190547 0.064046673 0.73900002 1.0136217e-38
0.0049333349 0.064133331 0.74000001 9.0423464e-39
0.0063428674 0.064133346 0.73999995 9.7737065e-39
0.0077524018 0.064133354 0.73999995 1.0412641e-38
0.0091866963 0.064306661 0.74200004 9.2051787e-39
0.01059999 0.064306676 0.74200004 7.9087576e-39
0.012013342 0.064306661 0.74200004 1.2617874e-38
0.013426693 0.064306676 0.74200004 1.7334906e-38
0.014839989 0.064306661 0.74200004 1.8355198e-38
0.016253341 0.064306661 0.74200004 1.9360248e-38
0.017690482 0.064393327 0.74300003 1.206746e-38
0.019105729 0.064393342 0.74299997 4.775876e-39
0.020520976 0.064393356 0.74299997 5.6102988e-39
0.021936193 0.064393342 0.74300003 6.355009e-39
0.023414312 0.064566679 0.74500006 8.192777e-39
0.024899991 0.064740017 0.74700004 1.0035641e-38
0.026358116 0.064826667 0.74800003 1.336258e-38
0.027782841 0.064826652 0.74800003 1.6671898e-38
0.02928572 0.065000005 0.75 1.3453362e-38
0.030796211 0.065173328 0.75199997 1.0222191e-38
0.032271452 0.065260008 0.75300002 8.0040795e-39
0.033705741 0.065260001 0.75300002 5.8851074e-39
0.035233341 0.065433353 0.755 9.7662922e-39
0.036671445 0.065433331 0.75500005 1.3743237e-38
0.038160015 0.065520018 0.75600004 1.5583573e-38
0.039600018 0.065520003 0.75600004 1.7514255e-38
0.041040022 0.065520003 0.75600004 1.7329134e-38
0.043098122 0.06647335 0.76699996 1.7145817e-38
0.044617157 0.066560008 0.76800001 1.7143661e-38
-0.038614247 0.06775713 0.76500005 6.7184064e-39
-0.037157129 0.067757137 0.76500005 4.9641783e-39
-0.035699986 0.067757137 0.76500005 3.2228884e-39
-0.034153298 0.067580014 0.76299995 4.0616033e-39
-0.032614283 0.067402855 0.76100004 4.7890958e-39
-0.0311238 0.06731429 0.76000005 2.5757015e-39
-0.029520003 0.066960007 0.75600004 3.7165378e-40
-0.027968554 0.066694282 0.75300002 1.8403085e-39
-0.026534269 0.066694289 0.75300008 3.2246806e-39
-0.025099982 0.066694297 0.75300002 7.6518197e-39
-0.023634279 0.066605709 0.75200003 1.1977076e-38
-0.022142878 0.066428572 0.75000006 1.2261212e-38
-0.020714277 0.066428587 0.75000006 1.2428346e-38
-0.019234277 0.066251412 0.74800003 7.0735136e-39
-0.017785719 0.066162854 0.74700004 1.7463486e-39
-0.016362861 0.066162869 0.74700004 4.4106668e-39
-0.014940001 0.066162884 0.74699998 7.0882539e-39
-0.013480943 0.065985709 0.74500006 7.7422315e-39
-0.012061901 0.065985724 0.74500006 8.2856858e-39
-0.010642866 0.065985709 0.74500012 6.9838221e-39
-0.0092238002 0.065985709 0.74500006 5.7070851e-39
-0.0078047588 0.065985724 0.74500006 2.9390988e-39
-0.0063857213 0.065985709 0.74500006 1.9228337e-40
-0.0049666557 0.065985724 0.74500006 1.8403253e-40
-0.0035380831 0.065808579 0.74300003 1.8445152e-40
-0.0021199973 0.065719999 0.74200004 1.1025094e-39
-0.00070474652 0.065542877 0.73999995 2.0456463e-39
0.00070478598 0.065542877 0.73999995 5.4489715e-39
0.0021142887 0.065542877 0.74000001 8.7492956e-39
0.0035333524 0.065720007 0.74200004 5.1433035e-39
0.004946677 0.065720007 0.74200004 1.5828493e-39
0.0063599981 0.065719992 0.7420001 6.9293635e-39
0.0077733248 0.065719992 0.74200004 1.2155002e-38
0.0091990866 0.065808579 0.74299997 1.0032364e-38
0.010614305 0.065808587 0.74300003 7.8276518e-39
0.012029552 0.065808579 0.74300003 1.2621092e-38
0.013426675 0.065720007 0.74200004 1.7422795e-38
0.014860018 0.065808579 0.74300003 1.8457091e-38
0.016275266 0.065808579 0.74300003 1.9354174e-38
0.017690513 0.065808579 0.74299997 1.234623e-38
0.019105731 0.065808579 0.74300003 5.3369307e-39
0.02052098 0.065808594 0.74300003 4.6840111e-39
0.021936227 0.065808587 0.74300003 3.9600975e-39
0.02341428 0.065985724 0.74500006 6.3503413e-39
0.024900006 0.066162877 0.74700004 8.6624053e-39
0.026322864 0.066162869 0.74699998 1.2729031e-38
0.027782856 0.066251427 0.74800003 1.6675446e-38
0.02928572 0.066428587 0.75000006 1.2913061e-38
0.030796202 0.066605717 0.75199997 9.1143899e-39
0.032228593 0.066605717 0.75200003 6.2502171e-39
0.033705726 0.066694289 0.75300002 3.3197924e-39
0.035233349 0.066871434 0.75500005 8.6689129e-39
0.036671456 0.066871434 0.755 1.3923669e-38
0.03826097 0.067137159 0.75799996 1.5676837e-38
0.040071435 0.06775713 0.76500005 1.7329513e-38
0.041528579 0.067757137 0.7650001 1.7237674e-38
0.043098107 0.067934304 0.76699996 1.7145471e-38
0.044617165 0.068022862 0.76800007 1.7145103e-38
-0.038614281 0.069214277 0.76500005 5.6232132e-39
-0.037157137 0.069214284 0.76500005 3.6828085e-39
-0.035699964 0.069214292 0.76500005 1.7499303e-39
-0.034242846 0.069214277 0.76500005 4.3327756e-39
-0.032571424 0.068761908 0.76000005 6.9120616e-39
-0.031041905 0.06858097 0.75800002 5.7103067e-39
-0.029598083 0.068580963 0.75799996 4.5989621e-39
