# .PCD v0.7 - Point Cloud Data file format
VERSION 0.7
FIELDS x y z rgb
SIZE 4 4 4 4
TYPE F F F F
COUNT 1 1 1 1
WIDTH 954
HEIGHT 1
VIEWPOINT 0 0 0 1 0 0 0
POINTS 954
DATA ascii
0.049431454 -0.087351456 0.71100008 1.5168668e-38
0.050785724 -0.087351456 0.71100008 1.3607117e-38
0.052140012 -0.087351441 0.71100008 1.048759e-38
-0.027188603 -0.088537171 0.73200011 8.6329556e-39
-0.025688574 -0.088174313 0.72900009 8.9084523e-39
-0.024199987 -0.087811425 0.72600007 9.36762e-39
-0.022722896 -0.087448597 0.72300017 9.7360382e-39
-0.02131621 -0.087327629 0.72200012 1.037781e-38
-0.019885713 -0.087085739 0.72000009 1.1022451e-38
-0.01851427 -0.087085739 0.72000009 1.1663505e-38
-0.017119026 -0.086964786 0.7190001 1.2216318e-38
-0.015749505 -0.086964786 0.7190001 1.350023e-38
-0.014319998 -0.086601943 0.71600008 1.4696607e-38
-0.012956186 -0.086601928 0.71600014 1.5429144e-38
-0.011559996 -0.086360037 0.71400011 1.6075227e-38
-0.010185716 -0.08623907 0.71300012 1.6439704e-38
-0.0088028749 -0.085997164 0.71100008 1.6811331e-38
-0.0074380958 -0.085876212 0.7100001 1.7454879e-38
-0.0060685803 -0.085634291 0.70800006 1.8005896e-38
-0.004720001 -0.085634321 0.70800006 1.8375038e-38
-0.0033666852 -0.085513353 0.70700008 1.86484e-38
-0.0020199891 -0.085513368 0.70700008 1.8927502e-38
-0.00067141344 -0.085271448 0.7050001 1.9107582e-38
0.00067050132 -0.08515048 0.70400012 1.9385236e-38
0.0020085641 -0.085029542 0.70300007 1.9575746e-38
0.0033524253 -0.085150495 0.70400012 1.9774146e-38
0.0046866811 -0.085029542 0.70300007 1.9951383e-38
0.0060257181 -0.085029542 0.70300007 2.0141534e-38
0.0073438133 -0.084787637 0.70100009 2.0227647e-38
0.0087038008 -0.085029542 0.70300007 1.9867496e-38
0.010057203 -0.08515048 0.70400012 1.9400424e-38
0.011398126 -0.085150495 0.70400012 1.9772069e-38
0.012739067 -0.085150495 0.70400012 2.0036089e-38
0.014059993 -0.085029557 0.70300007 1.9750533e-38
0.01539901 -0.085029542 0.70300007 1.9391426e-38
0.016785737 -0.085271433 0.7050001 1.9204512e-38
0.018077129 -0.085029542 0.70300007 1.893186e-38
0.01941617 -0.085029542 0.70300007 1.8838575e-38
0.020696204 -0.084787637 0.70100009 1.8657043e-38
0.022031434 -0.084787637 0.70100009 1.8473001e-38
0.023366667 -0.084787637 0.70100009 1.8288262e-38
0.024701899 -0.084787652 0.70100009 1.810209e-38
0.026037132 -0.084787652 0.70100009 1.7916966e-38
0.027333369 -0.084666669 0.70000005 1.7920178e-38
0.028666679 -0.084666669 0.70000011 1.7918363e-38
0.030000022 -0.084666669 0.70000005 1.7921931e-38
0.031333331 -0.084666669 0.70000011 1.7915154e-38
0.037242871 -0.085997164 0.71100008 1.7269828e-38
0.038597159 -0.085997149 0.71100008 1.727271e-38
0.039951432 -0.085997164 0.71100008 1.7273408e-38
0.041305739 -0.085997164 0.71100008 1.7457061e-38
0.04265999 -0.085997164 0.71100008 1.7642182e-38
0.044014301 -0.085997149 0.71100008 1.7914476e-38
0.045496177 -0.08623907 0.71300012 1.8099213e-38
0.046854261 -0.086239085 0.71300018 1.8099921e-38
0.048212357 -0.086239085 0.71300012 1.8014151e-38
0.049431443 -0.085997164 0.71100008 1.7189753e-38
0.050785732 -0.085997164 0.71100008 1.6269255e-38
0.052140001 -0.085997164 0.71100008 1.1771117e-38
0.05349429 -0.085997149 0.71100008 7.2765688e-39
0.05592858 -0.087690473 0.72500008 7.3723601e-39
-0.028739059 -0.087619051 0.73600018 8.4506971e-39
-0.027188575 -0.087142885 0.73200011 8.8173385e-39
-0.025688553 -0.086785719 0.72900009 9.1842951e-39
-0.024199998 -0.086428568 0.72600007 9.5512517e-39
-0.022722876 -0.086071447 0.72300017 1.0010431e-38
-0.021316202 -0.085952401 0.72200012 1.0469609e-38
-0.019885698 -0.085714296 0.72000009 1.1020622e-38
-0.01851427 -0.08571431 0.72000009 1.1479799e-38
-0.017119024 -0.08559525 0.7190001 1.1938987e-38
-0.015749501 -0.085595265 0.7190001 1.2581847e-38
-0.014319961 -0.085238114 0.71600008 1.3224695e-38
-0.01291998 -0.085000008 0.71400011 1.3592036e-38
-0.01156 -0.085000023 0.71400011 1.3959372e-38
-0.010185729 -0.084880978 0.71300012 1.4235232e-38
-0.0087904604 -0.084523842 0.71000004 1.4602211e-38
-0.0074380734 -0.084523827 0.7100001 1.5063177e-38
-0.0060685747 -0.084285736 0.70800006 1.5613479e-38
-0.0047199954 -0.084285736 0.70800012 1.5798592e-38
-0.0033666498 -0.084166691 0.70700008 1.6073059e-38
-0.0020199947 -0.084166706 0.70700008 1.6258201e-38
-0.00067139853 -0.083928585 0.7050001 1.6440074e-38
0.00067050691 -0.083809525 0.70400012 1.6721675e-38
0.0020114698 -0.08380954 0.70400012 1.7010145e-38
0.0033524309 -0.083809555 0.70400012 1.746973e-38
0.0046933345 -0.083809555 0.70400012 1.7940393e-38
0.006025692 -0.083690494 0.70300007 1.8210164e-38
0.0073647327 -0.083690494 0.70300007 1.849249e-38
0.0087162228 -0.083809555 0.70400012 1.8486395e-38
0.010057186 -0.083809555 0.70400012 1.8492131e-38
0.01138189 -0.083690494 0.70300007 1.8672211e-38
0.012720929 -0.083690494 0.70300007 1.8948078e-38
0.014060005 -0.083690479 0.70300007 1.8942697e-38
0.015399045 -0.083690494 0.70300007 1.8957386e-38
0.01676196 -0.083809555 0.70400012 1.8851182e-38
0.018077124 -0.083690509 0.70300007 1.8857638e-38
0.019416204 -0.083690494 0.70300007 1.8756114e-38
0.020696223 -0.083452404 0.70100009 1.8673602e-38
0.022000005 -0.083333358 0.70000011 1.8572436e-38
0.023366686 -0.083452404 0.70100009 1.8394499e-38
0.024701916 -0.083452418 0.70100009 1.8196472e-38
0.026037144 -0.083452418 0.70100009 1.7920554e-38
0.027333355 -0.083333343 0.70000005 1.7918349e-38
0.028666684 -0.083333358 0.70000011 1.7923017e-38
0.030042877 -0.083452404 0.70100009 1.7917281e-38
0.031646673 -0.084166706 0.70700014 1.7914455e-38
0.032993365 -0.084166691 0.70700008 1.8003821e-38
0.034388598 -0.084285721 0.70800006 1.8093486e-38
0.035737153 -0.084285736 0.70800006 1.7727559e-38
0.037085734 -0.084285736 0.70800006 1.7362033e-38
0.038542878 -0.084523827 0.7100001 1.7271655e-38
0.039951462 -0.084642887 0.71100008 1.7093693e-38
0.041305713 -0.084642872 0.71100008 1.6997162e-38
0.042660024 -0.084642887 0.71100008 1.6814591e-38
0.04413807 -0.084880963 0.71300012 1.6903938e-38
0.045496192 -0.084880963 0.71300012 1.6997912e-38
0.04692002 -0.084999993 0.71400005 1.6355048e-38
0.048280019 -0.085000008 0.71400011 1.5811889e-38
0.049640004 -0.085000023 0.71400011 1.4704084e-38
0.05100001 -0.085000008 0.71400011 1.3600629e-38
0.052360009 -0.085000008 0.71400011 1.0484326e-38
0.054397151 -0.086071461 0.72300011 7.3683931e-39
0.055928584 -0.086309552 0.72500008 7.1876087e-39
0.057546683 -0.086666688 0.72800016 6.9120939e-39
0.059014346 -0.086785734 0.72900009 7.0053559e-39
0.060568586 -0.087023839 0.73100007 7.1904926e-39
-0.028778106 -0.086334318 0.73700017 8.4517635e-39
-0.027262863 -0.085982859 0.73400009 8.9098802e-39
-0.025759039 -0.08563146 0.73100007 9.3683234e-39
-0.024199987 -0.08504571 0.72600007 9.8267666e-39
-0.022785705 -0.084928602 0.72500008 1.019411e-38
-0.021316208 -0.084577158 0.72200012 1.0561453e-38
-0.019885702 -0.084342867 0.72000009 1.092879e-38
-0.018514259 -0.084342867 0.72000009 1.1296128e-38
-0.017119033 -0.084225744 0.7190001 1.1571642e-38
-0.015749514 -0.084225744 0.7190001 1.1663488e-38
-0.014319989 -0.083874315 0.71600008 1.1755319e-38
-0.012919986 -0.083640009 0.71400005 1.184715e-38
-0.011543837 -0.083522871 0.71300012 1.1847153e-38
-0.010157124 -0.08328861 0.71100008 1.2122662e-38
-0.0088028749 -0.083288595 0.71100008 1.2306333e-38
-0.0074380529 -0.083171457 0.71000004 1.2765511e-38
-0.0060685934 -0.082937166 0.70800006 1.3133216e-38
-0.0047200141 -0.082937151 0.70800006 1.3316532e-38
-0.0033666778 -0.082820028 0.70700008 1.3408736e-38
-0.0020199853 -0.082820013 0.70700008 1.3592058e-38
-0.00067138363 -0.082585722 0.7050001 1.3684251e-38
0.00067146245 -0.082585737 0.7050001 1.4051233e-38
0.002011453 -0.082468584 0.70400012 1.4423624e-38
0.003352416 -0.082468599 0.70400012 1.5153312e-38
0.0046933773 -0.082468614 0.70400012 1.5898765e-38
0.0060256883 -0.082351446 0.70300007 1.6357951e-38
0.0073647681 -0.082351446 0.70300007 1.672853e-38
0.0087038064 -0.082351461 0.70300007 1.709373e-38
0.010042847 -0.082351446 0.70300007 1.7467177e-38
0.011381886 -0.082351446 0.70300007 1.7660182e-38
0.012720966 -0.082351431 0.70300007 1.7836322e-38
0.014060005 -0.082351446 0.70300007 1.8113983e-38
0.015399043 -0.082351446 0.70300007 1.8386968e-38
0.016761946 -0.082468599 0.70400012 1.8568117e-38
0.018077161 -0.082351431 0.70300007 1.8658159e-38
0.0194162 -0.082351446 0.70300007 1.8654932e-38
0.020696174 -0.08211717 0.70100009 1.865706e-38
0.022031408 -0.082117185 0.70100009 1.8564485e-38
0.023366679 -0.082117155 0.70100009 1.8469772e-38
0.024701932 -0.08211717 0.70100009 1.8184573e-38
0.026037162 -0.08211717 0.70100009 1.7911924e-38
0.027372396 -0.082117185 0.70100009 1.7909041e-38
0.028707625 -0.08211717 0.70100009 1.7912623e-38
0.030042859 -0.08211717 0.70100009 1.790939e-38
0.03164668 -0.082820028 0.70700008 1.7910493e-38
0.032993335 -0.082820028 0.70700008 1.7909085e-38
0.034388579 -0.082937151 0.70800006 1.7817241e-38
0.035737161 -0.082937181 0.70800006 1.7633563e-38
0.037085716 -0.082937166 0.70800006 1.7450609e-38
0.038542878 -0.083171442 0.71000004 1.7174385e-38
0.039895266 -0.083171457 0.71000004 1.6901386e-38
0.041247651 -0.083171442 0.7100001 1.6438976e-38
0.042600017 -0.083171457 0.71000004 1.5981955e-38
0.044014301 -0.083288595 0.71100008 1.5887972e-38
0.045368575 -0.08328858 0.71100008 1.5798273e-38
0.046854254 -0.083522871 0.71300018 1.4694079e-38
0.048280019 -0.083639994 0.71400005 1.3504515e-38
0.049640026 -0.083640009 0.71400011 1.2214505e-38
0.051142879 -0.0838743 0.71600008 1.0842718e-38
0.052946631 -0.084577158 0.72200012 9.1968577e-39
0.054397129 -0.084694296 0.72300011 7.4588034e-39
0.055928625 -0.084928572 0.72500008 6.9131757e-39
0.057546668 -0.085280016 0.7280001 6.3614312e-39
0.059014302 -0.085397154 0.72900009 6.7284004e-39
0.06056856 -0.085631445 0.73100007 7.0050126e-39
0.061960991 -0.085631445 0.73100007 7.0054007e-39
-0.028778095 -0.08493048 0.73700017 8.636861e-39
-0.02726284 -0.084584773 0.73400009 9.0020618e-39
-0.025759043 -0.084239051 0.73100007 9.4601561e-39
-0.0242 -0.083662853 0.72600007 9.8271324e-39
-0.022785725 -0.083547622 0.72500008 1.0285953e-38
-0.021345714 -0.083317161 0.72300011 1.0653296e-38
-0.019940982 -0.08320193 0.72200018 1.1112465e-38
-0.018514289 -0.082971439 0.72000009 1.1387963e-38
-0.017142821 -0.082971424 0.72000009 1.1663477e-38
-0.015749512 -0.082856208 0.7190001 1.1755318e-38
-0.014319987 -0.082510501 0.71600008 1.1938982e-38
-0.012920006 -0.08228001 0.71400011 1.1938975e-38
-0.011543828 -0.082164794 0.71300012 1.2030821e-38
-0.010157156 -0.081934318 0.71100008 1.2306339e-38
-0.008790479 -0.081819057 0.7100001 1.258185e-38
-0.007438092 -0.081819057 0.7100001 1.2949196e-38
-0.0060685524 -0.081588596 0.70800006 1.3316541e-38
-0.0047199731 -0.081588581 0.70800006 1.3500213e-38
-0.0033666461 -0.081473351 0.70700008 1.3683867e-38
-0.0020199909 -0.081473351 0.70700008 1.386752e-38
-0.00067139295 -0.081242859 0.70500004 1.3959358e-38
0.000671455 -0.081242844 0.7050001 1.4234866e-38
0.0020114568 -0.081127644 0.70400012 1.4418541e-38
0.0033571508 -0.081242874 0.70500016 1.4969557e-38
0.0046933829 -0.081127629 0.70400012 1.5428746e-38
0.0060343067 -0.081127629 0.70400012 1.5523461e-38
0.0073647401 -0.081012398 0.70300007 1.5612442e-38
0.0087037804 -0.081012383 0.70300007 1.5890834e-38
0.010057175 -0.081127644 0.70400012 1.6163489e-38
0.011381899 -0.081012398 0.70300007 1.6262157e-38
0.012720938 -0.081012398 0.70300007 1.6439016e-38
0.014059977 -0.081012398 0.70300007 1.6536236e-38
0.015399016 -0.081012398 0.70300007 1.6714524e-38
0.016761949 -0.081127644 0.70400012 1.6810662e-38
0.018077137 -0.081012398 0.70300007 1.6898195e-38
0.019416176 -0.081012413 0.70300007 1.6809232e-38
0.020755215 -0.081012398 0.70300007 1.680632e-38
0.022094291 -0.081012398 0.70300007 1.6717671e-38
0.02343333 -0.081012383 0.70300007 1.66226e-38
0.024772372 -0.081012398 0.70300007 1.6531115e-38
0.026037157 -0.080781922 0.70100009 1.6347112e-38
0.02737239 -0.080781922 0.70100009 1.6439333e-38
0.028789526 -0.081012398 0.70300007 1.6530796e-38
0.030042853 -0.080781922 0.70100009 1.653114e-38
0.031646673 -0.081473365 0.70700008 1.6530793e-38
0.032993369 -0.081473365 0.70700008 1.634749e-38
0.034388557 -0.081588596 0.70800006 1.6163465e-38
0.035737138 -0.081588596 0.70800006 1.5980155e-38
0.037085716 -0.081588596 0.70800006 1.5796103e-38
0.038434297 -0.081588581 0.70800006 1.5704604e-38
0.039895248 -0.081819087 0.7100001 1.5612434e-38
0.041247614 -0.081819072 0.7100001 1.5336951e-38
0.042599998 -0.081819072 0.7100001 1.5061431e-38
0.043952428 -0.081819057 0.7100001 1.4878104e-38
0.045368582 -0.081934303 0.71100008 1.4602222e-38
0.046854243 -0.082164779 0.71300018 1.405191e-38
0.048280038 -0.082279995 0.71400011 1.3501638e-38
0.049640018 -0.082279995 0.71400011 1.2123769e-38
0.051142875 -0.082510516 0.71600008 1.0838794e-38
0.05272672 -0.082856223 0.7190001 9.1043272e-39
0.0543219 -0.08320193 0.72200012 7.3669778e-39
0.055928584 -0.083547622 0.72500002 7.0950488e-39
0.057388566 -0.083662853 0.72600007 6.7287648e-39
0.059014294 -0.084008604 0.72900009 6.9116987e-39
0.060568575 -0.084239066 0.73100007 7.095039e-39
0.061960962 -0.084239066 0.73100007 7.0961432e-39
-0.028778082 -0.083526686 0.73700011 8.7272574e-39
-0.027262857 -0.083186686 0.73400009 9.0931715e-39
-0.02565336 -0.082506686 0.72800016 9.4601505e-39
-0.024200011 -0.082279995 0.72600007 9.9193238e-39
-0.022785706 -0.082166672 0.72500002 1.028631e-38
-0.021404739 -0.082166672 0.72500008 1.0745131e-38
-0.019940989 -0.081826687 0.72200012 1.12043e-38
-0.018565739 -0.081826672 0.72200012 1.14798e-38
-0.017142845 -0.081599995 0.72000009 1.1663477e-38
-0.015749486 -0.081486672 0.7190001 1.1847153e-38
-0.014319974 -0.081146702 0.71600008 1.203082e-38
-0.012920008 -0.080920011 0.71400011 1.2122651e-38
-0.011543843 -0.080806702 0.71300012 1.2214494e-38
-0.010185723 -0.080806702 0.71300012 1.2581843e-38
-0.0088028768 -0.080580026 0.71100008 1.2857349e-38
-0.0074380715 -0.080466688 0.7100001 1.3224691e-38
-0.0060685729 -0.080240026 0.70800006 1.35002e-38
-0.0047199936 -0.080240011 0.70800006 1.377571e-38
-0.0033714145 -0.080240011 0.70800006 1.3959372e-38
-0.0020200189 -0.080126718 0.70700008 1.4143036e-38
-0.00067141716 -0.079900011 0.7050001 1.4234877e-38
0.00067147176 -0.079899997 0.7050001 1.432672e-38
0.0020114419 -0.079786703 0.70400012 1.4418551e-38
0.0033524029 -0.079786688 0.70400012 1.4694055e-38
0.0046933661 -0.079786688 0.70400012 1.4969574e-38
0.0060256994 -0.07967335 0.70300007 1.4785917e-38
0.0073647383 -0.07967335 0.70300007 1.451042e-38
0.0087038139 -0.07967335 0.70300007 1.4694103e-38
0.010042853 -0.07967335 0.70300007 1.4877786e-38
0.011381893 -0.07967335 0.70300007 1.4969636e-38
0.012720936 -0.079673335 0.70300007 1.4969633e-38
0.014019993 -0.079446688 0.70100009 1.4969631e-38
0.015399051 -0.07967335 0.70300007 1.4969633e-38
0.016738091 -0.07967335 0.70300007 1.5061468e-38
0.018077129 -0.07967335 0.70300007 1.515329e-38
0.019416211 -0.079673335 0.70300007 1.5061442e-38
0.020696212 -0.079446688 0.70100009 1.4877762e-38
0.022031445 -0.079446703 0.70100009 1.4877754e-38
0.023366675 -0.079446688 0.70100009 1.4785913e-38
0.024701908 -0.079446703 0.70100009 1.4785907e-38
0.026037136 -0.079446703 0.70100009 1.4785924e-38
0.027372407 -0.079446688 0.70100009 1.496961e-38
0.028707637 -0.079446703 0.70100009 1.5061438e-38
0.03004287 -0.079446703 0.70100009 1.5061431e-38
0.031557165 -0.079900026 0.7050001 1.5061432e-38
0.032993343 -0.080126688 0.70700008 1.4785927e-38
0.034339994 -0.080126703 0.70700014 1.4510413e-38
0.03568669 -0.080126703 0.70700008 1.4326737e-38
0.037085723 -0.080240026 0.70800006 1.4051225e-38
0.038434278 -0.080240026 0.70800006 1.4143055e-38
0.039895248 -0.080466703 0.7100001 1.4234896e-38
0.041247632 -0.080466703 0.7100001 1.4234901e-38
0.042600021 -0.080466703 0.7100001 1.4143426e-38
0.044014301 -0.080580026 0.71100008 1.3776443e-38
0.045368571 -0.080580026 0.71100008 1.3409085e-38
0.046854254 -0.080806687 0.71300018 1.3409068e-38
0.048212349 -0.080806702 0.71300012 1.3409082e-38
0.049640037 -0.080919996 0.71400011 1.2123041e-38
0.051142871 -0.081146702 0.71600014 1.084201e-38
0.05272666 -0.081486687 0.7190001 9.1061069e-39
0.054321911 -0.081826687 0.72200012 7.2751353e-39
0.055774253 -0.081940025 0.72300011 7.1868857e-39
0.057388578 -0.082279995 0.72600007 7.095039e-39
0.059014339 -0.08262001 0.72900009 7.0943089e-39
0.060568597 -0.082846701 0.73100007 7.0954005e-39
0.061960977 -0.082846671 0.73100007 7.1876101e-39
-0.02726285 -0.081788585 0.73400009 9.0931617e-39
-0.025653327 -0.081120029 0.72800016 9.4601449e-39
-0.024199998 -0.080897138 0.72600007 9.919321e-39
-0.022722889 -0.08056289 0.72300011 1.0377785e-38
-0.021345751 -0.08056289 0.72300017 1.0745131e-38
-0.019940978 -0.080451459 0.72200018 1.1112466e-38
-0.018514277 -0.080228582 0.72000009 1.1387964e-38
-0.017142836 -0.080228567 0.72000003 1.1663477e-38
-0.015749523 -0.080117181 0.7190001 1.1847153e-38
-0.014319974 -0.079782888 0.71600008 1.2030823e-38
-0.012919991 -0.079560012 0.71400011 1.2122657e-38
-0.011560009 -0.079559997 0.71400011 1.2306331e-38
-0.010185736 -0.079448581 0.71300012 1.2490003e-38
-0.0088028451 -0.079225734 0.71100008 1.2765507e-38
-0.0074485731 -0.079225749 0.71100008 1.3132844e-38
-0.006085685 -0.079114303 0.7100001 1.3500191e-38
-0.0047333208 -0.079114303 0.71000004 1.37757e-38
-0.0033714126 -0.078891441 0.70800006 1.3959372e-38
-0.0020228557 -0.078891456 0.70800006 1.4051209e-38
-0.00067142461 -0.078557134 0.7050001 1.4234891e-38
0.00067146245 -0.078557149 0.7050001 1.4326738e-38
0.0020143103 -0.078557163 0.7050001 1.4418562e-38
0.0033571564 -0.078557163 0.7050001 1.4602222e-38
0.0046933736 -0.078445747 0.70400012 1.4877746e-38
0.0060343365 -0.078445733 0.70400012 1.4785925e-38
0.0073647755 -0.078334302 0.70300007 1.4785932e-38
0.0087038139 -0.078334317 0.70300007 1.5061445e-38
0.010042853 -0.078334332 0.70300007 1.5336959e-38
0.011381892 -0.078334317 0.70300007 1.5245132e-38
0.012720968 -0.078334302 0.70300007 1.515329e-38
0.014060006 -0.078334302 0.70300007 1.4969612e-38
0.015399051 -0.078334317 0.70300007 1.4877781e-38
0.016738066 -0.078334332 0.70300007 1.5061454e-38
0.018025704 -0.078111455 0.70100009 1.5245096e-38
0.019416183 -0.078334302 0.70300007 1.5245065e-38
0.020696204 -0.07811144 0.70100009 1.5153255e-38
0.022031438 -0.07811144 0.70100009 1.515328e-38
0.023366667 -0.078111455 0.70100009 1.5245113e-38
0.024701901 -0.07811144 0.70100009 1.4969603e-38
0.026037132 -0.078111455 0.70100009 1.4785938e-38
0.027372362 -0.078111455 0.70100009 1.4969615e-38
0.028789498 -0.078334317 0.70300007 1.5153284e-38
0.030171467 -0.078445718 0.70400012 1.5153281e-38
0.031512391 -0.078445747 0.70400012 1.5153274e-38
0.032900006 -0.078557149 0.7050001 1.4969595e-38
0.034340028 -0.07878001 0.70700008 1.4877744e-38
0.035686661 -0.078780025 0.70700008 1.4602222e-38
0.037033353 -0.07878004 0.70700008 1.4418562e-38
0.038434282 -0.078891456 0.70800006 1.4418574e-38
0.039782859 -0.078891441 0.70800012 1.4510397e-38
0.041247632 -0.079114288 0.7100001 1.4326713e-38
0.042600017 -0.079114288 0.7100001 1.4235252e-38
0.043952409 -0.079114288 0.7100001 1.3960119e-38
0.045368582 -0.079225734 0.71100008 1.3593121e-38
0.046722893 -0.079225719 0.71100008 1.3408717e-38
0.048212361 -0.079448611 0.71300012 1.3316527e-38
0.049639996 -0.079559997 0.71400011 1.2032269e-38
0.051214289 -0.079894304 0.71700007 1.0749086e-38
0.052946631 -0.080451444 0.72200012 8.9217044e-39
0.054397114 -0.080562875 0.72300011 7.1858053e-39
0.055774275 -0.080562875 0.72300011 7.1865283e-39
0.057309549 -0.080785736 0.72500002 7.1868829e-39
0.05893331 -0.081120029 0.72800016 7.094683e-39
0.060319986 -0.081120014 0.72800016 7.095762e-39
0.06179145 -0.081231445 0.72900009 7.2797946e-39
0.063353345 -0.081454307 0.73100007 7.5560465e-39
0.064745739 -0.081454322 0.73100013 7.3720434e-39
-0.027188569 -0.080171466 0.73200011 9.0931589e-39
-0.025582878 -0.079514295 0.72600007 9.4601435e-39
-0.024200009 -0.07951428 0.72600007 9.9193238e-39
-0.022785723 -0.079404786 0.72500008 1.0378152e-38
-0.021345729 -0.079185739 0.72300017 1.0745147e-38
-0.019940982 -0.079076201 0.72200018 1.1020638e-38
-0.018565731 -0.079076216 0.72200012 1.1296129e-38
-0.017142842 -0.078857169 0.72000009 1.1571638e-38
-0.015771436 -0.078857169 0.72000009 1.1755313e-38
-0.01433999 -0.078528583 0.71700013 1.1938983e-38
-0.012919997 -0.078200012 0.71400011 1.2122653e-38
-0.01155999 -0.078199998 0.71400011 1.2306325e-38
-0.010185725 -0.078090504 0.71300012 1.2489999e-38
-0.0088028787 -0.077871442 0.71100008 1.2673667e-38
-0.0074485657 -0.077871457 0.71100008 1.3132842e-38
-0.0060857241 -0.077761933 0.7100001 1.3500189e-38
-0.0047333376 -0.077761933 0.7100001 1.3775703e-38
-0.0033714313 -0.077542856 0.70800006 1.3959378e-38
-0.002022852 -0.077542871 0.70800006 1.4051218e-38
-0.00067332078 -0.077433378 0.70700008 1.4143071e-38
0.00067143637 -0.077214301 0.7050001 1.4326762e-38
0.0020143252 -0.077214316 0.7050001 1.4418578e-38
0.0033571713 -0.077214301 0.7050001 1.4602229e-38
0.0047000195 -0.077214301 0.70500016 1.4694076e-38
0.006034316 -0.077104777 0.70400012 1.4877758e-38
0.0073647476 -0.076995268 0.70300007 1.5061429e-38
0.0087037859 -0.076995283 0.70300007 1.5428773e-38
0.010042825 -0.076995268 0.70300007 1.570428e-38
0.011381905 -0.076995254 0.70300007 1.5520612e-38
0.012720945 -0.076995254 0.70300007 1.5245102e-38
0.014059984 -0.076995268 0.70300007 1.4969591e-38
0.015399023 -0.076995283 0.70300007 1.469409e-38
0.0167381 -0.076995268 0.70300007 1.5061439e-38
0.01802572 -0.076776221 0.70100009 1.5336929e-38
0.019416181 -0.076995254 0.70300007 1.5428749e-38
0.020696186 -0.076776206 0.70100009 1.5428764e-38
0.022031456 -0.076776206 0.70100009 1.5520615e-38
0.023366686 -0.076776221 0.70100009 1.5612444e-38
0.024772374 -0.076995254 0.70300007 1.5153259e-38
0.026111415 -0.076995254 0.70300007 1.4694086e-38
0.027450494 -0.076995254 0.70300007 1.4969596e-38
0.02883051 -0.077104777 0.70400012 1.5153262e-38
0.030171473 -0.077104777 0.70400012 1.5153258e-38
0.031557173 -0.077214301 0.7050001 1.5153253e-38
0.032993343 -0.077433348 0.70700008 1.5153249e-38
0.034339998 -0.077433348 0.70700008 1.5153238e-38
0.035686694 -0.077433348 0.70700008 1.4969556e-38
0.037085745 -0.077542871 0.70800006 1.4785897e-38
0.038434323 -0.077542871 0.70800006 1.4785911e-38
0.039895263 -0.077761933 0.71000004 1.4694077e-38
0.041247655 -0.077761918 0.71000004 1.4510409e-38
0.042600017 -0.077761918 0.71000004 1.432674e-38
0.044014297 -0.077871442 0.71100008 1.4051236e-38
0.045368571 -0.077871457 0.71100008 1.3776077e-38
0.046854287 -0.078090519 0.71300012 1.35002e-38
0.048280008 -0.078199998 0.71400011 1.3133219e-38
0.049640015 -0.078199998 0.71400011 1.1939719e-38
0.051357165 -0.07874763 0.7190001 1.0659763e-38
0.052800003 -0.078857169 0.72000009 8.8295116e-39
0.054321896 -0.079076201 0.72200012 6.999263e-39
0.055774298 -0.079185739 0.72300011 7.1865241e-39
0.057309549 -0.079404786 0.72500008 7.2783596e-39
0.05877142 -0.079514265 0.72600007 7.1850892e-39
0.060320016 -0.079733357 0.72800016 7.0028447e-39
0.061791454 -0.079842895 0.72900009 7.3712545e-39
0.063353367 -0.080061913 0.73100007 7.7386175e-39
-0.027188603 -0.078777164 0.73200011 9.1857076e-39
-0.025582889 -0.078131437 0.72600007 9.4601435e-39
-0.02420002 -0.078131422 0.72600007 9.8274897e-39
-0.022785684 -0.078023806 0.72500008 1.0285967e-38
-0.021345731 -0.077808604 0.72300011 1.056149e-38
-0.019940997 -0.077700973 0.72200012 1.0928809e-38
-0.018565742 -0.077700973 0.72200012 1.1204292e-38
-0.017142868 -0.077485725 0.72000009 1.1571637e-38
-0.015771402 -0.077485725 0.72000009 1.1755309e-38
-0.014340007 -0.077162877 0.71700013 1.1938979e-38
-0.012919975 -0.076840013 0.71400005 1.2122648e-38
-0.011559992 -0.076839998 0.71400011 1.2306321e-38
-0.010185738 -0.076732412 0.71300012 1.2489993e-38
-0.008802847 -0.07651715 0.71100008 1.2673663e-38
-0.0074695614 -0.076732412 0.71300012 1.3041002e-38
-0.0060942867 -0.076517165 0.71100008 1.3408354e-38
-0.0047333394 -0.076409534 0.7100001 1.3683869e-38
-0.0033809531 -0.076409534 0.7100001 1.3867548e-38
-0.0020228706 -0.076194316 0.70800006 1.3959391e-38
-0.00067332451 -0.0760867 0.70700008 1.4051253e-38
0.00067142892 -0.075871453 0.7050001 1.4143113e-38
0.0020143159 -0.075871438 0.7050001 1.4326756e-38
0.0033571639 -0.075871453 0.7050001 1.4418564e-38
0.0047000102 -0.075871453 0.7050001 1.4602242e-38
0.0060343216 -0.075763837 0.70400012 1.4785918e-38
0.0073752846 -0.075763837 0.70400012 1.4969585e-38
0.0087162098 -0.075763837 0.70400012 1.5153252e-38
0.010057171 -0.075763837 0.70400012 1.5428754e-38
0.011381899 -0.07565622 0.70300007 1.5336913e-38
0.012720938 -0.07565622 0.70300007 1.5245076e-38
0.014059977 -0.075656235 0.70300007 1.5061404e-38
0.015399056 -0.07565622 0.70300007 1.4877743e-38
0.016738098 -0.07565622 0.70300007 1.5153258e-38
0.018025717 -0.075440973 0.70100009 1.5336927e-38
0.019416176 -0.075656235 0.70300007 1.5336924e-38
0.020696202 -0.075440973 0.70100009 1.5428766e-38
0.022031432 -0.075440973 0.70100009 1.5428771e-38
0.023433311 -0.075656205 0.70300007 1.5520595e-38
0.024772352 -0.07565622 0.70300007 1.5245078e-38
0.026111428 -0.07565622 0.70300007 1.4969574e-38
0.027450467 -0.07565622 0.70300007 1.5061412e-38
0.028830515 -0.075763837 0.70400012 1.5245076e-38
0.030171478 -0.075763822 0.70400012 1.5245068e-38
0.031557187 -0.075871438 0.7050001 1.5153232e-38
0.032993339 -0.0760867 0.70700008 1.5153231e-38
0.034340031 -0.0760867 0.70700008 1.5061389e-38
0.035686664 -0.0760867 0.70700008 1.4969546e-38
0.037085723 -0.076194301 0.70800006 1.4785892e-38
0.038542863 -0.076409549 0.7100001 1.4602236e-38
0.039895248 -0.076409549 0.7100001 1.4510418e-38
0.04124761 -0.076409534 0.7100001 1.4418597e-38
0.04266002 -0.076517165 0.71100008 1.4418586e-38
0.044014294 -0.076517165 0.71100008 1.4051592e-38
0.045368582 -0.07651715 0.71100008 1.3776437e-38
0.046854276 -0.076732382 0.71300012 1.3408729e-38
0.04828003 -0.076840013 0.71400011 1.3133223e-38
0.04977905 -0.077055275 0.71600008 1.1666366e-38
0.051357191 -0.077378109 0.7190001 1.0294216e-38
0.052946657 -0.077700958 0.72200012 8.7391124e-39
0.054321907 -0.077700973 0.72200012 7.1825739e-39
0.055774271 -0.077808604 0.72300011 7.2779967e-39
0.057309508 -0.078023821 0.72500008 7.3712713e-39
0.058771435 -0.078131422 0.72600007 7.1865283e-39
0.060320009 -0.078346699 0.72800016 7.002479e-39
0.061960991 -0.078669518 0.73100007 7.1875653e-39
0.063353337 -0.078669533 0.73100007 7.370893e-39
-0.025582837 -0.07674858 0.72600007 9.4615854e-39
-0.024266645 -0.076960027 0.7280001 9.8278596e-39
-0.022785703 -0.076642886 0.72500008 1.0102653e-38
-0.021404756 -0.076642886 0.72500008 1.046964e-38
-0.01994098 -0.076325744 0.72200018 1.0745133e-38
-0.018565727 -0.076325729 0.72200012 1.1112462e-38
-0.01714283 -0.076114282 0.72000009 1.1479813e-38
-0.015771428 -0.076114297 0.72000009 1.1755329e-38
-0.014339981 -0.075797155 0.71700007 1.1938989e-38
-0.012956197 -0.075691462 0.71600008 1.2122647e-38
-0.011559975 -0.075479999 0.71400011 1.2214484e-38
-0.010185727 -0.07537432 0.71300012 1.2489992e-38
-0.0088276332 -0.07537429 0.71300012 1.2673661e-38
-0.0074695521 -0.075374305 0.71300018 1.3041003e-38
-0.0060942569 -0.075162888 0.71100008 1.3316529e-38
-0.0047333189 -0.075057149 0.7100001 1.3592056e-38
-0.0033809326 -0.075057149 0.7100001 1.3775721e-38
-0.0020285666 -0.075057149 0.7100001 1.3867551e-38
-0.0006733152 -0.074740022 0.70700008 1.3867565e-38
0.00067333999 -0.074740022 0.70700008 1.405125e-38
0.0020142917 -0.07452859 0.70500016 1.4143077e-38
0.0033571788 -0.074528575 0.7050001 1.432674e-38
0.0047000269 -0.074528575 0.7050001 1.4510416e-38
0.006042873 -0.074528575 0.70500016 1.4694091e-38
0.0073752678 -0.074422866 0.70400012 1.4785928e-38
0.008716193 -0.074422881 0.70400012 1.4969601e-38
0.010057156 -0.074422881 0.70400012 1.515326e-38
0.011381875 -0.074317157 0.70300007 1.5153251e-38
0.012720951 -0.074317142 0.70300007 1.5153242e-38
0.014059992 -0.074317172 0.70300007 1.5153235e-38
0.01539903 -0.074317172 0.70300007 1.5061408e-38
0.01673807 -0.074317172 0.70300007 1.5245088e-38
0.018025732 -0.074105725 0.70100009 1.5336926e-38
0.019416189 -0.074317157 0.70300007 1.5336929e-38
0.020755228 -0.074317157 0.70300007 1.5336943e-38
0.022094268 -0.074317172 0.70300007 1.5336957e-38
0.02346671 -0.074422881 0.70400012 1.5336937e-38
0.024807649 -0.074422881 0.70400012 1.5245082e-38
0.026148612 -0.074422866 0.70400006 1.5153242e-38
0.027489537 -0.074422866 0.70400012 1.5245074e-38
0.0288305 -0.074422866 0.70400012 1.5336902e-38
0.030171461 -0.074422866 0.70400012 1.5245061e-38
0.031557176 -0.074528575 0.7050001 1.5153228e-38
0.03299335 -0.074740008 0.70700008 1.5061397e-38
0.034340002 -0.074740022 0.70700008 1.4969557e-38
0.035686661 -0.074740037 0.70700014 1.4877716e-38
0.037085727 -0.074845731 0.70800006 1.4785896e-38
0.038542882 -0.075057164 0.7100001 1.4510406e-38
0.039895244 -0.075057164 0.7100001 1.4234921e-38
0.041305739 -0.075162873 0.71100008 1.4326779e-38
0.042659987 -0.075162888 0.71100008 1.4418955e-38
0.044014297 -0.075162888 0.71100008 1.4051952e-38
0.045496166 -0.07537429 0.71300012 1.3684599e-38
0.046854287 -0.07537429 0.71300012 1.3408724e-38
0.048280023 -0.075480014 0.71400005 1.3042105e-38
0.049848616 -0.07579717 0.71700007 1.1481985e-38
0.051428583 -0.076114297 0.72000003 9.9283117e-39
0.052946668 -0.076325744 0.72200018 8.6505027e-39
0.054321926 -0.076325744 0.72200012 7.2765604e-39
0.05577426 -0.076431453 0.72300017 7.3709084e-39
0.057309549 -0.076642871 0.72500002 7.3712783e-39
0.058771446 -0.07674858 0.72600007 7.1876186e-39
0.060319994 -0.076960012 0.72800016 7.0042881e-39
0.062045705 -0.077382892 0.73200011 7.0057062e-39
-0.025582852 -0.075365722 0.72600007 9.0031338e-39
-0.024299951 -0.075677171 0.72900009 9.4612449e-39
-0.022817152 -0.075365722 0.72600007 9.9186203e-39
-0.021404779 -0.075261921 0.72500008 1.0286313e-38
-0.019940989 -0.074950501 0.72200018 1.0745129e-38
-0.018565737 -0.074950486 0.72200012 1.102099e-38
-0.017142864 -0.074742869 0.72000009 1.1296154e-38
-0.015771417 -0.074742869 0.72000009 1.1480201e-38
-0.014339975 -0.074431449 0.71700007 1.1755685e-38
-0.012974265 -0.074431449 0.71700007 1.2031169e-38
-0.011559981 -0.074120015 0.71400005 1.2306318e-38
-0.010185744 -0.074016228 0.71300012 1.2582185e-38
-0.008827622 -0.074016213 0.71300012 1.2857332e-38
-0.0074695633 -0.074016228 0.71300012 1.3041003e-38
-0.0060942867 -0.073808581 0.71100008 1.3224705e-38
-0.004739976 -0.073808596 0.71100008 1.3408406e-38
-0.0033857271 -0.073808581 0.71100008 1.3683894e-38
-0.0020285461 -0.073704779 0.7100001 1.377571e-38
-0.00067332265 -0.07339336 0.70700008 1.3867548e-38
0.00067333254 -0.07339336 0.70700014 1.4051222e-38
0.0020142824 -0.073185727 0.7050001 1.4143069e-38
0.0033571695 -0.073185727 0.7050001 1.4326751e-38
0.0047000176 -0.073185727 0.7050001 1.441859e-38
0.0060428656 -0.073185727 0.7050001 1.4602264e-38
0.0073857508 -0.073185727 0.7050001 1.4785942e-38
0.0087162359 -0.073081926 0.70400012 1.4877783e-38
0.010057162 -0.07308194 0.70400012 1.5061439e-38
0.011398125 -0.07308194 0.70400012 1.5061422e-38
0.012739087 -0.073081926 0.70400012 1.5061408e-38
0.01405999 -0.072978124 0.70300007 1.5061394e-38
0.015399029 -0.072978124 0.70300007 1.5061403e-38
0.016738106 -0.072978124 0.70300007 1.5153245e-38
0.018077146 -0.072978124 0.70300007 1.5245089e-38
0.019416185 -0.072978139 0.70300007 1.5336933e-38
0.020755228 -0.072978124 0.70300007 1.5336955e-38
0.022125727 -0.073081926 0.70400012 1.5336978e-38
0.023466693 -0.073081911 0.70400012 1.533695e-38
0.024807656 -0.073081926 0.70400012 1.5245086e-38
0.026148617 -0.073081926 0.70400012 1.5153239e-38
0.027528575 -0.073185742 0.7050001 1.5153228e-38
0.028871462 -0.073185727 0.7050001 1.5245058e-38
0.030214312 -0.073185712 0.7050001 1.5061382e-38
0.031557154 -0.073185742 0.7050001 1.4969554e-38
0.032993343 -0.073393375 0.70700008 1.4969563e-38
0.034339998 -0.07339336 0.70700014 1.4877725e-38
0.03568669 -0.073393375 0.70700008 1.4877722e-38
0.037085708 -0.073497176 0.70800006 1.4785902e-38
0.038542882 -0.073704779 0.71000004 1.4602246e-38
0.039951459 -0.073808581 0.71100008 1.4418603e-38
0.041305706 -0.073808581 0.71100008 1.4510467e-38
0.04266002 -0.073808581 0.71100008 1.4602275e-38
0.044138055 -0.074016213 0.71300018 1.4051953e-38
0.045496177 -0.074016213 0.71300012 1.3593479e-38
0.046854272 -0.074016199 0.71300012 1.3225763e-38
0.048280042 -0.074120015 0.71400011 1.2950271e-38
0.049848597 -0.074431434 0.71700007 1.1484503e-38
0.051428583 -0.074742869 0.72000009 1.0021584e-38
0.052946642 -0.074950486 0.72200012 8.4671876e-39
0.054321893 -0.074950472 0.72200012 7.0042811e-39
0.055774283 -0.075054303 0.72300017 7.1879549e-39
0.057151396 -0.075054303 0.72300011 7.2790911e-39
0.058771413 -0.075365722 0.72600007 7.1872724e-39
0.060402907 -0.075677186 0.72900009 7.1879745e-39
0.062045734 -0.075988591 0.73200011 7.1876003e-39
-0.024299977 -0.074288592 0.72900009 9.1871846e-39
-0.022817165 -0.073982865 0.72600007 9.7360368e-39
-0.021434296 -0.073982865 0.72600007 1.0195204e-38
-0.019968608 -0.073677182 0.72300011 1.0653655e-38
-0.018565724 -0.073575273 0.72200012 1.0837675e-38
-0.017142827 -0.07337144 0.72000009 1.1020995e-38
-0.015771421 -0.07337144 0.72000009 1.1297228e-38
-0.014339992 -0.073065743 0.71700007 1.1572363e-38
-0.012956184 -0.072963834 0.71600008 1.1940051e-38
-0.011560001 -0.072760031 0.71400011 1.2307035e-38
-0.010199982 -0.072760001 0.71400005 1.2674377e-38
-0.0088276351 -0.072658107 0.71300012 1.2949527e-38
-0.007469554 -0.072658136 0.71300018 1.3041362e-38
-0.0060942569 -0.072454304 0.71100008 1.3041022e-38
-0.0047400058 -0.072454304 0.71100008 1.3316548e-38
-0.0033856954 -0.072454304 0.71100008 1.3500209e-38
-0.0020285852 -0.072352409 0.7100001 1.368387e-38
-0.00067426701 -0.072148591 0.70800006 1.3867541e-38
0.00067334372 -0.072046667 0.70700008 1.4051213e-38
0.0020199989 -0.072046682 0.70700008 1.4143057e-38
0.0033666932 -0.072046697 0.70700008 1.4234901e-38
0.0047000307 -0.071842864 0.7050001 1.4326741e-38
0.0060428805 -0.071842879 0.7050001 1.4510416e-38
0.0073857657 -0.071842879 0.7050001 1.4694091e-38
0.0087162415 -0.071740955 0.70400012 1.4785931e-38
0.010071439 -0.071842864 0.7050001 1.4877755e-38
0.011398106 -0.071740955 0.70400012 1.496958e-38
0.012739069 -0.071740985 0.70400012 1.4969568e-38
0.01408003 -0.07174097 0.70400012 1.4969559e-38
0.015399064 -0.071639076 0.70300007 1.4969561e-38
0.016738104 -0.071639091 0.70300007 1.5061401e-38
0.018077143 -0.071639076 0.70300007 1.5153241e-38
0.019416159 -0.071639061 0.70300007 1.5245079e-38
0.020755235 -0.071639046 0.70300007 1.5336933e-38
0.022094274 -0.071639061 0.70300007 1.5336951e-38
0.023466695 -0.071740955 0.70400012 1.5336931e-38
0.024807662 -0.071740985 0.70400012 1.5245076e-38
0.026148623 -0.071740985 0.70400012 1.5153232e-38
0.02752859 -0.071842879 0.7050001 1.5153225e-38
0.028871475 -0.071842879 0.7050001 1.5061397e-38
0.030214323 -0.071842864 0.7050001 1.4969568e-38
0.03164668 -0.072046697 0.70700008 1.4785895e-38
0.032993373 -0.072046697 0.70700008 1.4785892e-38
0.034340005 -0.072046682 0.70700008 1.478589e-38
0.035686664 -0.072046697 0.70700008 1.4785889e-38
0.037085708 -0.072148606 0.70800006 1.4785893e-38
0.038542863 -0.072352409 0.7100001 1.4694063e-38
0.039951429 -0.072454304 0.71100008 1.4510415e-38
0.041305739 -0.072454289 0.71100008 1.4602274e-38
0.042659987 -0.072454289 0.71100008 1.4694093e-38
0.044138066 -0.072658107 0.71300018 1.4051227e-38
0.045560017 -0.072760001 0.71400011 1.3409085e-38
0.046919998 -0.072760016 0.71400011 1.3133926e-38
0.048415247 -0.072963834 0.71600008 1.276767e-38
0.04998764 -0.073269546 0.71900004 1.1391941e-38
0.05157144 -0.073575258 0.72200012 1.0022291e-38
0.052946653 -0.073575273 0.72200012 8.3764171e-39
0.054397147 -0.073677167 0.72300011 6.7276914e-39
0.05577426 -0.073677152 0.72300011 7.0053573e-39
0.057309505 -0.073880956 0.72500008 7.1875989e-39
0.058771424 -0.073982865 0.72600007 7.2783624e-39
0.060568567 -0.074492395 0.73100007 7.2780065e-39
0.062045719 -0.074594319 0.73200017 7.2765744e-39
-0.024299996 -0.072900027 0.72900009 5.3279526e-39
-0.022880027 -0.072800025 0.72800016 5.969715e-39
-0.021434285 -0.072600007 0.72600007 5.970064e-39
-0.019968586 -0.072300032 0.72300017 6.0615239e-39
-0.018514259 -0.072000012 0.72000009 6.1537013e-39
-0.017142853 -0.072000012 0.72000009 6.3370136e-39
-0.015771409 -0.071999997 0.72000009 7.1638918e-39
-0.014339986 -0.071700037 0.71700007 7.9900511e-39
-0.012956149 -0.07160002 0.71600008 9.0005975e-39
-0.011560003 -0.071400002 0.71400011 1.0010788e-38
-0.0102 -0.071400002 0.71400011 1.037813e-38
-0.0088276276 -0.071300015 0.71300012 1.0745115e-38
-0.0074695689 -0.071300015 0.71300018 1.1756024e-38
-0.006111451 -0.071300015 0.71300012 1.2857339e-38
-0.004739976 -0.071100011 0.71100008 1.3041376e-38
-0.0033857289 -0.071100011 0.71100008 1.3225047e-38
-0.0020314164 -0.071100011 0.71100008 1.3500552e-38
-0.00067428563 -0.070800006 0.70800006 1.3867535e-38
0.00067333813 -0.070700034 0.70700008 1.4052281e-38
0.0020200324 -0.07070002 0.70700008 1.423524e-38
0.0033666894 -0.070700049 0.70700008 1.4419992e-38
0.0047000269 -0.070500016 0.7050001 1.4510398e-38
0.0060428712 -0.070500016 0.7050001 1.4695151e-38
0.0073857191 -0.070500016 0.7050001 1.4877747e-38
0.0087286038 -0.070500016 0.7050001 1.497066e-38
0.010071454 -0.070500001 0.7050001 1.5061414e-38
0.011398113 -0.0704 0.70400012 1.5062483e-38
0.012739074 -0.070400015 0.70400012 1.50614e-38
0.014080037 -0.070400015 0.70400012 1.506211e-38
0.015399036 -0.070300028 0.70300007 1.5153228e-38
0.016738076 -0.070300013 0.70300007 1.5337617e-38
0.018077115 -0.070300013 0.70300007 1.5520569e-38
0.019416196 -0.070300013 0.70300007 1.5521285e-38
0.020755235 -0.070300028 0.70300007 1.5520581e-38
0.022125756 -0.070400029 0.70400006 1.5429477e-38
0.023466678 -0.070400029 0.70400012 1.5428749e-38
0.024842909 -0.070500016 0.7050001 1.5337618e-38
0.026185758 -0.070500016 0.7050001 1.5336896e-38
0.02752858 -0.070500031 0.7050001 1.5246133e-38
0.028871469 -0.070500016 0.70500004 1.5153601e-38
0.030300023 -0.07070002 0.70700008 1.5062861e-38
0.031646688 -0.07070002 0.70700008 1.4969577e-38
0.032993346 -0.07070002 0.70700008 1.4970638e-38
0.034340002 -0.07070002 0.70700008 1.4969561e-38
0.035737172 -0.070800006 0.70800006 1.4970638e-38
0.03708569 -0.070800006 0.70800006 1.4969557e-38
0.038542863 -0.071000025 0.7100001 1.4878792e-38
0.039951459 -0.071100011 0.71100008 1.4785899e-38
0.041305706 -0.071100011 0.71100008 1.4695156e-38
0.042779997 -0.07130003 0.71300012 1.4602598e-38
0.044138055 -0.07130003 0.71300018 1.396046e-38
0.045560036 -0.071400002 0.71400011 1.3408721e-38
0.047051433 -0.071600005 0.71600008 1.3042805e-38
0.048482876 -0.071700022 0.71700013 1.2583635e-38
0.049987629 -0.071900025 0.7190001 1.1119654e-38
0.051571455 -0.072200015 0.72200012 9.7482098e-39
0.052946668 -0.072200015 0.72200018 8.4686001e-39
0.054321919 -0.072200015 0.72200012 7.1879381e-39
0.055774283 -0.072300017 0.72300011 7.1879493e-39
0.057309549 -0.07250002 0.72500002 7.279419e-39
0.058771435 -0.072600022 0.72600007 7.2786931e-39
0.060568582 -0.073100016 0.73100007 7.2772792e-39
0.062215235 -0.073400021 0.73400009 7.4616873e-39
-0.024366671 -0.071707651 0.73100007 1.561593e-39
-0.022879995 -0.071413353 0.72800016 2.1204939e-39
-0.021434294 -0.071217164 0.72600007 1.7452556e-39
-0.019968586 -0.070922866 0.72300011 1.3836435e-39
-0.018565739 -0.070824772 0.72200012 1.5615664e-39
-0.017142838 -0.070628583 0.72000003 1.6534019e-39
-0.015771413 -0.070628598 0.72000009 3.0309343e-39
-0.014339999 -0.0703343 0.71700007 4.3166299e-39
-0.012974261 -0.0703343 0.71700007 5.9696674e-39
-0.011592361 -0.070236206 0.71600008 7.6227063e-39
-0.010200004 -0.070040002 0.71400011 8.0818838e-39
-0.0088400012 -0.070040002 0.71400011 8.4499446e-39
-0.0074695577 -0.069941938 0.71300018 1.0563596e-38
-0.0061114621 -0.069941923 0.71300012 1.2582557e-38
-0.0047533442 -0.069941923 0.71300012 1.2766601e-38
-0.003395288 -0.069941923 0.71300018 1.2949913e-38
-0.0020314276 -0.069745734 0.71100008 1.340981e-38
-0.00067428377 -0.069451451 0.70800006 1.3777159e-38
0.00067429553 -0.069451451 0.70800006 1.4055183e-38
0.0020200026 -0.069353357 0.70700008 1.4329249e-38
0.0033666596 -0.069353357 0.70700008 1.4515067e-38
0.0047133542 -0.069353342 0.70700008 1.4698384e-38
0.0060428879 -0.069157153 0.7050001 1.4882419e-38
0.0073857377 -0.069157168 0.7050001 1.5064658e-38
0.0087286225 -0.069157153 0.7050001 1.5157932e-38
0.010071444 -0.069157138 0.7050001 1.524761e-38
0.011414292 -0.069157153 0.7050001 1.5248682e-38
0.012739082 -0.069059074 0.70400012 1.5156119e-38
0.014080021 -0.069059074 0.70400012 1.5248305e-38
0.015420984 -0.069059074 0.70400012 1.5246862e-38
0.016761947 -0.069059059 0.70400006 1.5615273e-38
0.018077152 -0.068960965 0.70300007 1.5889354e-38
0.019416191 -0.068960965 0.70300007 1.5798246e-38
0.020784797 -0.069059059 0.70400012 1.5614229e-38
0.022125764 -0.069059089 0.70400012 1.5615676e-38
0.023466684 -0.069059074 0.70400012 1.5522393e-38
0.024842862 -0.069157153 0.7050001 1.5523455e-38
0.026185749 -0.069157138 0.7050001 1.5430533e-38
0.027528597 -0.069157168 0.7050001 1.5340119e-38
0.028953336 -0.069353372 0.70700008 1.5155749e-38
0.03030003 -0.069353372 0.70700008 1.5157921e-38
0.031646684 -0.069353357 0.70700008 1.5063933e-38
0.032993343 -0.069353357 0.70700014 1.5157562e-38
0.034388576 -0.069451451 0.70800006 1.5155769e-38
0.035737153 -0.069451451 0.70800006 1.5157564e-38
0.037190497 -0.06964764 0.7100001 1.5156119e-38
0.038542885 -0.06964764 0.7100001 1.5065351e-38
0.039951429 -0.069745719 0.71100008 1.497317e-38
0.041305736 -0.069745719 0.71100008 1.4698393e-38
0.042779982 -0.069941923 0.71300012 1.4421451e-38
0.044138104 -0.069941923 0.71300012 1.3962632e-38
0.045687642 -0.070236236 0.71600008 1.3411598e-38
0.047117151 -0.0703343 0.71700013 1.2952759e-38
0.048618108 -0.070530504 0.7190001 1.2402478e-38
0.050057154 -0.070628583 0.72000009 1.0937789e-38
0.051571425 -0.070824772 0.72200012 9.3826713e-39
0.052946638 -0.070824772 0.72200012 8.4700421e-39
0.05439711 -0.070922866 0.72300017 7.554208e-39
0.055928584 -0.071119085 0.72500002 7.4630998e-39
0.057309553 -0.071119085 0.72500008 7.3716231e-39
0.058933351 -0.071413353 0.72800016 7.3712643e-39
0.060568605 -0.071707636 0.73100007 7.2790771e-39
0.062384762 -0.072198108 0.73600012 7.647861e-39
-0.024299981 -0.070122883 0.72900009 8.1095062e-39
-0.022879994 -0.070026681 0.7280001 8.5722724e-39
-0.021434309 -0.069834292 0.72600007 8.2942562e-39
-0.020023793 -0.06973812 0.72500008 8.1052028e-39
-0.018565726 -0.069449559 0.72200012 4.7815457e-39
-0.017142849 -0.06925714 0.72000009 1.4697281e-39
-0.015771402 -0.06925714 0.72000009 2.6635895e-39
-0.014379968 -0.069160968 0.7190001 3.7656155e-39
-0.012974282 -0.068968579 0.71700007 5.7867139e-39
-0.011592346 -0.068872407 0.71600008 7.7145418e-39
-0.010199984 -0.068680018 0.71400011 7.4390353e-39
-0.0088400031 -0.068680018 0.71400011 7.2553643e-39
-0.0074695726 -0.068583816 0.71300018 7.8989303e-39
-0.0061114528 -0.068583831 0.71300012 8.6329192e-39
-0.0047533554 -0.068583831 0.71300012 8.3577939e-39
-0.0033952768 -0.068583846 0.71300018 8.08193e-39
-0.0020314183 -0.068391427 0.71100008 7.7149482e-39
-0.00067430426 -0.068102881 0.70800006 7.3472629e-39
0.00067427504 -0.068102866 0.70800006 7.3487118e-39
0.0020228543 -0.068102866 0.70800006 7.3483377e-39
0.0033666913 -0.068006694 0.70700008 7.8100109e-39
0.0047133244 -0.068006679 0.70700008 8.2738561e-39
0.0060600187 -0.068006679 0.70700008 9.0964323e-39
0.0073857266 -0.067814291 0.7050001 9.9222399e-39
0.008728574 -0.067814291 0.7050001 1.010484e-38
0.010071459 -0.067814291 0.7050001 1.028815e-38
0.011414309 -0.067814291 0.7050001 1.0747682e-38
0.012739063 -0.067718118 0.70400012 1.1208283e-38
0.014080026 -0.067718118 0.70400012 1.1298314e-38
0.015420987 -0.067718118 0.70400012 1.1389416e-38
0.016761951 -0.067718118 0.70400012 1.1664907e-38
0.018102877 -0.067718133 0.70400012 1.1939717e-38
0.01944384 -0.067718118 0.70400012 1.1848262e-38
0.020814296 -0.06781432 0.7050001 1.1848633e-38
0.022157183 -0.067814291 0.7050001 1.1848644e-38
0.023500031 -0.067814291 0.7050001 1.1940466e-38
0.024913324 -0.068006694 0.70700008 1.1756779e-38
0.02626002 -0.068006679 0.70700008 1.157273e-38
0.027606677 -0.068006679 0.70700008 1.1205727e-38
0.028953331 -0.068006694 0.70700014 1.0838043e-38
0.030300027 -0.068006694 0.70700008 1.0563271e-38
0.031646658 -0.068006709 0.70700008 1.0287062e-38
0.033039998 -0.068102881 0.70800006 1.0655137e-38
0.034485746 -0.068295255 0.71000004 1.1021763e-38
0.035838131 -0.068295255 0.71000004 1.1390181e-38
0.037242834 -0.068391442 0.71100008 1.1758228e-38
0.038597144 -0.068391457 0.71100008 1.1391232e-38
0.039951459 -0.068391442 0.71100008 1.1118604e-38
0.041305728 -0.068391442 0.71100008 1.0473251e-38
0.042779993 -0.068583831 0.71300012 9.738213e-39
0.044200007 -0.068680018 0.71400011 9.1872042e-39
0.045751464 -0.068968594 0.71700007 8.6390289e-39
0.047248591 -0.069160968 0.7190001 9.0953042e-39
0.048685722 -0.069257155 0.72000009 9.6459823e-39
0.050196186 -0.069449544 0.72200012 9.8447439e-39
0.051571436 -0.069449544 0.72200012 1.0119159e-38
0.053019974 -0.069545731 0.72300011 8.2845844e-39
0.054397132 -0.069545746 0.72300017 6.452545e-39
0.055928588 -0.069738105 0.72500008 6.8206115e-39
0.057388585 -0.069834292 0.72600007 7.1890381e-39
0.059176192 -0.070315257 0.73100007 7.0961334e-39
0.06065147 -0.070411459 0.73200011 7.0035748e-39
0.062469531 -0.070892394 0.73700011 7.2790757e-39
-0.024266699 -0.068640023 0.72800016 1.4661501e-38
-0.022817126 -0.068451434 0.72600007 1.4923027e-38
-0.021434294 -0.068451434 0.72600007 1.4938462e-38
-0.019968605 -0.068168595 0.72300017 1.4813921e-38
-0.018565735 -0.068074301 0.72200012 8.0818866e-39
-0.017142834 -0.067885727 0.72000009 1.2860585e-39
-0.01577143 -0.067885712 0.72000009 2.2962489e-39
-0.014379966 -0.067791447 0.71900004 3.2225044e-39
-0.012974299 -0.067602873 0.71700007 5.5126619e-39
-0.011592372 -0.067508608 0.71600008 7.818584e-39
-0.010199987 -0.067320019 0.71400011 6.8880223e-39
-0.0088399844 -0.067320004 0.71400011 5.9764833e-39
-0.0074695242 -0.067225739 0.71300012 5.3268189e-39
-0.0061114659 -0.067225739 0.71300012 4.6933087e-39
-0.0047533461 -0.067225739 0.71300012 3.9493089e-39
-0.0033856973 -0.06703715 0.71100008 3.1299669e-39
-0.0020314276 -0.06703715 0.71100008 2.0207705e-39
-0.00067429867 -0.066754311 0.70800012 9.1910746e-40
0.00067427877 -0.066754311 0.70800012 6.4324784e-40
0.0020200082 -0.066660017 0.70700008 2.7733238e-40
0.0033666634 -0.066660032 0.70700008 1.0105744e-39
0.0047133579 -0.066660032 0.70700008 1.7474122e-39
0.0060600131 -0.066660032 0.70700008 3.2146291e-39
0.0074066701 -0.066660017 0.70700014 4.6850761e-39
0.0087533398 -0.066660017 0.70700008 5.0513447e-39
0.010099997 -0.066660032 0.70700008 5.3275672e-39
0.011446691 -0.066660017 0.70700008 6.3370388e-39
0.012757148 -0.066471443 0.7050001 7.2564643e-39
0.014100033 -0.066471443 0.70500004 7.347218e-39
0.015442883 -0.066471443 0.7050001 7.4394039e-39
0.016785728 -0.066471443 0.7050001 7.7145446e-39
0.018128613 -0.066471443 0.70500004 7.8985841e-39
0.019471461 -0.066471443 0.7050001 7.9900721e-39
0.020814311 -0.066471443 0.7050001 7.9904365e-39
0.022220006 -0.066660017 0.70700008 8.1737543e-39
0.023566665 -0.066660017 0.70700008 8.357777e-39
0.024913356 -0.066660017 0.70700008 8.0819048e-39
0.026260013 -0.066660032 0.70700008 7.7149146e-39
0.027606709 -0.066660017 0.70700008 7.1635372e-39
0.02895334 -0.066660017 0.70700008 6.5210517e-39
0.030342843 -0.066754311 0.70800006 6.0615211e-39
0.031691421 -0.066754311 0.70800006 5.5108739e-39
0.033039998 -0.066754311 0.70800006 6.153372e-39
0.034485724 -0.066942886 0.7100001 6.7965792e-39
0.035838094 -0.066942886 0.7100001 7.5309044e-39
0.037242867 -0.067037165 0.71100008 8.2663003e-39
0.038597178 -0.067037165 0.71100008 7.8063983e-39
0.039951425 -0.067037165 0.71100008 7.2579007e-39
0.041305736 -0.06703715 0.71100008 6.1533678e-39
0.042779982 -0.067225739 0.71300012 5.0520607e-39
0.044200003 -0.067320004 0.71400011 4.5003331e-39
