# .PCD v0.7 - Point Cloud Data file format
VERSION 0.7
FIELDS x y z rgb
SIZE 4 4 4 4
TYPE F F F F
COUNT 1 1 1 1
WIDTH 949
HEIGHT 1
VIEWPOINT 0 0 0 1 0 0 0
POINTS 949
DATA ascii
0.014500017 -0.075261913 0.72499996 6.0615029e-39
0.015902892 -0.0753657 0.72599995 5.4186544e-39
0.017285751 -0.075365715 0.72600001 9.4719719e-39
0.018720001 -0.075573348 0.72800004 1.3500178e-38
0.020134313 -0.075677119 0.72899997 1.2410708e-38
0.021522867 -0.075677164 0.72900003 1.1387962e-38
0.022974286 -0.075884782 0.73100001 9.6466746e-39
0.024400009 -0.075988568 0.73200005 7.9900917e-39
0.0258648 -0.076196216 0.73400003 9.386679e-39
0.02726287 -0.076196201 0.73400003 1.0777497e-38
0.028739085 -0.076403804 0.73600006 1.1145211e-38
0.030140979 -0.076403804 0.736 1.152039e-38
0.031585719 -0.076507635 0.73700005 1.022818e-38
0.033213358 -0.077026658 0.74200004 8.9274259e-39
0.034860015 -0.07754571 0.74700004 7.7364441e-39
0.036331467 -0.077649541 0.74800003 6.6347741e-39
0.037857167 -0.077857144 0.75000006 6.6362062e-39
0.039285719 -0.077857129 0.75000006 6.6380069e-39
0.040822871 -0.078064762 0.75200003 6.5443847e-39
-0.047538117 -0.075919054 0.74500006 7.9929392e-39
-0.046119042 -0.075919069 0.74500006 8.3588406e-39
-0.04457999 -0.075715251 0.74300003 8.3584763e-39
-0.043164764 -0.075715266 0.74300009 8.3581162e-39
-0.041749526 -0.075715266 0.74300003 8.2659205e-39
-0.040117145 -0.075307615 0.73900002 8.1740822e-39
-0.038709536 -0.07530763 0.73900002 7.0716947e-39
-0.037200965 -0.075103827 0.73700005 5.9696688e-39
-0.035748549 -0.075001918 0.73600006 6.7043514e-39
-0.034346633 -0.075001903 0.736 7.3472026e-39
-0.032765694 -0.074594282 0.73200005 8.0818894e-39
-0.031371392 -0.074594282 0.73199999 8.7247477e-39
-0.029936189 -0.074492402 0.73100001 9.5512756e-39
-0.028543809 -0.074492387 0.73100001 1.0377794e-38
-0.027151432 -0.074492387 0.73100001 1.0194121e-38
-0.025759058 -0.074492387 0.73100001 9.9186063e-39
-0.024366679 -0.074492387 0.73100001 9.8267624e-39
-0.022911394 -0.074288554 0.72900003 9.6434628e-39
-0.021493284 -0.074186675 0.72799999 9.6431167e-39
-0.020106638 -0.074186675 0.72800004 9.5520028e-39
-0.018668531 -0.073982872 0.72600001 9.0002766e-39
-0.017285693 -0.073982872 0.72600001 8.358147e-39
-0.015880933 -0.073880948 0.72500002 8.5411019e-39
-0.014499981 -0.073880948 0.72499996 8.6336549e-39
-0.013119045 -0.073880963 0.72500002 7.8064193e-39
-0.011754259 -0.073982872 0.72600001 6.9809761e-39
-0.010357114 -0.073880948 0.72500002 5.8778753e-39
-0.0089761624 -0.073880933 0.72499996 4.6844146e-39
-0.0075952471 -0.073880963 0.72500002 5.7861239e-39
-0.0062142727 -0.073880933 0.72500002 6.8073846e-39
-0.0048200306 -0.073677145 0.72300005 4.9595036e-39
-0.0034523797 -0.073880963 0.72500002 3.123158e-39
-0.0020714295 -0.073880948 0.72500002 5.1431858e-39
-0.00068760902 -0.073575236 0.72200006 7.1689463e-39
0.00068761356 -0.073575251 0.72200006 7.4430178e-39
0.002065686 -0.07367716 0.72300005 7.6313481e-39
0.0034428532 -0.073677145 0.72300005 8.5540051e-39
0.0048199981 -0.07367713 0.72300005 9.474497e-39
0.0061971261 -0.073677145 0.72300005 9.4594162e-39
0.0075952341 -0.073880948 0.72500002 9.371545e-39
0.0089762099 -0.073880978 0.72500002 1.0294939e-38
0.010371437 -0.073982857 0.72600001 1.1216507e-38
0.011738099 -0.073880963 0.72500002 7.8178623e-39
0.013119052 -0.073880963 0.72500002 4.4152827e-39
0.014500028 -0.073880963 0.72500002 3.122767e-39
0.015902873 -0.073982857 0.72600001 1.7600042e-39
0.017285749 -0.073982842 0.72600001 1.0520313e-38
0.018668609 -0.073982857 0.72600001 1.9234272e-38
0.020106684 -0.074186645 0.72800004 1.8417788e-38
0.021522854 -0.074288569 0.72900003 1.74786e-38
0.022911422 -0.074288554 0.72900003 1.5351292e-38
0.024366692 -0.074492387 0.73100001 1.3158041e-38
0.025794284 -0.074594282 0.73200005 1.4829773e-38
0.027262863 -0.074798115 0.73400003 1.6393505e-38
0.028660972 -0.0747981 0.73400003 1.658401e-38
0.030140975 -0.075001903 0.73600006 1.676658e-38
0.03154289 -0.075001903 0.73600006 1.4110141e-38
0.033123776 -0.075409524 0.74000001 1.1421746e-38
0.034533329 -0.075409539 0.74000001 8.8409714e-39
0.036428574 -0.076428585 0.75000006 6.2677908e-39
0.037958093 -0.076632373 0.75199997 6.6355e-39
0.039390534 -0.076632388 0.75200003 7.003558e-39
0.040822897 -0.076632373 0.75200003 6.7280501e-39
-0.045995235 -0.074300028 0.74300003 6.06187e-39
-0.044579998 -0.074299999 0.74300003 6.7972673e-39
-0.043164771 -0.074300013 0.74300003 7.6234266e-39
-0.041749507 -0.074300013 0.74300003 6.797263e-39
-0.040117145 -0.073900007 0.73900002 5.9703848e-39
-0.038604766 -0.073700018 0.73700005 4.7761647e-39
-0.037200924 -0.073699988 0.73700005 3.5819445e-39
-0.035797123 -0.073700018 0.73700005 5.5147947e-39
-0.034346655 -0.073600002 0.73600006 7.4390353e-39
-0.032855202 -0.073400028 0.73400003 8.2655548e-39
-0.031371418 -0.073199995 0.73199999 9.1839097e-39
-0.029977152 -0.073199995 0.73200005 9.5566327e-39
-0.028582852 -0.073199995 0.73199999 1.0010429e-38
-0.027151406 -0.073100008 0.73100001 1.0377771e-38
-0.025759032 -0.073100008 0.73100001 1.0836949e-38
-0.024366653 -0.073100008 0.73100001 1.1491994e-38
-0.022911405 -0.072899975 0.72900003 1.2214481e-38
-0.021522837 -0.07289999 0.72899997 8.5417787e-39
-0.020106638 -0.072800003 0.72800004 4.9594769e-39
-0.018668571 -0.072600015 0.72600001 6.5206804e-39
-0.017285673 -0.072600015 0.72600001 8.1737193e-39
-0.015880944 -0.072499998 0.72499996 9.1918019e-39
-0.01449997 -0.072499998 0.72499996 1.0285936e-38
-0.013119056 -0.072500028 0.72500002 1.0015451e-38
-0.01173808 -0.072499998 0.72500002 9.8267582e-39
-0.010357126 -0.072499998 0.72499996 1.0848069e-38
-0.0089761904 -0.072500013 0.72500002 1.1939056e-38
-0.0075952359 -0.072500013 0.72500002 1.2609965e-38
-0.0062142597 -0.072499998 0.72500002 1.3358201e-38
-0.0048333076 -0.072499983 0.72499996 1.0957483e-38
-0.0034523928 -0.072500013 0.72500002 8.6328968e-39
-0.0020714183 -0.072500013 0.72500002 8.6436587e-39
-0.00068762578 -0.072200008 0.72200006 8.6504803e-39
0.00068763405 -0.072200008 0.722 9.2944105e-39
0.0020657158 -0.072300009 0.72300005 1.0027325e-38
0.0034428234 -0.072300009 0.72300005 1.1698323e-38
0.0048199906 -0.072300009 0.72300005 1.3363172e-38
0.0062142923 -0.072500013 0.72500002 1.233358e-38
0.0075952462 -0.072499998 0.72500002 1.1394095e-38
0.0089761987 -0.072499998 0.72499996 1.1307676e-38
0.010371456 -0.072600015 0.72600001 1.1232312e-38
0.011738088 -0.072499998 0.72500002 9.3880383e-39
0.013119064 -0.072500013 0.72500002 7.5463019e-39
0.014500017 -0.072499998 0.72499996 4.2305327e-39
0.015880955 -0.072499998 0.72500002 9.2673192e-40
0.017261907 -0.072499998 0.72500002 9.2261295e-39
0.018668607 -0.0726 0.72600001 1.7509601e-38
0.020051466 -0.0726 0.72600001 1.6674813e-38
0.0215229 -0.07289999 0.72899997 1.5941513e-38
0.022911431 -0.07289999 0.72900003 1.3533649e-38
0.024366658 -0.073100023 0.73100001 1.1247126e-38
0.02579432 -0.073199995 0.73199999 1.2536086e-38
0.027262878 -0.073400013 0.73400003 1.3831491e-38
0.028739067 -0.073600002 0.736 1.3457354e-38
0.030140987 -0.073599987 0.736 1.3096834e-38
0.031585742 -0.073700003 0.73700005 1.1803967e-38
0.033079028 -0.073900022 0.73900002 1.0594563e-38
0.034906693 -0.074800007 0.74800003 8.3814254e-39
0.036428582 -0.074999996 0.75000006 6.1734456e-39
0.037958115 -0.075199999 0.75200003 6.5429568e-39
0.039390475 -0.075199999 0.75200003 6.9106477e-39
0.040822871 -0.075199984 0.75199997 6.3603424e-39
-0.046119049 -0.073080964 0.74500006 3.7677763e-39
-0.044579975 -0.072884791 0.74300003 5.3289755e-39
-0.043164771 -0.072884776 0.74300003 6.8004958e-39
-0.041749507 -0.072884776 0.74300003 5.3289769e-39
-0.040117122 -0.072492369 0.73900002 3.7670532e-39
-0.038709536 -0.072492398 0.73900002 2.4799185e-39
-0.037301924 -0.072492383 0.73900002 1.1074196e-39
-0.035797138 -0.07229621 0.73700005 4.3342288e-39
-0.034393337 -0.07229621 0.73700005 7.5423895e-39
-0.032855242 -0.072001912 0.73400003 8.5411173e-39
-0.031457137 -0.072001927 0.73400003 9.5724982e-39
-0.029977119 -0.071805693 0.73199999 9.5732409e-39
-0.028582856 -0.071805723 0.73200005 9.5746534e-39
-0.027188556 -0.071805693 0.73199999 1.0653339e-38
-0.025759064 -0.071707629 0.73100001 1.1787702e-38
-0.024366686 -0.071707644 0.73100001 1.3272906e-38
-0.022974284 -0.071707629 0.73100001 1.4726066e-38
-0.021522829 -0.07151144 0.72900003 7.5334184e-39
-0.020134257 -0.071511425 0.72900003 2.7661772e-40
-0.018719954 -0.071413346 0.72800004 4.1329883e-39
-0.017285714 -0.071217142 0.72600001 7.9129811e-39
-0.015880933 -0.071119048 0.72500002 9.9498931e-39
-0.014499981 -0.071119033 0.72499996 1.1870915e-38
-0.013119046 -0.071119063 0.72500002 1.2233962e-38
-0.011738092 -0.071119048 0.72500002 1.2611709e-38
-0.010357115 -0.071119048 0.72499996 1.5931778e-38
-0.0089762015 -0.071119063 0.72500002 1.9240415e-38
-0.0075952248 -0.071119063 0.72500002 1.9539288e-38
-0.0062142708 -0.071119048 0.72500002 1.9810449e-38
-0.0048332964 -0.071119033 0.72499996 1.69714e-38
-0.0034523816 -0.071119063 0.72500002 1.4086435e-38
-0.0020714295 -0.071119048 0.72500002 1.2147447e-38
-0.00068858691 -0.070922874 0.72300005 1.0131392e-38
0.00068858213 -0.070922859 0.72300005 1.1239898e-38
0.002065686 -0.070922874 0.72300005 1.2342302e-38
0.0034428551 -0.070922859 0.72300005 1.4756951e-38
0.0048333663 -0.071119048 0.72499996 1.713569e-38
0.0062142811 -0.071119078 0.72500002 1.5301835e-38
0.0075952574 -0.071119063 0.72500002 1.3433885e-38
0.0089885779 -0.071217142 0.72600001 1.230959e-38
0.010371454 -0.071217157 0.72600001 1.1129715e-38
0.011738099 -0.071119063 0.72500002 1.0956084e-38
0.013119052 -0.071119078 0.72499996 1.0667645e-38
0.014500028 -0.071119063 0.72499996 5.4186544e-39
0.015880944 -0.071119063 0.72500002 1.0663741e-40
0.01726192 -0.071119063 0.72500002 7.9475455e-39
0.018668588 -0.071217142 0.72600001 1.5655623e-38
0.020106699 -0.071413331 0.72799999 1.5013128e-38
0.021522887 -0.071511425 0.72899997 1.4265497e-38
0.022974307 -0.071707629 0.73100001 1.1778016e-38
0.024366684 -0.071707629 0.73100001 9.2130778e-39
0.025794296 -0.071805693 0.73199999 1.0235465e-38
0.02726287 -0.072001912 0.73400003 1.1152052e-38
0.028739063 -0.0721981 0.73600006 1.0316589e-38
0.030140979 -0.0721981 0.73600006 9.4029019e-39
0.031671438 -0.072492383 0.73900002 9.5976992e-39
0.033213347 -0.072786666 0.74200004 9.6711679e-39
0.034860022 -0.073277153 0.74700004 7.8246993e-39
0.036428541 -0.073571436 0.75000006 5.9905005e-39
0.037958141 -0.073767625 0.75200003 6.3596375e-39
0.039390501 -0.07376761 0.75200003 6.7273284e-39
0.040822901 -0.073767625 0.75199997 5.9915585e-39
-0.046119053 -0.071661927 0.74500006 5.5155206e-39
-0.044580013 -0.071469538 0.74300009 6.9902639e-39
-0.043164749 -0.071469523 0.74300003 8.3692355e-39
-0.040334281 -0.071469538 0.74300003 3.4926257e-39
-0.038709514 -0.071084775 0.73900002 4.8733811e-39
-0.037301902 -0.07108476 0.73900002 6.3391842e-39
-0.035894319 -0.071084775 0.73900002 6.2627952e-39
-0.034393314 -0.070892386 0.73699999 6.1813966e-39
-0.032944731 -0.070796184 0.736 9.9506316e-39
-0.031457119 -0.070603825 0.73400003 1.374643e-38
-0.030059006 -0.070603825 0.73400003 1.4755594e-38
-0.028582841 -0.070411421 0.73199999 1.5776143e-38
-0.027188556 -0.070411421 0.73200005 1.6315632e-38
-0.025794256 -0.070411421 0.73199999 1.6978672e-38
-0.024366656 -0.070315234 0.73100001 1.5869215e-38
-0.022974283 -0.070315234 0.73100001 1.4771009e-38
-0.02152284 -0.07012286 0.72899997 7.4588385e-39
-0.02013425 -0.070122845 0.72900003 2.7593388e-40
-0.018719979 -0.070026658 0.72800004 4.0501519e-39
-0.017285695 -0.06983427 0.72600001 7.741926e-39
-0.015902856 -0.069834299 0.72600001 9.9535687e-39
-0.014500009 -0.069738112 0.72500002 1.216661e-38
-0.013119057 -0.069738083 0.72500002 1.2531102e-38
-0.011738081 -0.069738097 0.72500002 1.2913872e-38
-0.010357128 -0.069738097 0.72499996 1.4562249e-38
-0.0089761904 -0.069738112 0.72500002 1.6142841e-38
-0.0075952359 -0.069738097 0.72500002 1.7331338e-38
-0.0062142597 -0.069738083 0.72500002 1.8444483e-38
-0.0048200362 -0.069545723 0.72300005 1.6774941e-38
-0.0034523704 -0.069738097 0.72500002 1.5195365e-38
-0.0020714183 -0.069738083 0.72500002 1.2797519e-38
-0.00068859436 -0.069545723 0.72300005 1.0508127e-38
0.00068857468 -0.069545723 0.72300005 9.8524006e-39
0.0020714249 -0.069738097 0.72500002 9.2124402e-39
0.0034524011 -0.069738083 0.72500002 1.0596807e-38
0.0048333551 -0.069738097 0.72499996 1.2080521e-38
0.0062142923 -0.069738097 0.72500002 1.3364063e-38
0.0075952462 -0.069738097 0.72500002 1.4637829e-38
0.0089762192 -0.069738083 0.72500002 1.2233512e-38
0.010371435 -0.069834299 0.72600001 9.8372021e-39
0.011738088 -0.069738097 0.72500002 9.7489749e-39
0.013119064 -0.069738083 0.72500002 9.5652731e-39
0.014500017 -0.069738097 0.72499996 7.1671162e-39
0.015880955 -0.069738097 0.72500002 4.6840321e-39
0.017261907 -0.069738097 0.72500002 8.3819074e-39
0.018668586 -0.06983427 0.72600001 1.2142508e-38
0.020051448 -0.069834284 0.72600001 1.1220572e-38
0.021522896 -0.07012286 0.72899997 1.0287855e-38
0.022974273 -0.070315249 0.73100001 9.5621272e-39
0.024400031 -0.070411421 0.73199999 8.7344951e-39
0.025864778 -0.07060384 0.73400003 9.9462568e-39
0.027337158 -0.070796199 0.73600006 1.1142657e-38
0.028739074 -0.070796184 0.736 9.8487376e-39
0.030140953 -0.070796199 0.73600006 8.5497731e-39
0.031671438 -0.071084775 0.73900002 8.5623344e-39
0.033213355 -0.071373336 0.7420001 8.6469686e-39
0.034859959 -0.071854286 0.74700004 7.5502956e-39
0.036331445 -0.071950488 0.74800003 6.4514814e-39
0.037857138 -0.072142862 0.75000006 6.6362118e-39
0.03928569 -0.072142862 0.75000006 6.9127847e-39
-0.040334284 -0.0700543 0.74300003 3.2207122e-39
-0.038761921 -0.069771446 0.74000007 7.3654966e-39
-0.037301905 -0.069677137 0.73900002 1.1498851e-38
-0.035894293 -0.069677152 0.73900002 8.1042051e-39
-0.034393311 -0.069488578 0.73700005 4.7088169e-39
-0.032989509 -0.069488578 0.73700005 1.1241349e-38
-0.031542819 -0.069394298 0.73600006 1.7786133e-38
-0.030059015 -0.069205724 0.73400003 1.9925684e-38
-0.028660946 -0.069205739 0.73400003 2.1935277e-38
-0.027188545 -0.06901712 0.73199999 2.2038568e-38
-0.025794283 -0.069017135 0.73199999 2.2032865e-38
-0.024399981 -0.069017135 0.73199999 1.8361993e-38
-0.022974294 -0.068922855 0.73100007 1.4643261e-38
-0.021581916 -0.068922885 0.73100001 7.4390858e-39
-0.020134263 -0.068734281 0.72900003 2.7808208e-40
-0.018719979 -0.068640001 0.72800004 3.9576116e-39
-0.017333293 -0.068640001 0.72799999 7.5521453e-39
-0.015902834 -0.068451427 0.72600001 1.0047522e-38
-0.014519998 -0.068451427 0.72600001 1.2433836e-38
-0.013137099 -0.068451412 0.72600001 1.2809096e-38
-0.011754261 -0.068451427 0.72600001 1.3167081e-38
-0.010371423 -0.068451427 0.72600001 1.3077008e-38
-0.0089885639 -0.068451442 0.72600001 1.2990935e-38
-0.0075952248 -0.068357147 0.72500002 1.5014567e-38
-0.0062142708 -0.068357132 0.72499996 1.704283e-38
-0.0048333355 -0.068357147 0.72500002 1.6671172e-38
-0.0034523816 -0.068357147 0.72500002 1.6210183e-38
-0.0020714053 -0.068357117 0.72500002 1.35229e-38
-0.00068856269 -0.068168573 0.72300005 1.0778579e-38
0.00068854488 -0.068168588 0.72300005 8.3574772e-39
0.0020657121 -0.068168573 0.72300005 5.9787352e-39
0.00345239 -0.068357132 0.72499996 6.4289584e-39
0.0048333663 -0.068357147 0.72499996 6.9164925e-39
0.0062142792 -0.068357162 0.72500002 1.1435822e-38
0.0075952555 -0.068357147 0.72500002 1.5837435e-38
0.008976208 -0.068357147 0.72499996 1.2241826e-38
0.010371457 -0.068451442 0.72600001 8.5587064e-39
0.011754294 -0.068451427 0.72600001 8.545062e-39
0.013119075 -0.068357147 0.72500002 8.4550244e-39
0.014520032 -0.068451427 0.72600001 8.9088265e-39
0.015902871 -0.068451412 0.72600001 9.2945072e-39
0.017285733 -0.068451442 0.72600007 8.9365357e-39
0.018720031 -0.068640001 0.72799999 8.5626959e-39
0.020106701 -0.068640001 0.72800004 7.4391054e-39
0.021522881 -0.068734281 0.72899997 6.3399619e-39
0.022974299 -0.06892287 0.73100001 7.3566222e-39
0.024366679 -0.068922855 0.73100001 8.2835657e-39
0.025794307 -0.069017135 0.73199999 9.6729167e-39
0.02726288 -0.069205709 0.73400003 1.1047237e-38
0.028739071 -0.069394283 0.73600006 9.3852483e-39
0.030140987 -0.069394283 0.73600006 7.6385802e-39
0.031671401 -0.069677137 0.73900002 7.6382229e-39
0.033258088 -0.0700543 0.74300003 7.6407144e-39
0.034766667 -0.070242859 0.74500006 7.2776576e-39
0.036282856 -0.070431434 0.7470001 6.819185e-39
0.037857145 -0.070714287 0.75000006 6.912084e-39
0.039285734 -0.070714258 0.75000006 7.0039237e-39
-0.038866639 -0.06854666 0.74200004 7.4569747e-39
-0.037352376 -0.068361916 0.74000001 1.2523767e-38
-0.035894297 -0.068269528 0.73900002 1.0870784e-38
-0.034486685 -0.068269543 0.73900002 9.1036644e-39
-0.033079036 -0.068269528 0.73900002 9.2105624e-39
-0.031585727 -0.068084754 0.73700005 9.424458e-39
-0.030181885 -0.068084754 0.73700005 1.2823179e-38
-0.028778084 -0.068084769 0.73700005 1.6225751e-38
-0.027188545 -0.067622863 0.73199999 1.6694968e-38
-0.025794245 -0.067622848 0.73199999 1.7252408e-38
-0.024366664 -0.06753049 0.73100001 1.2532537e-38
-0.02297429 -0.06753049 0.73100001 7.8065006e-39
-0.021581912 -0.067530476 0.73100001 4.04115e-39
-0.020134253 -0.067345701 0.72900003 2.7592408e-40
-0.018719962 -0.067253329 0.72799999 3.4037414e-39
-0.017333293 -0.067253314 0.72800004 6.5326166e-39
-0.015946647 -0.067253344 0.72800004 8.0102452e-39
-0.014519977 -0.067068569 0.72600001 9.568611e-39
-0.01313714 -0.067068584 0.72600001 9.1995062e-39
-0.011754242 -0.067068554 0.72600001 8.9085126e-39
-0.010371404 -0.067068569 0.72600001 1.1311239e-38
-0.0089885658 -0.067068569 0.72600001 1.3790467e-38
-0.0076057059 -0.067068584 0.72600007 1.6017147e-38
-0.0062228297 -0.067068569 0.72600001 1.8225125e-38
-0.0048333467 -0.066976212 0.72500002 1.9072073e-38
-0.0034523704 -0.066976212 0.72500002 1.9818278e-38
-0.0020714165 -0.066976182 0.72499996 1.8431101e-38
-0.0006885925 -0.066791438 0.72300005 1.7153582e-38
0.00068857468 -0.066791438 0.72300005 1.4366876e-38
0.0020656823 -0.066791438 0.72300005 1.1670651e-38
0.0034428495 -0.066791438 0.72300005 1.029241e-38
0.0048333383 -0.066976212 0.72500002 8.8327668e-39
0.0062142904 -0.066976212 0.72500002 1.2070365e-38
0.0075952443 -0.066976197 0.72499996 1.5391176e-38
0.0089762192 -0.066976197 0.72499996 1.36309e-38
0.010357135 -0.066976197 0.72500002 1.1876292e-38
0.011738111 -0.066976197 0.72500002 9.9355004e-39
0.013119062 -0.066976197 0.72499996 7.9022471e-39
0.014500001 -0.066976197 0.72500002 9.7537057e-39
0.01590289 -0.067068569 0.72600001 1.1618063e-38
0.017285729 -0.067068569 0.72600001 1.1796018e-38
0.01866859 -0.067068584 0.72600007 1.2068925e-38
0.020051466 -0.067068569 0.72600001 9.4762767e-39
0.021522891 -0.067345716 0.72900003 6.7962261e-39
0.022911459 -0.067345701 0.72899997 7.7228697e-39
0.024366643 -0.06753049 0.73100001 8.655211e-39
0.025794303 -0.067622848 0.73200005 9.4863884e-39
0.027188605 -0.067622848 0.73199999 1.0222157e-38
0.02873908 -0.067992397 0.736 9.2080275e-39
0.030140961 -0.067992382 0.73600006 8.194963e-39
0.03167142 -0.068269543 0.73900002 7.8258217e-39
0.033213332 -0.068546675 0.74200004 7.5513802e-39
0.034626652 -0.06854666 0.74200004 6.7259243e-39
0.036040016 -0.068546675 0.7420001 5.9011915e-39
0.037756197 -0.069100939 0.74799997 6.3607193e-39
0.039285742 -0.069285713 0.75000006 6.8191976e-39
-0.040334266 -0.067223825 0.74300003 1.5680642e-39
-0.038761944 -0.0669524 0.74000001 7.549232e-39
-0.037352409 -0.066952385 0.74000001 1.3542975e-38
-0.035894271 -0.066861905 0.73900002 1.3567052e-38
-0.034486685 -0.06686192 0.73900002 1.3532594e-38
-0.032989491 -0.06668096 0.73699999 7.2558352e-39
-0.031585686 -0.066680975 0.73700005 9.3858831e-40
-0.030140957 -0.066590481 0.73600006 5.7162173e-39
-0.028739041 -0.066590481 0.73600006 1.0420308e-38
-0.027188571 -0.066228561 0.73200005 1.1445954e-38
-0.025759039 -0.066138111 0.73100001 1.2434917e-38
-0.02436666 -0.066138096 0.73100001 6.7084067e-39
-0.022974262 -0.066138096 0.73100001 9.1985295e-40
-0.021581886 -0.066138096 0.73100001 5.5138712e-40
-0.02010663 -0.065866657 0.72799999 1.8442489e-40
-0.018719962 -0.065866657 0.72800004 2.8487515e-39
-0.017333316 -0.065866672 0.72800004 5.4269753e-39
-0.015946632 -0.065866672 0.72799999 6.0759363e-39
-0.014519982 -0.065685697 0.72600001 6.6222871e-39
-0.01313712 -0.065685727 0.72600001 5.6031283e-39
-0.011754282 -0.065685712 0.72600001 4.5947315e-39
-0.010371383 -0.065685712 0.72600001 9.5606643e-39
-0.0089885453 -0.065685712 0.72600001 1.4538465e-38
-0.0076057077 -0.065685712 0.72600001 1.7037783e-38
-0.0062142727 -0.065595217 0.72499996 1.9438086e-38
-0.0048333355 -0.065595232 0.72500002 2.1482169e-38
-0.0034523816 -0.065595232 0.72500002 2.3410354e-38
-0.0020714053 -0.065595232 0.72500002 2.3413223e-38
-0.00068855897 -0.065414287 0.72300005 2.3409595e-38
0.00068854674 -0.065414302 0.72300005 2.0469741e-38
0.002065714 -0.065414302 0.72300005 1.7389614e-38
0.0034524123 -0.065595232 0.72500002 1.4053711e-38
0.0048333271 -0.065595247 0.72500002 1.07667e-38
0.0062143034 -0.065595247 0.72500002 1.280543e-38
0.0075952555 -0.065595247 0.72500002 1.4827957e-38
0.008976208 -0.065595217 0.72499996 1.5014134e-38
0.010357145 -0.065595262 0.72500002 1.5190611e-38
0.011738098 -0.065595247 0.72500002 1.1327043e-38
0.013119074 -0.065595247 0.72500002 7.3648576e-39
0.014499989 -0.065595247 0.72500002 1.0584854e-38
0.01590289 -0.065685712 0.72600001 1.3813105e-38
0.017285747 -0.065685712 0.72600001 1.4744392e-38
0.018668586 -0.065685727 0.72600001 1.5560846e-38
0.020051425 -0.065685727 0.72600001 1.1417825e-38
0.02149336 -0.065866672 0.72800004 7.2730053e-39
0.022974294 -0.066138111 0.73100001 8.174476e-39
0.024366669 -0.066138111 0.73100001 9.0200209e-39
0.025759047 -0.066138111 0.73100001 9.2108805e-39
0.027262887 -0.066409521 0.73400003 9.3956319e-39
0.028739076 -0.066590481 0.73600006 9.0293704e-39
0.03014097 -0.066590466 0.736 8.6544922e-39
0.031585734 -0.06668096 0.73700005 8.1016827e-39
0.033123754 -0.0669524 0.74000001 7.4591776e-39
0.034626663 -0.067133345 0.7420001 6.2656609e-39
0.036039982 -0.067133345 0.74200004 4.9821163e-39
0.037503801 -0.067223825 0.74300003 5.8104294e-39
0.038919069 -0.06722381 0.74300003 6.6366014e-39
-0.041861884 -0.065985717 0.74500006 2.1179687e-39
-0.040334307 -0.065808587 0.74300009 8.2694966e-40
-0.03876191 -0.065542869 0.74000001 6.2643156e-39
-0.037352376 -0.065542869 0.74000001 1.1807477e-38
-0.035894271 -0.065454282 0.73900002 1.2826305e-38
-0.034486663 -0.065454297 0.73900002 1.3918611e-38
-0.032989506 -0.065277152 0.73699999 9.2044738e-39
-0.031585701 -0.065277137 0.73700005 4.5003877e-39
-0.030140921 -0.065188579 0.73600006 7.363403e-39
-0.02866092 -0.065011449 0.73400003 1.0221852e-38
-0.027188538 -0.064834274 0.73199999 1.1511921e-38
-0.025794275 -0.064834259 0.73200005 1.2863885e-38
-0.024366675 -0.064745732 0.73100001 9.9318668e-39
-0.022974296 -0.064745717 0.73100001 7.0716933e-39
-0.021581918 -0.064745732 0.73100001 5.3343523e-39
-0.02010663 -0.064480014 0.72800004 3.6737926e-39
-0.018719984 -0.064480014 0.72800004 4.3188047e-39
-0.017333278 -0.064480014 0.72799999 5.056018e-39
-0.015946632 -0.064480014 0.72800004 5.2422183e-39
-0.014519961 -0.064302839 0.72600001 5.5169779e-39
-0.013137123 -0.064302869 0.72600001 3.9510801e-39
-0.011754262 -0.064302854 0.72600001 2.3881461e-39
-0.010371425 -0.064302854 0.72600001 7.5485734e-39
-0.0089885266 -0.064302854 0.72600001 1.2713275e-38
-0.0075952155 -0.064214282 0.72500002 1.5479848e-38
-0.0062142615 -0.064214267 0.72499996 1.816001e-38
-0.0048333467 -0.064214297 0.72500002 1.9639851e-38
-0.0034523704 -0.064214282 0.72500002 2.1121372e-38
-0.0020714183 -0.064214267 0.72499996 2.0656052e-38
-0.00068858877 -0.064037152 0.72300005 2.0203322e-38
0.00068857655 -0.064037137 0.72300005 1.6864948e-38
0.0020657065 -0.064037152 0.72300005 1.3537237e-38
0.0034524011 -0.064214267 0.72499996 1.3432736e-38
0.0048200185 -0.064037137 0.72300005 1.3343482e-38
0.0061971261 -0.064037152 0.72300005 1.3897792e-38
0.0075952667 -0.064214282 0.72500002 1.4355859e-38
0.0089762202 -0.064214267 0.72499996 1.4919391e-38
0.010357134 -0.064214282 0.72500002 1.5474001e-38
0.01173811 -0.064214297 0.72500002 1.0491934e-38
0.013119063 -0.064214282 0.72499996 5.523117e-39
0.014520007 -0.064302854 0.72600001 9.4759754e-39
0.015946694 -0.064479999 0.72800004 1.3530023e-38
0.017285747 -0.064302854 0.72600001 1.5197424e-38
0.018720046 -0.064479999 0.72799999 1.6940911e-38
0.020106692 -0.064479999 0.72800004 1.5102812e-38
0.021522887 -0.064568572 0.72900003 1.326422e-38
0.022974296 -0.064745732 0.73100001 1.1050394e-38
0.024400013 -0.064834259 0.73200005 8.8452986e-39
0.025794314 -0.064834274 0.73199999 8.4718904e-39
0.027337171 -0.065188579 0.73600006 8.1092119e-39
0.028739087 -0.065188564 0.736 7.7346953e-39
0.030140966 -0.065188579 0.73600006 7.3626898e-39
0.03167142 -0.065454282 0.73900002 7.2722878e-39
0.033213347 -0.065719984 0.74200004 7.1829466e-39
0.034673329 -0.065808602 0.74300003 6.2667258e-39
0.036185734 -0.065985732 0.74500006 5.4409323e-39
0.03760476 -0.065985717 0.74500006 6.0848639e-39
-0.04186191 -0.064566664 0.74500006 1.5640803e-39
-0.040334292 -0.064393349 0.74300009 9.4024324e-41
-0.038761936 -0.064133354 0.74000007 5.0564005e-39
-0.037352405 -0.064133339 0.74000001 9.958563e-39
-0.035894312 -0.064046673 0.73900002 1.2103868e-38
-0.034486663 -0.064046659 0.73900002 1.4190183e-38
-0.032989498 -0.063873343 0.73700005 1.114232e-38
-0.03154283 -0.063786678 0.736 8.0995219e-39
-0.030059038 -0.063613363 0.73400003 9.0149776e-39
-0.028660933 -0.063613348 0.73400003 9.9427031e-39
-0.02718856 -0.063440003 0.73199999 1.1699102e-38
-0.02579426 -0.063439988 0.73199999 1.3346391e-38
-0.024366671 -0.063353337 0.73100001 1.3266743e-38
-0.022974269 -0.063353337 0.73100001 1.3160192e-38
-0.02158189 -0.063353352 0.73100001 1.0132841e-38
-0.020134274 -0.063179992 0.72900003 7.0889601e-39
-0.018745681 -0.063179992 0.72900003 5.8807144e-39
-0.017357113 -0.063179992 0.72900003 4.6879445e-39
-0.015946655 -0.063093342 0.72800004 4.5032127e-39
-0.014519978 -0.062919997 0.72600001 4.3198795e-39
-0.013137102 -0.062919997 0.72600001 2.2966063e-39
-0.011754265 -0.062919997 0.72600001 1.8980167e-40
-0.010371405 -0.062919997 0.72600001 5.5324356e-39
-0.0089885658 -0.062919997 0.72600001 1.0868272e-38
-0.0076056686 -0.062919997 0.72600001 1.3915756e-38
-0.0062142503 -0.062833332 0.72499996 1.6861705e-38
-0.0048333374 -0.062833346 0.72500002 1.7795168e-38
-0.0034523611 -0.062833317 0.72500002 1.8707413e-38
-0.0020714072 -0.062833317 0.72499996 1.7886623e-38
-0.00068859622 -0.062660016 0.72300005 1.6944558e-38
0.0006885691 -0.062660016 0.72300005 1.3248865e-38
0.0020657158 -0.062660016 0.72300005 9.5743003e-39
0.0034428458 -0.062660016 0.72300005 1.2796366e-38
0.0048199887 -0.062660001 0.72300005 1.591774e-38
0.0062143034 -0.062833346 0.72500002 1.490293e-38
0.0075952555 -0.062833332 0.72499996 1.3899915e-38
0.0089761931 -0.062833346 0.72500002 1.483298e-38
0.010357146 -0.062833346 0.72500002 1.5740553e-38
0.011738099 -0.062833346 0.72499996 9.7349942e-39
0.013119075 -0.062833332 0.72499996 3.6770997e-39
0.014520029 -0.062919997 0.72600001 8.4493365e-39
0.015946694 -0.063093327 0.72800004 1.3166683e-38
0.017333377 -0.063093327 0.72799999 1.5758181e-38
0.018745733 -0.063179992 0.72900003 1.83278e-38
0.020134304 -0.063180007 0.72900003 1.8788072e-38
0.021522893 -0.063180007 0.72900003 1.9155714e-38
0.022974284 -0.063353367 0.73100001 1.3917444e-38
0.024366662 -0.063353337 0.73100001 8.654467e-39
0.025759041 -0.063353337 0.73100001 7.7217487e-39
0.027337166 -0.063786678 0.73600006 6.7158812e-39
0.028739057 -0.063786678 0.73600006 6.4375217e-39
0.030140977 -0.063786678 0.736 6.0741174e-39
0.031585719 -0.063873343 0.73700005 6.5340053e-39
0.033258088 -0.064393334 0.74300003 6.9070758e-39
0.034673348 -0.064393334 0.74300003 6.3603564e-39
0.036088578 -0.064393364 0.74300009 5.8086344e-39
0.037503794 -0.064393334 0.74300003 6.3589397e-39
-0.043280948 -0.063147627 0.74500006 3.5858905e-39
-0.041861895 -0.063147627 0.74500006 1.9310579e-39
-0.040334292 -0.062978096 0.74300003 2.7586802e-40
-0.03876191 -0.062723838 0.74000001 3.1317367e-39
-0.037352402 -0.062723838 0.74000001 6.0907031e-39
-0.035894286 -0.06263905 0.73900002 9.5949428e-39
-0.034486677 -0.06263905 0.73900008 1.3167448e-38
-0.032989517 -0.062469535 0.73700005 1.1327398e-38
-0.031542838 -0.062384777 0.73600006 9.3934403e-39
-0.030140914 -0.062384762 0.73600006 9.5727757e-39
-0.028738998 -0.062384762 0.73600006 9.6617623e-39
-0.027262842 -0.062215246 0.73400009 9.9455407e-39
-0.025794264 -0.062045716 0.73199999 1.0229735e-38
-0.024400001 -0.062045716 0.73200005 1.1329687e-38
-0.022974303 -0.061960988 0.73100001 1.2434926e-38
-0.021581924 -0.061960958 0.73100001 1.0962673e-38
-0.020189548 -0.061960958 0.73100001 9.5861329e-39
-0.018745696 -0.061791442 0.72900003 6.9934897e-39
-0.017357128 -0.061791413 0.72899997 4.504977e-39
-0.015946655 -0.061706655 0.72800004 4.8734078e-39
-0.014559971 -0.061706655 0.72799999 5.2378673e-39
-0.013173301 -0.06170667 0.72800004 4.2301739e-39
-0.011754245 -0.061537139 0.72600001 3.122767e-39
-0.010371407 -0.061537139 0.72600001 5.0624331e-39
-0.0089885471 -0.061537124 0.72600001 6.9946387e-39
-0.0076057077 -0.061537139 0.72600001 8.6581538e-39
-0.0062143006 -0.061452396 0.72500002 1.0321246e-38
-0.0048333243 -0.061452396 0.72500002 1.0412013e-38
-0.0034523723 -0.061452381 0.72499996 1.0404145e-38
-0.002071396 -0.061452366 0.72500002 9.4836601e-39
-0.00068856456 -0.061282866 0.72300005 8.5412154e-39
0.00068854116 -0.061282866 0.72300005 9.190465e-39
0.0020657084 -0.061282881 0.72300005 9.9186638e-39
0.0034428551 -0.061282866 0.72300005 1.2790287e-38
0.0048199813 -0.061282881 0.72300005 1.5649044e-38
0.0062142904 -0.061452396 0.72500002 1.4632056e-38
0.0075952667 -0.061452366 0.72499996 1.3528276e-38
0.0089514228 -0.061282881 0.72300005 1.4645765e-38
0.010357157 -0.061452381 0.72500002 1.5757069e-38
0.011754311 -0.061537139 0.72600001 9.7482519e-39
0.01313715 -0.061537139 0.72600001 3.7657248e-39
0.014520049 -0.061537124 0.72600001 8.8389717e-39
0.01594667 -0.061706685 0.72800004 1.4010119e-38
0.017333377 -0.061706685 0.72800004 1.6034823e-38
0.018720023 -0.06170667 0.72800004 1.8150615e-38
0.020106707 -0.06170667 0.72799999 1.7786132e-38
0.021522881 -0.061791413 0.72900003 1.7519923e-38
0.022974288 -0.061960958 0.73100001 1.2252267e-38
0.024366667 -0.061960973 0.73100001 6.9799181e-39
0.025794286 -0.062045731 0.73200005 6.7068625e-39
0.027262852 -0.062215231 0.73400003 6.5235853e-39
0.028778099 -0.062469535 0.73700005 8.6512622e-39
0.030181902 -0.062469535 0.73700005 1.0757723e-38
0.031585738 -0.06246952 0.73700005 8.7448605e-39
0.03321337 -0.062893339 0.74200004 6.8163109e-39
0.03467337 -0.062978096 0.74300003 6.0826989e-39
0.036088552 -0.062978096 0.74300003 5.4420127e-39
0.037503816 -0.062978096 0.74300003 6.175989e-39
-0.043397155 -0.061894275 0.74700004 4.2323263e-39
-0.041974295 -0.061894275 0.74700004 2.2987587e-39
-0.040442843 -0.061728574 0.74500006 3.6913845e-40
-0.038866654 -0.061480008 0.7420001 1.2871375e-39
-0.037352405 -0.061314292 0.74000007 2.1316875e-39
-0.03589429 -0.061231442 0.73900002 7.2013891e-39
-0.034486677 -0.061231442 0.73900002 1.2156132e-38
-0.032989539 -0.061065726 0.73700005 1.1422099e-38
-0.031585697 -0.061065711 0.73699999 1.0680216e-38
-0.030140946 -0.060982861 0.73600006 1.0037344e-38
-0.028660918 -0.060817145 0.73400003 9.3902131e-39
-0.027262846 -0.06081716 0.73400003 8.2831859e-39
-0.025794288 -0.060651399 0.73200005 7.0943776e-39
-0.024399986 -0.060651414 0.73199999 9.3867085e-39
-0.022974273 -0.060568579 0.73100001 1.1598657e-38
-0.021581898 -0.060568579 0.73100001 1.1788073e-38
-0.020189522 -0.060568579 0.73100001 1.1964522e-38
-0.018745687 -0.060402863 0.72900003 8.1863058e-39
-0.017357118 -0.060402863 0.72900003 4.3259933e-39
-0.015968548 -0.060402863 0.72899997 5.2475853e-39
-0.014559971 -0.060320012 0.72800004 6.1662766e-39
-0.013173325 -0.060319997 0.72800004 6.1719925e-39
-0.011786616 -0.060319997 0.72800004 6.0744257e-39
-0.010399971 -0.060319997 0.72800004 4.5993278e-39
-0.008988549 -0.060154267 0.72600001 3.1303452e-39
-0.0076056891 -0.060154282 0.72600001 3.492693e-39
-0.0062228502 -0.060154282 0.72600001 3.7760958e-39
-0.0048333374 -0.060071431 0.72500002 2.9431233e-39
-0.0034523611 -0.060071416 0.72500002 2.1202024e-39
-0.0020714072 -0.060071416 0.72499996 1.1943267e-39
-0.00068762765 -0.059822865 0.72200006 1.8446973e-40
0.00068761728 -0.05982288 0.72200006 5.2361157e-39
0.0020656786 -0.05990573 0.72300005 1.0207065e-38
0.0034428476 -0.059905715 0.72300005 1.2797109e-38
0.0048200148 -0.059905715 0.72300005 1.5368878e-38
0.0061971205 -0.059905715 0.72300005 1.4264358e-38
0.0075742896 -0.05990573 0.72300005 1.3165559e-38
0.0089514321 -0.0599057 0.72300005 1.4464169e-38
0.010357146 -0.060071446 0.72500002 1.5644019e-38
0.011754309 -0.060154282 0.72600001 9.7349578e-39
0.01313717 -0.060154267 0.72600001 3.8718745e-39
0.014520007 -0.060154282 0.72600001 9.3138858e-39
0.015946707 -0.060320012 0.72800004 1.4741172e-38
0.017333353 -0.060319997 0.72800004 1.6311728e-38
0.018745728 -0.060402848 0.72900003 1.7874372e-38
0.020134298 -0.060402863 0.72900003 1.6868849e-38
0.021522867 -0.060402848 0.72900003 1.5752087e-38
0.022974277 -0.060568593 0.73100007 1.0591692e-38
0.024366656 -0.060568593 0.73100001 5.3358461e-39
0.025794299 -0.060651414 0.73199999 5.7859964e-39
0.027262868 -0.06081716 0.73400003 6.2628022e-39
0.028739065 -0.060982861 0.73600006 1.0886196e-38
0.03018192 -0.061065711 0.73699999 1.537501e-38
0.031714287 -0.061314292 0.74000001 1.1054793e-38
0.033213336 -0.061480008 0.74200004 6.7277278e-39
0.034673344 -0.061562859 0.74300003 5.8954336e-39
0.036088571 -0.061562873 0.74300003 4.9810387e-39
0.037503835 -0.061562873 0.74300003 5.9926781e-39
-0.043397162 -0.060471438 0.74700004 4.5985921e-39
-0.041974284 -0.060471423 0.74700004 3.7724314e-39
-0.040605687 -0.060552381 0.74800003 2.8494157e-39
-0.038709529 -0.059823804 0.73900002 2.482794e-39
-0.037301917 -0.059823833 0.73900002 2.0283277e-39
-0.03589429 -0.059823804 0.73900002 4.5186957e-39
-0.034393337 -0.059661917 0.73700005 6.9146456e-39
-0.032989498 -0.059661917 0.73700005 7.1843886e-39
-0.03154283 -0.059580944 0.73600006 7.367684e-39
-0.03014091 -0.059580959 0.73600006 6.8159367e-39
-0.028739031 -0.059580944 0.73600006 6.3646738e-39
-0.027262833 -0.059419058 0.73400003 6.8156229e-39
-0.025794253 -0.059257127 0.73199999 7.3659016e-39
-0.02439999 -0.059257142 0.73200005 8.5618986e-39
-0.022974271 -0.059176199 0.73100001 9.8454684e-39
-0.021581894 -0.059176199 0.73099995 9.9427087e-39
-0.020189518 -0.059176214 0.73099995 1.0032382e-38
-0.0187457 -0.059014283 0.72900003 6.4400258e-39
-0.017357131 -0.059014298 0.72899997 2.945975e-39
-0.01594664 -0.05893334 0.72800004 4.2374145e-39
-0.014559994 -0.058933325 0.72800004 5.4362659e-39
-0.013173287 -0.05893334 0.72799999 6.7247991e-39
-0.011754266 -0.058771424 0.72600001 8.1080895e-39
-0.010399995 -0.05893334 0.72800004 8.0141184e-39
-0.0089885285 -0.058771424 0.72600001 7.996165e-39
-0.007605691 -0.058771424 0.72600001 5.1453003e-39
-0.0062228316 -0.058771424 0.72600001 2.388083e-39
-0.0048333243 -0.058690481 0.72500002 2.1136527e-39
-0.0034523723 -0.058690481 0.72499996 1.9289056e-39
-0.002071396 -0.058690481 0.72499996 1.1023861e-39
-0.00068856269 -0.05852858 0.72300005 1.8403813e-40
0.00068854302 -0.058528595 0.72300005 3.4951439e-39
0.0020657103 -0.05852858 0.72300005 6.8148732e-39
0.0034428402 -0.05852858 0.72300005 9.8512025e-39
0.004819985 -0.05852858 0.72300005 1.2886813e-38
0.0061971522 -0.05852858 0.72300005 1.251267e-38
0.0075742598 -0.058528595 0.72300005 1.2241428e-38
0.0089514265 -0.05852858 0.72300005 1.3903393e-38
0.010357157 -0.058690481 0.72500002 1.554783e-38
0.011754291 -0.058771439 0.72600001 1.1775405e-38
0.013137167 -0.058771409 0.72600001 8.1016533e-39
0.01452003 -0.058771424 0.72600001 1.1515019e-38
0.015968574 -0.059014283 0.72900003 1.4828661e-38
0.017357146 -0.059014283 0.72900003 1.6214475e-38
0.018745737 -0.059014268 0.72900003 1.7503422e-38
0.020134307 -0.059014298 0.72900003 1.6393166e-38
0.021522876 -0.059014283 0.72900003 1.5180263e-38
0.022974283 -0.059176214 0.73100001 1.279323e-38
0.024400035 -0.059257127 0.73199999 1.0383568e-38
0.025794297 -0.059257142 0.73200005 1.0021909e-38
0.027337182 -0.059580959 0.73600006 9.5688955e-39
0.028778123 -0.059661902 0.73700005 1.2627512e-38
0.030181924 -0.059661902 0.73700005 1.5760332e-38
0.031714257 -0.059904791 0.74000001 1.1610166e-38
0.033213343 -0.060066663 0.74200004 7.5521187e-39
0.034673326 -0.060147636 0.74300009 6.6333392e-39
0.036088593 -0.060147621 0.74300003 5.8086316e-39
0.037503771 -0.060147636 0.74300003 6.4525731e-39
-0.043455232 -0.059127621 0.74800003 4.970599e-39
-0.042030487 -0.059127621 0.74800003 5.1585762e-39
-0.040822849 -0.059443809 0.75200003 5.3390186e-39
-0.039390452 -0.059443809 0.75199997 3.6741415e-39
-0.037200935 -0.058258094 0.73700005 1.9310846e-39
-0.035797156 -0.058258109 0.73700005 1.8381967e-39
-0.034393314 -0.058258094 0.73699999 1.6609913e-39
-0.032944731 -0.058179058 0.73600006 2.8491214e-39
-0.031542853 -0.058179058 0.73600006 4.050861e-39
-0.030140935 -0.058179058 0.73600006 3.6777667e-39
-0.028739018 -0.058179043 0.73600006 3.227912e-39
-0.02726284 -0.058020972 0.73400003 5.4326772e-39
-0.025794277 -0.057862841 0.73199999 7.5474202e-39
-0.024366682 -0.05778382 0.73100001 7.8326264e-39
-0.022974281 -0.05778382 0.73100001 8.0123556e-39
-0.021581907 -0.05778382 0.73100001 8.0127171e-39
-0.020189529 -0.057783835 0.73100001 8.0062403e-39
-0.018745692 -0.057625704 0.72900003 4.7787066e-39
-0.01735712 -0.057625704 0.72900003 1.5680642e-39
-0.01594664 -0.057546698 0.72800004 3.1364563e-39
-0.014559955 -0.057546653 0.72799999 4.6983506e-39
-0.013173309 -0.057546668 0.72800004 7.3658595e-39
-0.011754245 -0.057388566 0.72600001 1.0041702e-38
-0.010371408 -0.057388566 0.72600001 1.144476e-38
-0.0089885695 -0.057388581 0.72600001 1.2791742e-38
-0.0075952006 -0.057309516 0.72500002 6.8880223e-39
-0.0062142876 -0.057309531 0.72500002 9.2086749e-40
-0.0048333337 -0.057309516 0.72500002 1.3778926e-39
-0.0034523592 -0.057309501 0.72500002 1.7516917e-39
-0.0020714053 -0.057309501 0.72499996 1.0105506e-39
-0.00068857014 -0.057151444 0.72300005 1.8582759e-40
0.00068857468 -0.057151444 0.72300005 1.7452416e-39
0.0020657047 -0.057151444 0.72300005 3.3197433e-39
0.0034428495 -0.057151444 0.72300005 6.9060164e-39
0.0048200167 -0.057151459 0.72300005 1.0401857e-38
0.0061971224 -0.057151459 0.72300005 1.0841656e-38
0.0075742896 -0.057151444 0.72300005 1.1236254e-38
0.0089761941 -0.057309531 0.72500002 1.3360661e-38
0.010357146 -0.057309531 0.72499996 1.5373158e-38
0.011754312 -0.057388581 0.72600001 1.3901289e-38
0.013137149 -0.057388566 0.72600001 1.2338668e-38
0.014560039 -0.057546668 0.72800004 1.3632276e-38
0.015968563 -0.057625733 0.72900003 1.492264e-38
0.017357154 -0.057625733 0.72900003 1.6029694e-38
0.018745724 -0.057625704 0.72900003 1.7129935e-38
0.020134293 -0.057625718 0.72900003 1.592819e-38
0.021581909 -0.05778382 0.73100001 1.46414e-38
0.022974309 -0.05778382 0.73100001 1.510953e-38
0.024400011 -0.057862841 0.73199999 1.5458913e-38
0.02579431 -0.057862841 0.73199999 1.4165662e-38
0.027337154 -0.058179043 0.73600006 1.2893647e-38
0.028778104 -0.058258109 0.73700005 1.447822e-38
0.030263802 -0.058416195 0.73900008 1.6032225e-38
0.031800017 -0.058653332 0.74200004 1.2256542e-38
0.033213358 -0.058653332 0.74200004 8.3850617e-39
0.034673348 -0.058732398 0.74300009 7.4605677e-39
0.036088564 -0.058732398 0.74300003 6.5433043e-39
0.037857175 -0.059285723 0.75000006 6.8202626e-39
-0.043687604 -0.058011405 0.75200003 6.3513615e-39
-0.042255208 -0.05801142 0.75199997 6.8195087e-39
-0.040822823 -0.05801142 0.75200003 7.2865769e-39
-0.039180938 -0.057702862 0.74799997 5.9858103e-39
-0.037756175 -0.057702847 0.74800003 4.5921349e-39
-0.035894308 -0.057008587 0.73900002 2.9398135e-39
-0.034486659 -0.057008587 0.73900002 1.2871739e-39
-0.032989506 -0.0568543 0.73700005 4.4196645e-39
-0.031542849 -0.056777127 0.73600006 7.6346145e-39
-0.030140925 -0.056777127 0.736 7.179732e-39
-0.028739048 -0.056777157 0.73600006 6.8033923e-39
-0.02733713 -0.056777142 0.73600006 7.2682787e-39
-0.025688538 -0.056237139 0.72899997 7.8128807e-39
-0.02429997 -0.056237124 0.72899997 5.8915562e-39
-0.022911439 -0.056237154 0.72900003 4.0630803e-39
-0.021493306 -0.056159995 0.72800004 5.9880202e-39
-0.020189526 -0.056391425 0.73100001 8.0072969e-39
-0.018745704 -0.056237139 0.72900003 4.5060392e-39
-0.017357113 -0.056237139 0.72900003 1.104921e-39
-0.015968544 -0.056237139 0.72900003 2.3023936e-39
-0.014579975 -0.056237139 0.72900003 3.4980305e-39
-0.013191407 -0.056237139 0.72899997 4.3291953e-39
-0.011786626 -0.056159981 0.72799999 5.1662147e-39
-0.01039998 -0.056159995 0.72799999 9.6838272e-39
-0.008988549 -0.056005724 0.72600001 1.4184742e-38
-0.0076057115 -0.056005724 0.72600001 1.1135055e-38
-0.0062228129 -0.056005709 0.72600001 8.1823289e-39
-0.0048333225 -0.055928566 0.72500002 8.6565731e-39
-0.0034523704 -0.055928566 0.72499996 9.117903e-39
-0.0020742756 -0.056005724 0.72600001 8.6547794e-39
-0.00068859995 -0.055774309 0.72300005 8.1808939e-39
0.00068856723 -0.055774294 0.72300005 8.8341457e-39
0.0020714491 -0.055928566 0.72499996 9.5670682e-39
0.0034523862 -0.05592858 0.72500002 1.1511429e-38
0.0048333383 -0.05592858 0.72500002 1.3544695e-38
0.0062143146 -0.055928566 0.72500002 1.3626456e-38
0.0075952294 -0.05592858 0.72500002 1.3735539e-38
0.0089762034 -0.05592858 0.72500002 1.4553834e-38
0.010357155 -0.055928566 0.72500002 1.5376419e-38
0.011802879 -0.056237139 0.72899997 1.4543094e-38
0.01319147 -0.056237139 0.72900003 1.3810931e-38
0.014560016 -0.056159995 0.72800004 1.4270836e-38
0.01596861 -0.056237139 0.72899997 1.4832592e-38
0.017357139 -0.056237154 0.72900003 1.528278e-38
0.018745733 -0.056237139 0.72900003 1.5751997e-38
0.020134302 -0.056237154 0.72900003 1.50026e-38
0.021581898 -0.05639144 0.73100001 1.4367281e-38
0.022974275 -0.056391425 0.73100001 1.4546643e-38
0.024400009 -0.056468569 0.73200005 1.4830055e-38
0.025794309 -0.056468569 0.73199999 1.3900593e-38
0.027337188 -0.056777142 0.73600006 1.2994113e-38
0.028778108 -0.056854285 0.73700005 1.3915733e-38
0.0302638 -0.057008572 0.73900002 1.4837619e-38
0.031800002 -0.057240017 0.74200004 1.1425301e-38
0.033258095 -0.057317145 0.74300003 8.0158924e-39
0.034766681 -0.057471432 0.74500006 7.4634291e-39
0.036331415 -0.057702877 0.74800003 6.9106365e-39
0.037857134 -0.057857148 0.75000006 6.8206087e-39
0.039285731 -0.057857148 0.75000012 6.7287858e-39
-0.043455224 -0.056278102 0.74799997 7.6439248e-39
-0.042142838 -0.056428559 0.75000006 8.4819755e-39
-0.040714286 -0.056428574 0.75000006 9.2162896e-39
-0.039180949 -0.056278102 0.74800003 8.2982821e-39
-0.037756167 -0.056278102 0.74799997 7.2711976e-39
-0.0363314 -0.056278102 0.74800003 4.0411374e-39
-0.034393329 -0.055450477 0.73700005 8.387472e-40
-0.032989532 -0.055450492 0.73700005 6.0916784e-39
-0.031585686 -0.055450477 0.73699999 1.1233415e-38
-0.030181885 -0.055450492 0.73700005 1.0786819e-38
-0.028778084 -0.055450492 0.73700005 1.0311832e-38
-0.027337095 -0.055375241 0.736 9.2076295e-39
-0.025759066 -0.054999061 0.73100001 8.0098234e-39
-0.024366688 -0.054999076 0.73100001 4.0411682e-39
-0.022974292 -0.054999076 0.73100001 1.0408705e-40
-0.02161142 -0.055074282 0.73200005 4.0523029e-39
-0.020189535 -0.054999076 0.73100001 7.9129713e-39
-0.018745696 -0.054848574 0.72900003 4.2248336e-39
-0.017357128 -0.054848574 0.72900003 5.542752e-40
-0.015968557 -0.054848559 0.72899997 1.4697519e-39
-0.014579967 -0.054848544 0.72900003 2.3027201e-39
-0.013191398 -0.054848559 0.72900003 1.2864214e-39
-0.011802828 -0.054848559 0.72899997 2.1031108e-40
-0.01039998 -0.054773338 0.72800004 7.8467347e-39
-0.0089885304 -0.054622866 0.72600001 1.547331e-38
-0.007605691 -0.054622866 0.72600001 1.5468571e-38
-0.0062228539 -0.054622866 0.72600001 1.5468946e-38
-0.0048399535 -0.054622866 0.72600001 1.6039705e-38
-0.0034571164 -0.054622866 0.72600001 1.6484892e-38
-0.0020742551 -0.054622866 0.72600001 1.6309831e-38
-0.00068856828 -0.054397158 0.72300005 1.6108917e-38
0.00068853743 -0.054397158 0.72300005 1.6026742e-38
0.0020714602 -0.05454763 0.72499996 1.5830898e-38
0.0034523732 -0.054547645 0.72500002 1.6211897e-38
0.0048333495 -0.05454763 0.72500002 1.6566309e-38
0.0062143034 -0.054547615 0.72499996 1.6384057e-38
0.0075952387 -0.05454763 0.72500002 1.6104986e-38
0.0089885928 -0.054622851 0.72600001 1.5743049e-38
0.010400018 -0.054773323 0.72800004 1.5270239e-38
0.011802887 -0.054848574 0.72900003 1.526773e-38
0.013173347 -0.054773353 0.72800004 1.5173015e-38
0.014560016 -0.054773353 0.72800004 1.499041e-38
0.015968619 -0.054848559 0.72899997 1.4712384e-38
0.01735715 -0.054848574 0.72900003 1.451615e-38
0.018745719 -0.054848574 0.72900003 1.4249248e-38
0.020189524 -0.054999046 0.73100001 1.4147005e-38
0.021581901 -0.054999031 0.73100001 1.4065226e-38
0.022974303 -0.054999046 0.73100001 1.4063087e-38
0.02440002 -0.055074267 0.73199999 1.4070617e-38
0.025794284 -0.055074282 0.73200005 1.361287e-38
0.027337162 -0.055375256 0.73600006 1.3066545e-38
0.028778089 -0.055450492 0.73700005 1.335212e-38
0.0302638 -0.055600949 0.73900002 1.3626876e-38
0.031799991 -0.055826671 0.74200004 1.0683443e-38
0.033258114 -0.055901922 0.74300003 7.6485631e-39
0.03485997 -0.056202866 0.74700004 7.4659627e-39
0.036331441 -0.056278102 0.74800003 7.2808596e-39
0.037857141 -0.056428574 0.75000006 6.8227597e-39
0.03928569 -0.056428574 0.75000012 6.3621725e-39
-0.043571405 -0.055000015 0.75000006 5.4413582e-39
-0.042142853 -0.055 0.75000006 7.008045e-39
-0.040714305 -0.055 0.75000006 8.4820554e-39
-0.039180949 -0.054853342 0.74800003 8.1132575e-39
-0.037756205 -0.054853328 0.74800003 7.6529379e-39
-0.035894282 -0.05419334 0.73900002 4.6965569e-39
-0.034393325 -0.054046683 0.73700005 1.669919e-39
-0.032989487 -0.054046668 0.73700005 3.8782617e-39
-0.031585708 -0.054046668 0.73699999 6.094212e-39
-0.030140923 -0.053973325 0.736 8.4769715e-39
-0.028739044 -0.053973339 0.73600006 1.0867905e-38
-0.02718853 -0.053679995 0.73199999 1.1151644e-38
-0.025688538 -0.05345998 0.72899997 1.1345316e-38
-0.02429997 -0.05345998 0.72899997 9.2118909e-39
-0.022911379 -0.053459994 0.72899997 7.0864322e-39
-0.021522846 -0.053459994 0.72900003 9.5771421e-39
-0.020134278 -0.05345998 0.72900003 1.2061733e-38
-0.018745709 -0.05345998 0.72900003 9.9412737e-39
-0.01735712 -0.053459994 0.72900003 7.7239095e-39
-0.015968548 -0.053459994 0.72900003 8.099103e-39
-0.01457998 -0.05345998 0.72900003 8.5582804e-39
-0.013191411 -0.05345998 0.72899997 8.1073538e-39
-0.01180282 -0.053459994 0.72900003 7.6633215e-39
-0.01039998 -0.053386681 0.72800004 1.1431524e-38
-0.0089885695 -0.053240009 0.72600001 1.5301121e-38
-0.0076056705 -0.053240009 0.72600001 1.5106279e-38
-0.0062228316 -0.053240009 0.72600001 1.502165e-38
-0.0048399945 -0.053240009 0.72600001 1.519495e-38
-0.0034571313 -0.053240009 0.72600007 1.5380774e-38
-0.0020799641 -0.053386651 0.72799999 1.5280688e-38
-0.00069139578 -0.053240009 0.72600001 1.5285302e-38
0.0006914413 -0.053240024 0.72600001 1.5090461e-38
0.0020714491 -0.05316665 0.72499996 1.4997925e-38
0.0034523862 -0.053166665 0.72500002 1.5083679e-38
0.0048333383 -0.05316665 0.72499996 1.5256945e-38
0.0062143146 -0.053166665 0.72499996 1.5259096e-38
0.0075952276 -0.05316668 0.72500002 1.5343418e-38
0.0089886142 -0.053239994 0.72600001 1.5164788e-38
0.01037145 -0.053240009 0.72600001 1.5061464e-38
0.011786701 -0.053386681 0.72800004 1.5255529e-38
0.013173347 -0.053386681 0.72800004 1.5428767e-38
0.014560031 -0.053386651 0.72799999 1.5166144e-38
0.015968604 -0.053459994 0.72899997 1.4785893e-38
0.017404733 -0.053606696 0.73100001 1.4603661e-38
0.018797135 -0.053606682 0.73100007 1.4326716e-38
0.020189514 -0.053606667 0.73100007 1.4235952e-38
0.02158189 -0.053606682 0.73100001 1.414307e-38
0.023005733 -0.053679995 0.73199999 1.3962298e-38
0.024466697 -0.053826682 0.73400003 1.3867572e-38
