# .PCD v0.7 - Point Cloud Data file format
VERSION 0.7
FIELDS x y z rgb
SIZE 4 4 4 4
TYPE F F F F
COUNT 1 1 1 1
WIDTH 975
HEIGHT 1
VIEWPOINT 0 0 0 1 0 0 0
POINTS 975
DATA ascii
0.030632373 0.022083819 0.74800003 1.4289132e-38
0.032228556 0.022201903 0.75200009 1.419115e-38
0.033660945 0.022201911 0.75200009 1.4195107e-38
0.035140004 0.02223143 0.75300002 1.1417812e-38
0.036671422 0.022290468 0.75500005 8.6631088e-39
0.038109519 0.022290483 0.75500005 1.0040643e-38
0.039599992 0.022320002 0.7560001 1.1436511e-38
0.041148562 0.022379033 0.75800008 1.374069e-38
0.04276095 0.022467628 0.76100004 1.6139521e-38
0.044442851 0.022585712 0.76500005 1.567208e-38
0.045899995 0.02258572 0.76500005 1.5218261e-38
-0.032785732 0.02404286 0.76500005 9.2786431e-39
-0.031246664 0.023980007 0.76300001 1.0198064e-38
-0.029793333 0.023980007 0.76300001 1.1128982e-38
-0.028339999 0.023980007 0.76300001 1.1690405e-38
-0.026816199 0.023917153 0.76100004 1.2237848e-38
-0.025333352 0.023885712 0.76000011 1.2696685e-38
-0.023822863 0.023822859 0.75800008 1.3062581e-38
-0.022320012 0.023759998 0.7560001 1.3063647e-38
-0.020852376 0.023728572 0.755 1.2967516e-38
-0.019362865 0.023665711 0.75300002 1.3523201e-38
-0.017904771 0.023634292 0.75200009 1.4079594e-38
-0.016428567 0.023571432 0.75000006 1.4642086e-38
-0.014999997 0.023571424 0.75000006 1.5192032e-38
-0.01353524 0.023508579 0.74799997 1.5559742e-38
-0.012110475 0.023508586 0.74799997 1.5924567e-38
-0.010671433 0.023477159 0.74700004 1.5733718e-38
-0.0092485799 0.023477152 0.74700004 1.545321e-38
-0.0078257238 0.023477137 0.74700004 1.6009985e-38
-0.0064028692 0.023477145 0.7470001 1.6473456e-38
-0.0049800039 0.023477145 0.74700004 1.6576042e-38
-0.0035571484 0.023477152 0.74700004 1.656671e-38
-0.002128588 0.023414277 0.74500006 1.638339e-38
-0.0007076253 0.023351416 0.74300009 1.6103575e-38
0.0007076055 0.023351423 0.74300009 1.6107518e-38
0.0021228516 0.023351416 0.74300009 1.6105024e-38
0.0035380826 0.023351416 0.74300009 1.6478122e-38
0.0049533239 0.023351416 0.74300003 1.6745723e-38
0.00636857 0.023351423 0.74300003 1.6375856e-38
0.0077733416 0.023320012 0.74200004 1.5901935e-38
0.0091990465 0.023351431 0.74300003 1.5796074e-38
0.010614278 0.023351431 0.74300003 1.5612403e-38
0.012029524 0.023351423 0.74300003 1.5796074e-38
0.013444755 0.023351431 0.74300003 1.5979743e-38
0.014860001 0.023351423 0.74300003 1.5520565e-38
0.016275233 0.023351423 0.74300003 1.5061397e-38
0.017690478 0.023351416 0.74300003 1.5336915e-38
0.01910571 0.023351431 0.74300003 1.5520587e-38
0.020576192 0.023414277 0.74500006 1.5336919e-38
0.022054283 0.023477145 0.7470001 1.5153241e-38
0.023477146 0.023477145 0.74700004 1.5336906e-38
0.024933331 0.023508579 0.74800003 1.5441676e-38
0.026358096 0.023508571 0.74800003 1.5472546e-38
0.027782861 0.023508571 0.74800003 1.5471151e-38
0.029207613 0.023508571 0.74799997 1.4368807e-38
0.030796174 0.023634292 0.75200009 1.3175993e-38
0.032228563 0.023634277 0.75200009 1.2535987e-38
0.033705726 0.023665719 0.75300002 1.1873387e-38
0.03514 0.023665704 0.75300002 9.46627e-39
0.036671437 0.023728564 0.75500005 6.9957149e-39
0.038159996 0.023760013 0.75600004 9.8526949e-39
0.039599996 0.023759998 0.75600004 1.2721872e-38
0.041148555 0.023822844 0.75800002 1.5310161e-38
0.042592369 0.023822851 0.75800008 1.7881545e-38
0.044559054 0.024105713 0.76700002 1.7880818e-38
0.046019997 0.024105713 0.76700002 1.7789698e-38
-0.032785732 0.0255 0.76500005 9.3694024e-39
-0.031246671 0.025433339 0.76300001 1.0104449e-38
-0.029793341 0.025433347 0.76300001 1.0838782e-38
-0.028265724 0.025366679 0.76100004 1.121187e-38
-0.0268162 0.025366671 0.76100004 1.1573108e-38
-0.025333337 0.025333337 0.76000005 1.203802e-38
-0.023822861 0.025266662 0.75800008 1.2494343e-38
-0.02232001 0.025200009 0.75600004 1.2682333e-38
-0.020797143 0.0251 0.75300002 1.2954986e-38
-0.01936285 0.0251 0.75300002 1.3418126e-38
-0.017857138 0.024999999 0.75000006 1.3870837e-38
-0.016428567 0.024999999 0.75 1.4347581e-38
-0.014999989 0.025000006 0.75 1.4898241e-38
-0.01357142 0.025000013 0.75 1.5179133e-38
-0.012110481 0.024933323 0.74800003 1.5541063e-38
-0.010671434 0.024900012 0.74700004 1.5448838e-38
-0.009248578 0.024900004 0.7470001 1.5348795e-38
-0.0078257136 0.024900012 0.74700004 1.5628648e-38
-0.0064028581 0.024900004 0.74700004 1.5898419e-38
-0.0049800035 0.024900012 0.74700004 1.5812326e-38
-0.0035571489 0.024900004 0.74700004 1.570864e-38
-0.0021228646 0.024766654 0.74300003 1.5530695e-38
-0.00070763321 0.024766654 0.74300003 1.5336978e-38
0.00070761249 0.024766669 0.74300003 1.5254108e-38
0.0021228436 0.024766661 0.74300003 1.5153314e-38
0.0035380896 0.024766661 0.74300003 1.5530351e-38
0.0049533206 0.024766661 0.74300003 1.5887979e-38
0.0063685663 0.024766654 0.74300003 1.5711455e-38
0.0077733342 0.024733342 0.74200004 1.5428757e-38
0.0091990288 0.024766654 0.74300009 1.5520574e-38
0.010614275 0.024766646 0.74300009 1.5612403e-38
0.012029517 0.024766676 0.74300003 1.5704231e-38
0.013444762 0.024766669 0.74300003 1.5796067e-38
0.014859993 0.024766669 0.74300003 1.5520559e-38
0.01627524 0.024766661 0.74300003 1.524506e-38
0.01769047 0.024766669 0.74300003 1.5428736e-38
0.019157134 0.024833336 0.74500006 1.5520581e-38
0.020576192 0.024833336 0.74500006 1.5428756e-38
0.022054287 0.024900004 0.74700004 1.542874e-38
0.023508571 0.024933346 0.74800003 1.5430158e-38
0.024933336 0.024933331 0.74800003 1.5433774e-38
0.026358102 0.024933338 0.74799997 1.5834506e-38
0.027857156 0.025000006 0.75 1.6211927e-38
0.02928572 0.024999999 0.75 1.3530438e-38
0.03079618 0.025066666 0.75200009 1.0774647e-38
0.032271445 0.025100008 0.75300002 1.1138393e-38
0.033705719 0.025099993 0.75300002 1.1480211e-38
0.035233334 0.025166668 0.755 8.5432137e-39
0.036671422 0.025166661 0.75500005 5.6031115e-39
0.038159981 0.025199994 0.7560001 9.1187564e-39
0.03970477 0.025266662 0.75800002 1.2635081e-38
0.041257139 0.02533333 0.76000011 1.5029289e-38
0.042704761 0.025333337 0.76000005 1.7511353e-38
0.04455905 0.025566675 0.76700002 1.741951e-38
0.046020001 0.025566667 0.76699996 1.7328772e-38
0.047480956 0.025566675 0.76699996 1.7514258e-38
-0.034332387 0.027027614 0.76700002 8.9120102e-39
-0.032871421 0.027027614 0.76699996 9.3697654e-39
-0.031328589 0.026957139 0.76500005 9.9197148e-39
-0.029793339 0.026886672 0.76300001 1.0470719e-38
-0.028265722 0.026816197 0.76100004 1.0745143e-38
-0.026780963 0.026780941 0.76000011 1.0929175e-38
-0.02526667 0.02671048 0.75800002 1.1479832e-38
-0.023822868 0.026710473 0.75800002 1.1940463e-38
-0.022320019 0.026639991 0.7560001 1.23993e-38
-0.020797148 0.026534274 0.75300002 1.2861365e-38
-0.019337159 0.02649904 0.75200009 1.3231238e-38
-0.017857131 0.026428573 0.75 1.3604317e-38
-0.016428562 0.02642858 0.75 1.4070308e-38
-0.014999992 0.02642858 0.75 1.4531287e-38
-0.013571423 0.026428565 0.75000006 1.4808954e-38
-0.01211048 0.026358105 0.74799997 1.5081566e-38
-0.010685726 0.02635809 0.74800003 1.5172301e-38
-0.0092609581 0.026358113 0.74800003 1.5259852e-38
-0.0078257211 0.026322857 0.74700004 1.5257362e-38
-0.006402866 0.026322864 0.74700004 1.5255559e-38
-0.0049800114 0.026322864 0.7470001 1.5065424e-38
-0.0035571461 0.026322864 0.74700004 1.4879944e-38
-0.0021285885 0.026252382 0.74500012 1.4785941e-38
-0.00070762576 0.026181899 0.74300003 1.4602259e-38
0.00070950866 0.026252382 0.74500006 1.4418576e-38
0.0021228511 0.026181892 0.74300003 1.4234925e-38
0.0035380824 0.026181906 0.74300003 1.4694121e-38
0.0049533281 0.026181899 0.74300003 1.5061436e-38
0.0063685593 0.026181899 0.74300003 1.506141e-38
0.0077733388 0.026146673 0.74200004 1.4969568e-38
0.0091866693 0.02614668 0.74199998 1.5245069e-38
0.010600003 0.02614668 0.74200004 1.552057e-38
0.012013334 0.026146688 0.74199998 1.5612401e-38
0.013444744 0.026181892 0.74300009 1.5612397e-38
0.01485999 0.026181892 0.74300009 1.5520559e-38
0.016275223 0.026181899 0.74300009 1.5428732e-38
0.017690478 0.026181906 0.74300003 1.5520577e-38
0.019157134 0.026252382 0.74500006 1.5520586e-38
0.020576177 0.026252374 0.74500006 1.5612431e-38
0.022054277 0.026322871 0.74700004 1.5612413e-38
0.023508577 0.026358098 0.74799997 1.5520559e-38
0.024933333 0.026358098 0.74800003 1.5352335e-38
0.0263581 0.026358098 0.74800003 1.621977e-38
0.027857156 0.02642858 0.75 1.6937628e-38
0.029285735 0.02642858 0.75 1.2673767e-38
0.030837139 0.026534282 0.75300002 8.3718489e-39
0.032271437 0.026534282 0.75300002 9.7622957e-39
0.033705715 0.026534282 0.75300002 1.103933e-38
0.035233337 0.026604757 0.75500005 7.6227077e-39
0.036671422 0.026604764 0.75500005 4.2366942e-39
0.038159985 0.026640005 0.75600004 8.3833451e-39
0.039704762 0.02671048 0.75800002 1.2444232e-38
0.041311413 0.026816189 0.76100004 1.4752355e-38
0.0429857 0.026957139 0.76500005 1.7049666e-38
0.044559047 0.027027607 0.76700002 1.6957103e-38
0.046019994 0.027027629 0.76699996 1.6867435e-38
0.047480948 0.027027614 0.76700002 1.7052917e-38
0.048941903 0.027027622 0.76700002 1.7145468e-38
-0.036166675 0.028785706 0.7750001 8.6375799e-39
-0.034377147 0.028525725 0.76800001 9.0949595e-39
-0.032871429 0.028488576 0.76699996 9.5530818e-39
-0.031328585 0.028414294 0.76500005 1.0291373e-38
-0.029793339 0.028340004 0.76300001 1.1021371e-38
-0.028339999 0.028340004 0.76299995 1.1396224e-38
-0.026780967 0.028228559 0.76000011 1.1847163e-38
-0.025266668 0.028154291 0.75800002 1.2312091e-38
-0.023760008 0.028080001 0.75600004 1.2673715e-38
-0.022320015 0.028080001 0.75600004 1.3142958e-38
-0.020797146 0.027968578 0.75300002 1.3593905e-38
-0.019337157 0.027931422 0.75200009 1.3603253e-38
-0.017904775 0.027931429 0.75200009 1.361151e-38
-0.016428566 0.02785714 0.75000006 1.3979216e-38
-0.014999994 0.02785714 0.75000006 1.4347287e-38
-0.013571425 0.02785714 0.75000006 1.4713564e-38
-0.012110485 0.027782865 0.74800003 1.5079094e-38
-0.010685718 0.027782865 0.74799997 1.5170552e-38
-0.0092485761 0.027745716 0.74700004 1.5352787e-38
-0.0078257211 0.027745709 0.74700004 1.5447131e-38
-0.006402866 0.027745709 0.7470001 1.5627914e-38
-0.0049800002 0.027745724 0.74700004 1.5716861e-38
-0.0035571456 0.027745724 0.74700004 1.588796e-38
-0.002128588 0.027671419 0.74500012 1.589691e-38
-0.00070762623 0.027597152 0.74300003 1.5979757e-38
0.00070761296 0.027597137 0.74300003 1.5803958e-38
0.0021228585 0.027597144 0.74300003 1.5704258e-38
0.0035380896 0.027597137 0.74300003 1.580509e-38
0.0049533206 0.027597137 0.74300003 1.5979767e-38
0.0063685663 0.027597129 0.74300003 1.5520563e-38
0.0077733416 0.027560011 0.74199998 1.5061393e-38
0.0091866618 0.027560011 0.74200004 1.5245071e-38
0.010614275 0.027597144 0.74300003 1.5520574e-38
0.01202952 0.027597137 0.74300003 1.552057e-38
0.013444752 0.027597137 0.74300003 1.5520565e-38
0.014859998 0.027597137 0.74300003 1.5336888e-38
0.016275229 0.027597129 0.74300003 1.5153228e-38
0.017690461 0.027597129 0.74300003 1.5245075e-38
0.019157134 0.027671419 0.74500006 1.5245085e-38
0.020576192 0.027671427 0.74500006 1.5428764e-38
0.02205427 0.027745716 0.7470001 1.552058e-38
0.023477137 0.027745724 0.74700004 1.5887901e-38
0.024933323 0.027782865 0.74799997 1.6255257e-38
0.026358105 0.02778285 0.74799997 1.7218109e-38
0.027857143 0.027857147 0.75000006 1.8144745e-38
0.029363787 0.027931429 0.75200009 1.4723545e-38
0.03083715 0.027968563 0.75300002 1.1297302e-38
0.032271437 0.027968563 0.75300002 1.1966706e-38
0.033705711 0.027968571 0.75300002 1.2629232e-38
0.035233326 0.028042853 0.75500005 9.8540247e-39
0.036671422 0.02804286 0.75500005 7.0929174e-39
0.038160004 0.028079994 0.75600004 8.7513934e-39
0.039704747 0.028154276 0.75800008 1.0516762e-38
0.041419987 0.028339997 0.76300001 1.3924048e-38
0.042985704 0.028414279 0.76500005 1.7232622e-38
0.044442847 0.028414272 0.76500005 1.7049653e-38
0.045899998 0.028414294 0.76499999 1.6957829e-38
0.047357142 0.028414287 0.76500005 1.6959634e-38
0.048814286 0.028414287 0.76500005 1.7051113e-38
-0.036166679 0.030261897 0.7750001 8.8201747e-39
-0.03437715 0.029988579 0.76800001 9.2775515e-39
-0.032871429 0.029949538 0.76700002 9.7407031e-39
-0.031328585 0.029871434 0.76500005 1.0670923e-38
-0.029793339 0.029793344 0.76300001 1.1500344e-38
-0.028339999 0.02979333 0.76300001 1.2154346e-38
-0.026816193 0.02971524 0.76100004 1.2790717e-38
-0.025266666 0.029598095 0.75800002 1.3155529e-38
-0.023822863 0.029598087 0.75800002 1.3432843e-38
-0.022290474 0.029480949 0.75500005 1.3904949e-38
-0.020797139 0.029402867 0.75300002 1.4350855e-38
-0.019337161 0.029363804 0.75200009 1.3975982e-38
-0.017904777 0.029363818 0.75200009 1.3517896e-38
-0.016428567 0.029285714 0.75000006 1.3887765e-38
-0.014999996 0.029285707 0.75000006 1.4165426e-38
-0.013571425 0.029285729 0.75000006 1.4618867e-38
-0.012142847 0.029285714 0.75 1.4994101e-38
-0.010685722 0.02920761 0.74800003 1.516988e-38
-0.0092609553 0.029207617 0.74800003 1.5361796e-38
-0.0078361975 0.029207632 0.74800003 1.5733796e-38
-0.0064114314 0.029207624 0.74799997 1.600967e-38
-0.0049800081 0.029168576 0.74700004 1.6470292e-38
-0.0035571535 0.029168569 0.74700004 1.6837628e-38
-0.0021228679 0.029012375 0.74300009 1.7117074e-38
-0.00070762902 0.02901236 0.74300009 1.7298581e-38
0.00070760923 0.029012367 0.74300009 1.7296776e-38
0.0021228506 0.029012382 0.74300003 1.7204237e-38
0.0035380966 0.029012389 0.74300003 1.7025601e-38
0.0049533276 0.029012375 0.74300003 1.6824998e-38
0.0063685733 0.029012382 0.74300003 1.5979752e-38
0.007783805 0.029012367 0.74300003 1.5061405e-38
0.0091990354 0.029012375 0.74300003 1.5245083e-38
0.010614282 0.029012375 0.74300003 1.5428756e-38
0.012029513 0.029012382 0.74300003 1.5428756e-38
0.013444758 0.029012382 0.74300003 1.5428743e-38
0.01485999 0.029012375 0.74300003 1.5153224e-38
0.016275236 0.029012382 0.74300003 1.4877739e-38
0.017690467 0.029012375 0.74300003 1.4969594e-38
0.019157134 0.029090472 0.74500006 1.4969968e-38
0.020576177 0.029090472 0.74500006 1.5245131e-38
0.022054289 0.029168583 0.74700004 1.5435623e-38
0.023477143 0.029168576 0.74700004 1.6255333e-38
0.024933321 0.029207624 0.74800003 1.7116316e-38
0.026358085 0.029207624 0.74800003 1.8253165e-38
0.027857143 0.029285714 0.75000006 1.9252625e-38
0.029363794 0.029363804 0.75200009 1.6778121e-38
0.030837156 0.029402867 0.75300002 1.4273395e-38
0.03227143 0.02940286 0.75300002 1.4270112e-38
0.033705715 0.02940286 0.75300002 1.4183984e-38
0.035233337 0.029480956 0.75500005 1.2071736e-38
0.036671437 0.029480964 0.75500005 9.8515822e-39
0.038159996 0.029519998 0.7560001 9.1955013e-39
0.039704759 0.02959808 0.75800008 8.5806746e-39
0.041311421 0.029715247 0.76100004 1.3010703e-38
0.042873327 0.029793344 0.76300001 1.7417727e-38
0.04432667 0.02979333 0.76300001 1.7234411e-38
0.045779988 0.029793322 0.76300001 1.6959632e-38
0.047233336 0.029793344 0.76300001 1.6960002e-38
-0.036166668 0.031738095 0.77500004 8.9127277e-39
-0.034377161 0.031451434 0.76800001 9.1864307e-39
-0.032871425 0.031410471 0.76700002 9.5527315e-39
-0.031328585 0.031328574 0.76500005 1.0391123e-38
-0.02987144 0.031328574 0.76500005 1.1328577e-38
-0.028339999 0.031246677 0.76300001 1.1974381e-38
-0.026816202 0.031164765 0.76100004 1.26283e-38
-0.025266675 0.03104189 0.75800008 1.2887972e-38
-0.023822861 0.031041913 0.75800002 1.3262495e-38
-0.022290483 0.030919045 0.75500005 1.3630202e-38
-0.020797137 0.030837134 0.75300002 1.4091875e-38
-0.019337161 0.030796185 0.75200009 1.3890251e-38
-0.017904777 0.030796193 0.75200009 1.3605801e-38
-0.016472396 0.030796193 0.75200009 1.3979265e-38
-0.014999989 0.030714296 0.75 1.4450277e-38
-0.01357142 0.030714296 0.75 1.5004154e-38
-0.012142849 0.030714288 0.75 1.5658859e-38
-0.010714279 0.030714303 0.75 1.5740308e-38
-0.0092609497 0.030632384 0.74799997 1.5741017e-38
-0.0078362003 0.030632377 0.74800003 1.6201619e-38
-0.0064114346 0.030632377 0.74800003 1.6665498e-38
-0.0049800081 0.030591428 0.7470001 1.7035747e-38
-0.0035571423 0.030591436 0.74700004 1.7416009e-38
-0.0021228669 0.030427605 0.74300003 1.7594303e-38
-0.00070762902 0.030427612 0.74300003 1.7790887e-38
0.00070760178 0.030427612 0.74300003 1.7775817e-38
0.0021228478 0.030427605 0.74300003 1.7872315e-38
0.0035380789 0.030427605 0.74300003 1.7400939e-38
0.0049533248 0.030427612 0.74300009 1.6936622e-38
0.0063685561 0.030427612 0.74300009 1.5897613e-38
0.0077838115 0.03042762 0.74300003 1.4969581e-38
0.0091990428 0.03042762 0.74300003 1.5061425e-38
0.010614289 0.030427612 0.74300003 1.5153266e-38
0.01202952 0.03042762 0.74300003 1.5428777e-38
0.013444752 0.030427612 0.74300003 1.5796099e-38
0.014859998 0.030427627 0.74300003 1.5889709e-38
0.016275229 0.03042762 0.74300003 1.6071615e-38
0.017690474 0.03042762 0.74300003 1.645226e-38
0.019157132 0.030509517 0.74500006 1.6807786e-38
0.020576177 0.030509509 0.74500006 1.6091419e-38
0.021995218 0.030509524 0.74500006 1.5363941e-38
0.023477135 0.030591428 0.7470001 1.629273e-38
0.024933327 0.030632384 0.74799997 1.7242692e-38
0.026358092 0.030632384 0.74799997 1.8251484e-38
0.027857156 0.030714288 0.75 1.9334529e-38
0.029363802 0.030796193 0.75200009 1.7046566e-38
0.030796178 0.030796185 0.75200009 1.4839524e-38
0.032228552 0.030796185 0.75200009 1.3815222e-38
0.033705711 0.030837148 0.75300002 1.2805022e-38
0.035233326 0.030919045 0.75500005 1.1700116e-38
0.036671422 0.030919045 0.75500005 1.0678113e-38
0.03816 0.030959994 0.75600004 9.2026717e-39
0.0396 0.030960001 0.75600004 7.7527132e-39
0.041311428 0.031164758 0.76100004 1.1163936e-38
0.042873334 0.031246677 0.76299995 1.4662303e-38
0.044326667 0.031246677 0.76299995 1.4660158e-38
0.045779996 0.031246677 0.76299995 1.4757026e-38
0.047233328 0.03124667 0.76300001 1.503039e-38
-0.036073342 0.033128574 0.77300006 8.9127403e-39
-0.03433238 0.032871433 0.76699996 9.1860832e-39
-0.032785725 0.032785729 0.76499999 9.3697794e-39
-0.031328581 0.032785729 0.76499999 1.0196324e-38
-0.029793335 0.032700002 0.76300001 1.1037239e-38
-0.028340006 0.032699995 0.76300001 1.1694124e-38
-0.026816206 0.032614298 0.76100004 1.2329417e-38
-0.025333341 0.032571428 0.76000011 1.2689205e-38
-0.023822861 0.032485716 0.75800002 1.2974055e-38
-0.022320004 0.032400005 0.75600004 1.3445089e-38
-0.020797141 0.03227143 0.75300002 1.3800218e-38
-0.019362858 0.032271422 0.75300002 1.3794823e-38
-0.017904779 0.032228574 0.75200009 1.3697251e-38
-0.016472394 0.032228574 0.75200009 1.415679e-38
-0.014999991 0.03214287 0.75 1.4625311e-38
-0.013571431 0.032142848 0.75000006 1.5471938e-38
-0.012142852 0.032142855 0.75000006 1.6294164e-38
-0.010714282 0.032142855 0.75000006 1.6207005e-38
-0.0092609609 0.032057129 0.74800003 1.6106925e-38
-0.0078257173 0.032014295 0.74700004 1.6757313e-38
-0.0064028706 0.032014281 0.7470001 1.7306548e-38
-0.0049800058 0.032014288 0.74700004 1.7682154e-38
-0.0035476382 0.031928562 0.74500012 1.7951568e-38
-0.0021228679 0.031842858 0.74300003 1.8052738e-38
-0.00070762902 0.031842858 0.74300003 1.8138476e-38
0.00070760923 0.03184285 0.74300003 1.8326096e-38
0.0021228553 0.03184285 0.74300003 1.8414686e-38
0.0035380863 0.03184285 0.74300003 1.7768951e-38
0.0049533173 0.031842843 0.74300003 1.7013718e-38
0.0063685635 0.031842843 0.74300003 1.5887916e-38
0.0077837948 0.031842835 0.74300003 1.4786986e-38
0.00919904 0.03184285 0.74300009 1.4877767e-38
0.010614271 0.03184285 0.74300009 1.4883135e-38
0.012029517 0.031842843 0.74300009 1.552059e-38
0.013444749 0.03184285 0.74300009 1.6085595e-38
0.014860004 0.03184285 0.74300003 1.6721629e-38
0.016275236 0.03184285 0.74300003 1.7294561e-38
0.017690482 0.03184285 0.74300003 1.7960403e-38
0.019105712 0.031842865 0.74300003 1.8591395e-38
0.020520944 0.031842858 0.74300003 1.694874e-38
0.021995233 0.031928562 0.74500006 1.519276e-38
0.023477139 0.032014288 0.74700004 1.6308073e-38
0.024899993 0.032014281 0.74700004 1.7324449e-38
0.026358088 0.032057151 0.74800003 1.8359479e-38
0.027782856 0.032057144 0.74800003 1.9344558e-38
0.029363794 0.032228574 0.75200009 1.7325971e-38
0.030796168 0.032228567 0.75200009 1.5287931e-38
0.032228556 0.032228567 0.75200009 1.3346031e-38
0.033705723 0.03227143 0.75300002 1.1333168e-38
0.035233341 0.032357149 0.75500005 1.1428934e-38
0.036671415 0.032357134 0.75500005 1.1413869e-38
0.038159989 0.032400005 0.7560001 9.0921555e-39
0.039704762 0.032485716 0.75800002 6.8242997e-39
0.041311421 0.032614291 0.76100004 9.3222053e-39
0.04276095 0.032614291 0.76100004 1.1806078e-38
0.044326663 0.032699995 0.76300001 1.2170919e-38
0.045779996 0.03270001 0.76300001 1.2542218e-38
-0.036026679 0.034556188 0.77200001 9.0982175e-39
-0.03433238 0.034332387 0.76700002 9.3726352e-39
-0.032785736 0.034242861 0.76500005 9.6456474e-39
-0.031246658 0.034153342 0.76300001 1.0103764e-38
-0.02979333 0.034153342 0.76300001 1.0653708e-38
-0.028339995 0.034153335 0.76300001 1.1120424e-38
-0.026816195 0.034063824 0.76100004 1.1663552e-38
-0.025333347 0.034019031 0.76000011 1.2036998e-38
-0.023822868 0.033929512 0.75800008 1.2407598e-38
-0.022320012 0.033839986 0.7560001 1.2685644e-38
-0.020852385 0.033795245 0.75500005 1.304257e-38
-0.019414289 0.03379523 0.75500005 1.3047937e-38
-0.017904779 0.033660956 0.75200009 1.3140113e-38
-0.016472397 0.033660956 0.75200009 1.3414524e-38
-0.015000002 0.033571415 0.75000006 1.3687918e-38
-0.013571425 0.033571437 0.75000006 1.4252244e-38
-0.012142854 0.033571437 0.75000006 1.4808286e-38
-0.010714282 0.03357143 0.75000006 1.4990529e-38
-0.0092609543 0.033481918 0.74799997 1.5171353e-38
-0.0078361984 0.033481896 0.74800003 1.554302e-38
-0.0064028609 0.03343714 0.74700004 1.6008289e-38
-0.0049800063 0.033437155 0.74700004 1.5910347e-38
-0.0035476289 0.033347622 0.74500006 1.5808115e-38
-0.0021228609 0.033258088 0.74300003 1.6183715e-38
-0.00070762204 0.033258103 0.74300003 1.6639312e-38
0.00070761668 0.033258095 0.74300003 1.7115356e-38
0.0021228474 0.033258103 0.74300003 1.767136e-38
0.0035380933 0.033258088 0.74300003 1.7391517e-38
0.0049533243 0.033258095 0.74300003 1.7185522e-38
0.00636857 0.033258088 0.74300003 1.6637655e-38
0.0077838013 0.033258088 0.74300003 1.6075194e-38
0.0091990326 0.03325808 0.74300003 1.5631116e-38
0.010614279 0.03325808 0.74300003 1.5266614e-38
0.012029509 0.033258088 0.74300003 1.5276269e-38
0.013444755 0.033258088 0.74300003 1.5293512e-38
0.014859986 0.033258088 0.74300003 1.4918301e-38
0.016275233 0.033258088 0.74300009 1.4567144e-38
0.017738091 0.033347614 0.74500006 1.5663831e-38
0.019157132 0.033347607 0.74500006 1.6863014e-38
0.020520953 0.033258103 0.74300003 1.4277928e-38
0.021995218 0.033347599 0.74500006 1.1690749e-38
0.02347713 0.033437155 0.74700004 1.0313572e-38
0.024899999 0.033437148 0.7470001 8.9386867e-39
0.026358096 0.033481918 0.74799997 1.1611379e-38
0.02778285 0.033481903 0.74800003 1.4368564e-38
0.0293638 0.033660948 0.75200009 1.4368173e-38
0.030796176 0.033660948 0.75200009 1.4445977e-38
0.032228563 0.033660941 0.75200009 1.4272309e-38
0.033705719 0.033705711 0.75300002 1.3996781e-38
0.03523333 0.033795238 0.75500005 1.179199e-38
0.036671426 0.033795238 0.75500005 9.5889929e-39
0.038159993 0.033840001 0.75600004 7.8229322e-39
0.039861903 0.034063816 0.76100004 5.9974089e-39
0.041311435 0.034063824 0.76100004 8.8583657e-39
0.042760957 0.034063809 0.76100004 1.1712095e-38
0.044210471 0.034063824 0.76099998 1.1433729e-38
0.045660008 0.034063831 0.76099998 1.1247201e-38
-0.036026675 0.036026672 0.77200001 9.2937253e-39
-0.034242868 0.035700008 0.76500005 9.6527912e-39
-0.032785732 0.035700001 0.76500005 9.9261551e-39
-0.031328589 0.035700001 0.76500005 1.0102661e-38
-0.029793337 0.03560666 0.76300001 1.0196662e-38
-0.028340006 0.035606667 0.76300001 1.0653699e-38
-0.026816199 0.035513334 0.76100004 1.1022109e-38
-0.025333343 0.035466664 0.76000005 1.1388009e-38
-0.023822865 0.035373323 0.75800008 1.1757876e-38
-0.022320012 0.035279997 0.75600004 1.2030886e-38
-0.020852381 0.035233326 0.75500005 1.2215285e-38
-0.01936285 0.035140008 0.75300002 1.2398252e-38
-0.017904779 0.035093337 0.75200009 1.2491856e-38
-0.016472397 0.03509333 0.75200009 1.2581874e-38
-0.014999996 0.035000004 0.75000006 1.2674801e-38
-0.013571425 0.035000011 0.75000006 1.3041082e-38
-0.012142847 0.034999996 0.75 1.3322332e-38
-0.010714278 0.035000019 0.75 1.3775773e-38
-0.0092485789 0.03486 0.74700004 1.4151018e-38
-0.0078257229 0.034860007 0.74700004 1.4418644e-38
-0.0064028674 0.03486 0.74700004 1.4708495e-38
-0.0049666823 0.034766659 0.74500012 1.4143129e-38
-0.0035476284 0.034766667 0.74500006 1.3603246e-38
-0.0021228609 0.034673341 0.74300003 1.4326818e-38
-0.00070762204 0.034673326 0.74300003 1.5085538e-38
0.00070760923 0.034673333 0.74300003 1.6008198e-38
0.0021228548 0.034673341 0.74300003 1.6845106e-38
0.0035380858 0.034673341 0.74300003 1.7123468e-38
0.0049533313 0.034673333 0.74300003 1.7301366e-38
0.006368563 0.034673333 0.74300003 1.7402137e-38
0.0077838087 0.034673326 0.74300003 1.7393889e-38
0.00919904 0.034673326 0.74300003 1.6487735e-38
0.010614286 0.034673318 0.74300003 1.5558632e-38
0.012029517 0.034673326 0.74300003 1.5023776e-38
0.013444749 0.034673311 0.74300003 1.4369099e-38
0.014899977 0.034766659 0.74500012 1.3090227e-38
0.016319046 0.034766667 0.74500006 1.1796301e-38
0.017738091 0.034766652 0.74500006 1.3447929e-38
0.019157132 0.034766674 0.74500006 1.5010896e-38
0.020576177 0.034766659 0.74500006 1.1609005e-38
0.022054283 0.034859993 0.74700004 8.1970775e-39
0.023477137 0.034860007 0.7470001 4.3170054e-39
0.024933325 0.03490667 0.74800003 4.7576185e-40
0.026358092 0.03490667 0.74800003 4.870657e-39
0.027857145 0.035000004 0.75000006 9.3031911e-39
0.029363792 0.035093337 0.75200009 1.151553e-38
0.030796181 0.035093322 0.75200009 1.362986e-38
0.032228556 0.035093322 0.75200009 1.5207884e-38
0.033705711 0.035139993 0.75300002 1.6661063e-38
0.035233341 0.035233341 0.75500005 1.2244662e-38
0.03667143 0.035233326 0.75500005 7.7314555e-39
0.038159993 0.035280004 0.75600004 6.4289037e-39
0.039809514 0.035466656 0.76000005 5.1687412e-39
0.041311424 0.035513341 0.76100004 8.4013434e-39
0.042760946 0.035513327 0.76100004 1.1524479e-38
0.044210475 0.035513341 0.76100004 1.0696536e-38
0.045659997 0.035513349 0.76100004 9.869666e-39
-0.034377161 0.037302844 0.76800001 9.6635392e-39
-0.032871433 0.037254274 0.76700002 1.0579027e-38
-0.031410467 0.037254289 0.76699996 1.0853819e-38
-0.029871436 0.037157141 0.76500005 1.1121453e-38
-0.028340008 0.037059993 0.76300001 1.1399847e-38
-0.026816199 0.036962852 0.76100004 1.1759994e-38
-0.025333341 0.036914274 0.76000005 1.2224889e-38
-0.023822863 0.036817141 0.75800008 1.2766216e-38
-0.022320019 0.036719993 0.7560001 1.3050689e-38
-0.020852383 0.036671422 0.75500005 1.3317265e-38
-0.019414287 0.036671422 0.75500005 1.3417388e-38
-0.017904773 0.036525704 0.75200009 1.3500226e-38
-0.016472397 0.036525711 0.75200009 1.4430388e-38
-0.014999987 0.036428578 0.75 1.5337255e-38
-0.013571418 0.036428578 0.75 1.535052e-38
-0.012142847 0.036428571 0.75 1.5245052e-38
-0.010685719 0.036331438 0.74799997 1.5259761e-38
-0.009248578 0.03628286 0.74700004 1.5259043e-38
-0.0078257229 0.036282867 0.74700004 1.5358771e-38
-0.0064028688 0.036282867 0.7470001 1.5365587e-38
-0.0049666818 0.036185704 0.74500012 1.4903898e-38
-0.0035476284 0.036185712 0.74500006 1.4450471e-38
-0.0021228711 0.036088564 0.74300003 1.5093331e-38
-0.00070763228 0.036088571 0.74300009 1.5754829e-38
0.00070760597 0.036088564 0.74300009 1.4733513e-38
0.0021228516 0.036088564 0.74300009 1.3730857e-38
0.0035380828 0.036088556 0.74300009 1.4091026e-38
0.0049533243 0.036088578 0.74300003 1.4463407e-38
0.00636857 0.036088578 0.74300003 1.4461271e-38
0.0077838013 0.036088578 0.74300003 1.4558823e-38
0.0091990475 0.036088571 0.74300003 1.206202e-38
0.010614279 0.036088571 0.74300003 9.6711272e-39
0.012061892 0.036185704 0.74500006 9.1169431e-39
0.013480934 0.036185697 0.74500012 8.5583925e-39
0.014899989 0.036185704 0.74500006 1.0038517e-38
0.016319046 0.036185719 0.74500006 1.158968e-38
0.017738089 0.036185712 0.74500006 1.1965993e-38
0.019157132 0.036185712 0.74500006 1.2337997e-38
0.020520942 0.036088571 0.74300003 1.178734e-38
0.021936188 0.036088564 0.74300003 1.1231979e-38
0.023414277 0.036185704 0.74500012 8.840984e-39
0.024833331 0.036185719 0.74500006 6.4593511e-39
0.026322851 0.03628286 0.74700004 6.5364688e-39
0.027782854 0.036331423 0.74800003 6.7335194e-39
0.029285721 0.036428578 0.75 9.6755889e-39
0.0307143 0.036428586 0.75 1.2707199e-38
0.032142874 0.036428578 0.75 1.4367733e-38
0.033660948 0.036525711 0.75200003 1.6011734e-38
0.03523333 0.036671422 0.75500005 1.2700564e-38
0.036671426 0.036671422 0.75500005 9.367613e-39
0.038159981 0.036719993 0.7560001 7.7221382e-39
0.039599981 0.036719993 0.7560001 6.1839581e-39
0.04125715 0.036914289 0.76000005 8.9491306e-39
0.04276095 0.036962859 0.76100004 1.1706359e-38
0.044210471 0.036962867 0.76100004 1.0972402e-38
0.045659985 0.036962859 0.76100004 1.0328842e-38
0.047109522 0.036962852 0.76100004 1.0237011e-38
-0.034377154 0.038765717 0.76800001 9.6703621e-39
-0.032871421 0.03871524 0.76699996 1.1233026e-38
-0.031410478 0.038715232 0.76700002 1.1611515e-38
-0.029871436 0.038614281 0.76500005 1.1969157e-38
-0.028339997 0.038513348 0.76299995 1.224788e-38
-0.026816197 0.038412392 0.76099998 1.2424362e-38
-0.025333339 0.038361892 0.76000005 1.307724e-38
-0.023885731 0.038361903 0.76000011 1.3712217e-38
-0.022379057 0.03826094 0.75800008 1.4088907e-38
-0.020880017 0.038160007 0.7560001 1.4447639e-38
-0.019414281 0.038109526 0.75500005 1.4545213e-38
-0.017928565 0.038008582 0.75300002 1.4543806e-38
-0.016472399 0.037958093 0.75200009 1.6302701e-38
-0.014999988 0.037857153 0.75 1.8041103e-38
-0.013571429 0.03785713 0.75000006 1.7686301e-38
-0.012142858 0.037857149 0.75000006 1.7211668e-38
-0.01068572 0.037756201 0.74800003 1.6851114e-38
-0.0092609553 0.037756197 0.74800003 1.6384039e-38
-0.0078257127 0.037705731 0.74700004 1.6207537e-38
-0.0064028581 0.037705727 0.74700004 1.6019218e-38
-0.0049800035 0.037705716 0.74700004 1.5655836e-38
-0.0035571475 0.037705712 0.7470001 1.5285292e-38
-0.0021285778 0.037604753 0.74500006 1.5840995e-38
-0.0007076253 0.037503794 0.74300003 1.6297262e-38
0.00070761296 0.037503794 0.74300003 1.3440277e-38
0.0021228441 0.037503809 0.74300003 1.0588354e-38
0.0035380898 0.037503801 0.74300003 1.1046816e-38
0.0049533211 0.037503801 0.74300009 1.1510331e-38
0.0063685672 0.037503794 0.74300009 1.1603637e-38
0.0077837985 0.037503794 0.74300009 1.1598228e-38
0.0091990298 0.037503794 0.74300009 7.6227273e-39
0.010614285 0.037503816 0.74300003 3.6903209e-39
0.012029517 0.037503809 0.74300003 3.2146614e-39
0.013444763 0.037503809 0.74300003 2.7698304e-39
0.014899988 0.03760476 0.74500006 7.0997277e-39
0.01627524 0.037503801 0.74300003 1.1320603e-38
0.01769047 0.037503809 0.74300003 1.048873e-38
0.019105718 0.037503801 0.74300003 9.6672148e-39
0.02052095 0.037503801 0.74300003 1.1969543e-38
0.021995218 0.037604757 0.74500012 1.4267553e-38
0.023414286 0.037604764 0.74500006 1.3355626e-38
0.024899989 0.037705719 0.74700004 1.2330361e-38
0.026322855 0.037705731 0.74700004 8.1737221e-39
0.027782859 0.037756197 0.74799997 4.0569917e-39
0.029285721 0.037857141 0.75 7.9299508e-39
0.030714288 0.037857141 0.75000006 1.1700568e-38
0.032142863 0.037857138 0.75000006 1.3544432e-38
0.033660956 0.037958112 0.75200003 1.5286762e-38
0.035233341 0.038109526 0.75500005 1.3177741e-38
0.036671415 0.038109511 0.75500005 1.0947861e-38
0.038160004 0.038160004 0.75600004 9.0921401e-39
0.039809518 0.038361903 0.76000011 7.1894795e-39
0.041311432 0.038412392 0.76099998 9.5962727e-39
0.042873338 0.038513336 0.76300001 1.1892544e-38
0.044210464 0.038412385 0.76100004 1.1340839e-38
0.045659993 0.038412377 0.76100004 1.0697626e-38
-0.034377158 0.040228572 0.76800001 8.2892479e-39
-0.032871425 0.040176202 0.76699996 9.1219149e-39
-0.031328589 0.040071428 0.76500005 9.0308459e-39
-0.029871436 0.040071435 0.76500005 8.946499e-39
-0.028340001 0.039966661 0.76300001 8.29105e-39
-0.02688667 0.039966673 0.76300001 7.7443348e-39
-0.025366673 0.039861917 0.76100004 8.476858e-39
-0.023885718 0.039809529 0.76000005 9.3141829e-39
-0.022379056 0.039704744 0.75800008 9.4017556e-39
-0.020880008 0.0396 0.75600004 9.5021628e-39
-0.01944001 0.039599996 0.75600004 1.1426006e-38
-0.017928571 0.039442852 0.75300002 1.3367552e-38
-0.016472399 0.039390471 0.75200009 1.4286353e-38
-0.015040019 0.039390475 0.75200009 1.5306924e-38
-0.013571423 0.039285704 0.75000006 1.4097973e-38
-0.012142852 0.039285716 0.75000006 1.3003423e-38
-0.01071428 0.039285712 0.75000006 1.3909524e-38
-0.0092609664 0.039180949 0.74800003 1.4922216e-38
-0.0078257201 0.039128587 0.74700004 1.4733511e-38
-0.0064028655 0.039128575 0.74700004 1.4643499e-38
-0.0049800109 0.039128572 0.7470001 1.4825764e-38
-0.0035476284 0.039023802 0.74500006 1.5010195e-38
-0.0021228641 0.038919043 0.74300003 1.44603e-38
-0.0007076253 0.038919039 0.74300003 1.3999969e-38
0.00070760597 0.038919039 0.74300003 1.1775751e-38
0.0021228516 0.038919043 0.74300003 9.6448809e-39
0.0035380828 0.038919032 0.74300003 1.1216129e-38
0.0049533285 0.03891905 0.74300003 1.2875678e-38
0.0063685598 0.038919039 0.74300003 1.3805923e-38
0.007783805 0.038919047 0.74300003 1.4719225e-38
0.0091990363 0.038919035 0.74300003 1.2887864e-38
0.010614268 0.038919039 0.74300003 1.1058308e-38
0.012029513 0.038919043 0.74300009 9.3930507e-39
0.013444745 0.038919047 0.74300009 7.6345445e-39
0.014899989 0.039023809 0.74500006 8.5618678e-39
0.016275221 0.038919043 0.74300009 9.4917568e-39
0.017690478 0.038919043 0.74300003 9.2980946e-39
0.019105708 0.038919047 0.74300003 9.1994095e-39
0.020520955 0.038919047 0.74300003 1.0218176e-38
0.021936188 0.038919043 0.74300003 1.1145484e-38
0.023414286 0.039023805 0.74500006 9.9429973e-39
0.024900006 0.039128579 0.74700004 8.7505666e-39
0.02632286 0.039128583 0.74700004 5.5176646e-39
0.027782856 0.039180957 0.74800003 2.3902971e-39
0.029285723 0.039285719 0.75000006 6.0799201e-39
0.030796183 0.039390482 0.75200003 9.7737863e-39
0.03222857 0.039390475 0.75200003 1.2351995e-38
0.033705726 0.039442856 0.75300002 1.4831915e-38
0.03523333 0.039547615 0.75500005 1.2252631e-38
0.03667143 0.039547626 0.75500005 9.6747524e-39
0.038159993 0.039599996 0.7560001 8.3721656e-39
0.039809521 0.039809518 0.76000011 7.1909102e-39
0.041311428 0.039861925 0.76100004 9.4061333e-39
0.042873338 0.039966669 0.76300001 1.1712463e-38
0.044326663 0.039966676 0.76300001 1.1342649e-38
0.045780007 0.039966673 0.76300001 1.0974576e-38
-0.034377158 0.041691426 0.76800001 6.9963918e-39
-0.032871429 0.041637145 0.76700002 6.9992742e-39
-0.031328581 0.041528579 0.76500005 6.4432516e-39
-0.02987143 0.041528579 0.76500005 5.8021744e-39
-0.028339999 0.041420013 0.76300001 4.4095542e-39
-0.026886666 0.041420005 0.76300001 2.9502265e-39
-0.025366673 0.041311428 0.76100004 3.9546731e-39
-0.023885716 0.04125715 0.76000005 4.8866809e-39
-0.022379054 0.041148566 0.75800008 4.7019547e-39
-0.02093525 0.041148558 0.75800008 4.5215053e-39
-0.019440006 0.041040011 0.75600004 8.288906e-39
-0.017976193 0.040985707 0.75500005 1.2063543e-38
-0.016472401 0.040822856 0.75200009 1.2350942e-38
-0.015040019 0.040822849 0.75200009 1.2520956e-38
-0.013571423 0.040714294 0.75000006 1.0579113e-38
-0.012142852 0.04071429 0.75 8.6573564e-39
-0.010714275 0.040714286 0.75 1.1045053e-38
-0.009260959 0.040605713 0.74800003 1.3347757e-38
-0.0078257192 0.040551431 0.74700004 1.334453e-38
-0.0064028651 0.040551428 0.7470001 1.3257372e-38
-0.004966673 0.040442862 0.74500006 1.3993505e-38
-0.0035476293 0.040442865 0.74500006 1.4734317e-38
-0.0021228641 0.040334288 0.74300003 1.3172786e-38
-0.0007076253 0.040334284 0.74300003 1.1597886e-38
0.00070761342 0.040334288 0.74300003 1.0109439e-38
0.002122859 0.040334277 0.74300003 8.6354401e-39
0.0035380903 0.040334284 0.74300003 1.1389101e-38
0.0049533211 0.040334273 0.74300003 1.4174694e-38
0.0063685672 0.040334277 0.74300003 1.6025433e-38
0.0077837985 0.040334281 0.74300003 1.7864274e-38
0.0091990437 0.040334284 0.74300003 1.8151239e-38
0.010614275 0.040334277 0.74300003 1.8421376e-38
0.01202952 0.040334281 0.74300003 1.5481215e-38
0.013444752 0.040334269 0.74300003 1.2519823e-38
0.014899988 0.040442862 0.74500006 1.0020838e-38
0.016275231 0.040334277 0.74300003 7.547067e-39
0.017690476 0.040334284 0.74300009 8.1957043e-39
0.019105708 0.040334281 0.74300009 8.7427544e-39
0.020520939 0.040334277 0.74300009 8.373962e-39
0.021936184 0.040334281 0.74300009 8.0026418e-39
0.023414271 0.040442862 0.74500006 6.520686e-39
0.024899999 0.040551443 0.74700004 5.0627947e-39
0.026322853 0.040551431 0.74700004 2.847978e-39
0.027782863 0.040605713 0.74799997 6.4718549e-40
0.029285723 0.040714283 0.75000006 4.2255721e-39
0.030796189 0.040822864 0.75200003 7.8340978e-39
0.032271434 0.040877137 0.75300002 1.1166041e-38
0.033705719 0.040877134 0.75300002 1.4366625e-38
0.035233341 0.040985707 0.755 1.1326341e-38
0.03667143 0.040985715 0.75500005 8.2817552e-39
0.03816 0.041040011 0.75600004 7.7145754e-39
0.039809518 0.041257147 0.76000005 7.0875799e-39
0.041419994 0.041420002 0.76300001 9.3078448e-39
0.042985704 0.041528571 0.76500005 1.1431217e-38
0.044326663 0.041419994 0.76299995 1.1343004e-38
0.045899991 0.041528568 0.76500005 1.125116e-38
-0.034377158 0.043154281 0.76800007 6.6287065e-39
-0.032785725 0.042985734 0.76499999 6.7208769e-39
-0.031328581 0.042985722 0.76499999 6.1676877e-39
-0.02987143 0.04298573 0.76500005 5.61273e-39
-0.028265728 0.042760957 0.76100004 4.4159987e-39
-0.026816202 0.042760957 0.76100004 3.315049e-39
-0.025333349 0.04270475 0.76000011 4.7872854e-39
-0.023885721 0.042704765 0.76000005 6.2598819e-39
-0.02237905 0.04259238 0.75800002 5.5244805e-39
-0.020935247 0.042592369 0.75800008 4.7765486e-39
-0.019440014 0.042479996 0.7560001 5.5195073e-39
-0.017904768 0.042255253 0.75200003 6.3482015e-39
-0.016428566 0.042142864 0.75000006 6.3510924e-39
-0.014999994 0.042142861 0.75 6.3370752e-39
-0.013571418 0.042142861 0.75 6.3417107e-39
-0.012142846 0.042142872 0.75 6.4296044e-39
-0.010714275 0.042142868 0.75 1.0123116e-38
-0.0092609627 0.042030472 0.74800003 1.3804083e-38
-0.0078361975 0.042030483 0.74800003 1.3620785e-38
-0.0064114314 0.04203048 0.74800003 1.3527513e-38
-0.0049800077 0.041974284 0.74700004 1.4270086e-38
-0.003557153 0.041974295 0.7470001 1.5107029e-38
-0.0021228674 0.041749507 0.74300009 1.3075545e-38
-0.00070762855 0.041749518 0.74300009 1.1037175e-38
0.00070762087 0.041749526 0.74300003 1.0292034e-38
0.0021228516 0.04174953 0.74300003 9.4594793e-39
0.0035380973 0.041749518 0.74300003 1.2702483e-38
0.0049533285 0.041749522 0.74300003 1.5948674e-38
0.0063685738 0.041749522 0.74300003 1.713861e-38
0.007783806 0.041749518 0.74300003 1.8336767e-38
0.0091990372 0.041749515 0.74300003 1.8795934e-38
0.010614282 0.041749511 0.74300003 1.9167623e-38
0.012061891 0.041861892 0.74500012 1.6035214e-38
0.01344476 0.041749522 0.74300003 1.2901934e-38
0.014899988 0.041861895 0.74500006 8.3710319e-39
0.016319046 0.041861899 0.74500006 3.8575042e-39
0.017690469 0.041749511 0.74300003 5.1536478e-39
0.019105701 0.041749507 0.74300003 6.4465208e-39
0.020576175 0.041861903 0.74500012 8.4600858e-39
0.02199523 0.041861903 0.74500006 1.0561493e-38
0.023414286 0.041861907 0.74500006 1.1125371e-38
0.024899993 0.041974295 0.7470001 1.1682482e-38
0.026322857 0.041974299 0.74700004 1.0771659e-38
0.027782859 0.042030476 0.74800003 9.9311494e-39
0.029363805 0.042255245 0.75200003 7.1782369e-39
0.030837156 0.042311423 0.75300002 4.5172355e-39
0.032271437 0.042311426 0.75300002 8.2922509e-39
0.033705715 0.042311423 0.75300002 1.2059961e-38
0.03523333 0.042423796 0.75500005 9.5717359e-39
0.03667143 0.042423815 0.75500005 7.0742227e-39
0.038159996 0.042480007 0.75600004 7.3489935e-39
0.039861895 0.042760976 0.76099998 7.5349052e-39
0.041420002 0.042873342 0.76300001 9.3039015e-39
0.043098103 0.043098103 0.76699996 1.106495e-38
0.044442847 0.042985722 0.76500005 1.1066416e-38
0.045899991 0.042985715 0.76500005 1.1067132e-38
-0.035933342 0.044733327 0.7700001 6.1720443e-39
-0.034466676 0.044733334 0.77000004 6.3521e-39
-0.032871425 0.044559043 0.76700002 6.4439284e-39
-0.031328574 0.04444287 0.76499999 5.9858202e-39
-0.02987143 0.044442862 0.76499999 5.4297919e-39
-0.028414294 0.044442866 0.76500005 4.510009e-39
-0.026816195 0.044210482 0.76100004 3.5916513e-39
-0.025366675 0.04421049 0.76100004 5.6188453e-39
-0.023885725 0.044152379 0.76000005 7.6428472e-39
-0.02237905 0.044036187 0.75800002 6.3589775e-39
-0.020935245 0.044036195 0.75800008 5.0624892e-39
-0.019440006 0.043920003 0.75600004 2.8472857e-39
-0.017904766 0.04368763 0.75200003 5.542794e-40
-0.016428566 0.043571431 0.75 3.6774836e-40
-0.014999988 0.043571435 0.75 9.2237669e-41
-0.013571418 0.043571431 0.75 2.2044513e-39
-0.012142857 0.043571431 0.75000006 4.233446e-39
-0.01071428 0.043571427 0.75000006 9.2133749e-39
-0.0092609571 0.043455243 0.74800003 1.4173585e-38
-0.007836191 0.043455247 0.74799997 1.3990289e-38
-0.0064114351 0.043455232 0.74800003 1.3715493e-38
-0.0049800081 0.043397147 0.7470001 1.4544518e-38
-0.0035571433 0.043397155 0.74700004 1.5374643e-38
-0.0021228674 0.043164749 0.74300003 1.2984786e-38
-0.00070762855 0.043164752 0.74300003 1.0489424e-38
0.00070760224 0.043164752 0.74300003 1.037784e-38
0.0021285503 0.043280937 0.74500012 1.0310788e-38
0.0035380796 0.04316476 0.74300009 1.401258e-38
0.0049533248 0.043164756 0.74300009 1.7596699e-38
0.0063857045 0.043280952 0.74500006 1.8243517e-38
0.0078047477 0.043280955 0.74500006 1.8794889e-38
0.0092237899 0.043280944 0.74500006 1.9343751e-38
0.010642848 0.043280941 0.74500012 1.9897963e-38
0.012061901 0.043280948 0.74500006 1.6590064e-38
0.013480945 0.043280944 0.74500006 1.3162321e-38
0.014899987 0.043280941 0.74500006 6.6125313e-39
0.016319033 0.043280952 0.74500006 9.2586592e-41
0.017690476 0.043164756 0.74300003 2.1140619e-39
0.019105708 0.043164752 0.74300003 4.0480107e-39
0.020520953 0.043164756 0.74300003 8.6416016e-39
0.021936184 0.043164752 0.74300003 1.3154081e-38
0.023414271 0.043280952 0.74500006 1.5736222e-38
0.024833331 0.043280952 0.74500006 1.8326676e-38
0.026322847 0.043397151 0.74700004 1.8808503e-38
0.027782865 0.043455243 0.74799997 1.9152129e-38
0.029285721 0.043571439 0.75 1.0131405e-38
0.03083715 0.043745723 0.75300002 1.1182726e-39
0.032271437 0.043745719 0.75300002 5.425951e-39
0.033705711 0.043745715 0.75300002 9.7590391e-39
0.035233334 0.043861892 0.75500005 7.8257909e-39
0.036671419 0.043861903 0.75500005 5.8914847e-39
0.038159989 0.043920003 0.75600004 6.9802166e-39
0.039809521 0.044152375 0.76000005 8.0080788e-39
0.041419998 0.044326678 0.76299995 9.3082189e-39
0.043098114 0.044559043 0.76699996 1.060362e-38
0.044442847 0.044442859 0.76500005 1.069906e-38
0.045899991 0.044442866 0.76500005 1.0791615e-38
0.047357135 0.044442855 0.76500005 1.1067123e-38
-0.035933331 0.046200003 0.77000004 8.7470185e-39
-0.034466662 0.046200007 0.77000004 8.0101373e-39
-0.032871433 0.046020005 0.76700002 7.2682885e-39
-0.031410471 0.046020005 0.76699996 6.164836e-39
-0.029871428 0.045900006 0.76499999 5.1517897e-39
-0.028340006 0.045780003 0.76300001 4.3227717e-39
-0.026816202 0.045660011 0.76100004 3.4940957e-39
-0.02536667 0.045660004 0.76100004 4.6965625e-39
-0.023885725 0.045600001 0.76000011 5.905558e-39
-0.022379048 0.045479994 0.75800002 7.1005629e-39
-0.020935245 0.045479998 0.75800002 8.1949714e-39
-0.019440014 0.045359991 0.7560001 6.6178982e-39
-0.017904768 0.045120012 0.75200003 4.9594783e-39
-0.016472392 0.045120008 0.75200003 3.7666917e-39
-0.015040011 0.045120001 0.75200003 2.5717736e-39
-0.013571423 0.045000006 0.75000006 2.5728695e-39
-0.012142851 0.044999998 0.75000006 2.5757463e-39
-0.01071428 0.044999998 0.75000006 6.9081646e-39
-0.0092857098 0.044999998 0.75000006 1.1237008e-38
-0.0078571392 0.045000009 0.75 1.1234157e-38
-0.0064285616 0.045000009 0.75 1.1238093e-38
-0.0049866699 0.044880006 0.74799997 1.3354244e-38
-0.0035619037 0.044880006 0.74799997 1.5463609e-38
-0.0021228665 0.044579986 0.74300003 1.2616008e-38
-0.00070762855 0.04457999 0.74300003 9.7623069e-39
0.0007076097 0.044579994 0.74300003 9.3870882e-39
0.0021285606 0.044700004 0.74500006 9.0466526e-39
0.0035380861 0.04457999 0.74300003 1.1892477e-38
0.0049533173 0.044579994 0.74300003 1.4834827e-38
0.0063857045 0.044699993 0.74500006 1.5392682e-38
0.0078047467 0.044699989 0.74500006 1.5949087e-38
0.0092237908 0.044699986 0.74500006 1.4743756e-38
0.010642848 0.044699982 0.74500012 1.3561276e-38
0.012061901 0.044700004 0.74500006 1.3635434e-38
0.013480944 0.0447 0.74500006 1.3698215e-38
0.014899987 0.044699997 0.74500006 9.4737852e-39
0.016319031 0.044699993 0.74500006 5.2353548e-39
0.017690467 0.044579983 0.74300003 4.0414849e-39
0.019105714 0.04457999 0.74300003 2.7554741e-39
0.020576186 0.0447 0.74500006 8.744555e-39
0.021936191 0.044579998 0.74300003 1.464608e-38
0.023414286 0.044699993 0.74500006 1.7044582e-38
0.024833314 0.044699997 0.74500006 1.9548631e-38
0.026322855 0.044820003 0.74700004 1.9915352e-38
0.027782863 0.044880006 0.74800003 2.0287996e-38
0.029285723 0.045000002 0.75000006 1.3728855e-38
0.030796178 0.045120001 0.75200003 7.081508e-39
0.03227143 0.04518 0.75300002 1.0769241e-38
0.033705715 0.045180012 0.75300002 1.4459499e-38
0.035233334 0.045300007 0.75500005 1.3726227e-38
0.036671434 0.045300007 0.755 1.2888922e-38
0.038159993 0.045360003 0.75600004 1.0310688e-38
0.039704762 0.045480002 0.75800002 7.657963e-39
0.041419998 0.045780003 0.76300001 9.4987185e-39
0.043098103 0.046020001 0.76700002 1.134189e-38
0.044559043 0.04601999 0.76700002 1.1158582e-38
0.046079993 0.046080008 0.76800001 1.1067471e-38
0.047542848 0.046079993 0.76800007 1.1251506e-38
0.049005702 0.046080001 0.76800001 1.1436256e-38
-0.034466669 0.047666661 0.7700001 9.672586e-39
-0.032871436 0.047480945 0.76700002 8.0105423e-39
-0.031328585 0.047357153 0.76500005 6.4374643e-39
-0.02987144 0.047357142 0.76500005 4.8777098e-39
-0.028340004 0.047233339 0.76300001 4.1344316e-39
-0.026780963 0.047047615 0.76000011 3.3086198e-39
-0.025333343 0.047047615 0.76000005 3.7677875e-39
-0.023885721 0.047047619 0.76000011 4.1538494e-39
-0.02237905 0.046923816 0.75800002 7.7580998e-39
-0.020935241 0.046923805 0.75800002 1.1320245e-38
-0.019491438 0.046923794 0.75800008 1.0378147e-38
-0.018000016 0.046799995 0.7560001 9.3798239e-39
-0.016472386 0.046552386 0.75200003 7.1679093e-39
-0.015040013 0.046552382 0.75200003 4.9717215e-39
-0.013607631 0.046552394 0.75200003 2.9391156e-39
-0.012175248 0.04655239 0.75200003 8.3228721e-40
-0.010742865 0.046552386 0.75200003 4.606878e-39
-0.0092857024 0.04642858 0.75 8.2831733e-39
-0.0078571327 0.04642858 0.75 8.5626315e-39
-0.0064285616 0.046428576 0.75 8.7524233e-39
-0.0050000022 0.046428565 0.75000006 1.2170089e-38
-0.0035619079 0.04630477 0.74800003 1.5476181e-38
-0.0021285866 0.046119034 0.74500006 1.2253701e-38
-0.0007076211 0.045995243 0.74300003 8.9267911e-39
0.00070761668 0.045995239 0.74300003 8.3610463e-39
0.0021285596 0.046119045 0.74500006 7.735082e-39
0.0035380935 0.045995232 0.74300003 9.8588031e-39
0.0049666613 0.046119038 0.74500006 1.1976059e-38
0.006385704 0.046119034 0.74500006 1.2543231e-38
0.0077838022 0.045995239 0.74300003 1.3076302e-38
0.0092237899 0.046119027 0.74500012 1.012106e-38
0.010642858 0.046119049 0.74500006 7.1934101e-39
0.012061901 0.046119042 0.74500006 1.0784645e-38
0.013480944 0.046119038 0.74500006 1.427007e-38
0.014899988 0.046119034 0.74500006 1.2349038e-38
0.016362855 0.046242867 0.74700004 1.0391783e-38
0.017738089 0.046119042 0.74500012 5.9696786e-39
0.01910571 0.045995213 0.74300009 1.4783853e-39
0.020576185 0.046119049 0.74500006 8.8424806e-39
0.02199523 0.046119042 0.74500006 1.6115431e-38
0.023414271 0.046119042 0.74500006 1.8430343e-38
0.024899993 0.046242855 0.7470001 2.0640958e-38
0.026322858 0.046242863 0.74700004 2.1015224e-38
0.027782852 0.046304762 0.74799997 2.1381409e-38
0.029285727 0.046428565 0.75000006 1.7231153e-38
0.030837152 0.046614289 0.75300002 1.3071651e-38
0.032271426 0.046614278 0.75300002 1.6109396e-38
0.033795249 0.046738103 0.75500005 1.9159304e-38
0.035233334 0.046738096 0.75500005 1.9546701e-38
0.036719985 0.046799999 0.75600004 1.9886056e-38
0.038159981 0.046799988 0.7560001 1.362366e-38
