# .PCD v0.7 - Point Cloud Data file format
VERSION 0.7
FIELDS x y z rgb
SIZE 4 4 4 4
TYPE F F F F
COUNT 1 1 1 1
WIDTH 949
HEIGHT 1
VIEWPOINT 0 0 0 1 0 0 0
POINTS 949
DATA ascii
0.0063085724 -0.025935233 0.73600006 1.50614e-38
0.0076895179 -0.02586475 0.73400003 1.4969564e-38
0.0090876073 -0.025864735 0.73399997 1.5435199e-38
0.010485705 -0.025864735 0.73399997 1.6003812e-38
0.011883815 -0.02586475 0.73400003 1.3992781e-38
0.013281892 -0.02586475 0.73399997 1.1959813e-38
0.014680004 -0.02586475 0.73400003 7.7202815e-39
0.016121903 -0.025935218 0.73600006 3.3982735e-39
0.017523808 -0.025935233 0.73600006 5.2349834e-39
0.018925708 -0.025935233 0.73600006 7.0716933e-39
0.020355253 -0.025970459 0.73700005 1.261088e-38
0.021759057 -0.025970474 0.73700005 1.8158125e-38
0.023162847 -0.025970474 0.73700005 1.9640931e-38
0.024566671 -0.025970474 0.73700005 2.1211036e-38
0.025970476 -0.025970474 0.73700005 1.6774166e-38
0.027374299 -0.025970489 0.73700005 1.2238256e-38
0.028778102 -0.025970474 0.73700005 6.4349433e-39
0.030181894 -0.025970459 0.73700005 5.5249695e-40
0.031585723 -0.025970474 0.73700005 5.2519377e-39
0.033079032 -0.026040912 0.73899996 9.9578259e-39
0.03462667 -0.026146665 0.74200004 1.2439213e-38
0.036040012 -0.026146665 0.74200004 1.490942e-38
0.037453342 -0.026146665 0.74200004 1.3977767e-38
0.038919047 -0.026181892 0.74300003 1.3056914e-38
0.040442854 -0.026252359 0.74500006 1.2606357e-38
0.042030472 -0.026358098 0.74800003 1.2148554e-38
0.043571424 -0.02642855 0.75000006 9.2958525e-39
0.044999994 -0.02642855 0.75000006 6.4482402e-39
0.04673811 -0.026604757 0.75500005 6.7262621e-39
0.048239987 -0.026639983 0.75600004 6.9110134e-39
0.049811415 -0.026710466 0.75800008 6.5440344e-39
-0.026640015 -0.02519998 0.75600004 8.9091768e-39
-0.025166672 -0.025166661 0.75500005 9.2758055e-39
-0.023728563 -0.025166646 0.75500005 9.6431391e-39
-0.022231402 -0.025100008 0.75300002 1.0194144e-38
-0.020769514 -0.025066659 0.75200009 1.0746987e-38
-0.019285714 -0.024999991 0.75000006 1.1298038e-38
-0.017809538 -0.024933323 0.74800009 1.1762582e-38
-0.016362857 -0.024899982 0.74700004 1.1939064e-38
-0.014900013 -0.024833307 0.745 1.2126332e-38
-0.013480959 -0.024833322 0.745 1.2674844e-38
-0.012029522 -0.024766639 0.74300003 1.3252081e-38
-0.01059999 -0.024733327 0.74200004 1.3543408e-38
-0.0091619333 -0.02466666 0.73999995 1.3701159e-38
-0.0077524018 -0.024666667 0.73999995 1.3500178e-38
-0.0063428977 -0.02466666 0.73999995 1.3316528e-38
-0.0049266773 -0.024633311 0.73899996 1.3683893e-38
-0.0035190575 -0.024633326 0.73900002 1.395941e-38
-0.0021114305 -0.024633333 0.73900002 1.4326763e-38
-0.000700948 -0.024533324 0.73600006 1.4695536e-38
0.00070093834 -0.024533309 0.73600006 1.497355e-38
0.0021028582 -0.024533309 0.73600006 1.515578e-38
0.0035047585 -0.024533309 0.73600006 1.5339088e-38
0.0048933225 -0.024466641 0.73399997 1.5430192e-38
0.0062914202 -0.024466649 0.73399997 1.5245432e-38
0.00768953 -0.024466649 0.73400003 1.5061756e-38
0.0090876073 -0.024466649 0.73399997 1.5705316e-38
0.010485719 -0.024466641 0.73400003 1.6367197e-38
0.011883794 -0.024466641 0.73399997 1.4002094e-38
0.013281891 -0.024466641 0.73399997 1.1594258e-38
0.014680004 -0.024466634 0.73400003 6.2451753e-39
0.016121915 -0.024533324 0.73600012 9.187165e-40
0.017523799 -0.024533324 0.73600006 4.5921349e-39
0.018925698 -0.024533309 0.73600006 8.1902882e-39
0.020355236 -0.024566658 0.73700005 1.428486e-38
0.021759039 -0.024566658 0.73700005 2.0275064e-38
0.023162862 -0.024566673 0.73700005 2.0745812e-38
0.024566667 -0.024566643 0.73700005 2.1111649e-38
0.02597047 -0.02456665 0.73699999 1.677881e-38
0.027374297 -0.024566665 0.73700005 1.2420123e-38
0.028778085 -0.02456665 0.73700005 6.3370094e-39
0.030263793 -0.024633318 0.73899996 1.8729055e-40
0.031671427 -0.024633333 0.73900002 4.048717e-39
0.033079039 -0.024633326 0.73900002 7.8340964e-39
0.034533314 -0.024666645 0.73999995 1.1249265e-38
0.036040008 -0.024733327 0.74200004 1.4540625e-38
0.037453346 -0.02473332 0.74200004 1.3697594e-38
0.038919043 -0.024766661 0.74300003 1.2783918e-38
0.040551439 -0.024899982 0.74700004 1.242305e-38
0.042030476 -0.024933346 0.74800003 1.2054213e-38
0.043571424 -0.025000006 0.75000006 9.10609e-39
0.045120012 -0.025066644 0.75200003 6.1720135e-39
0.046799991 -0.02519998 0.75600004 6.5425785e-39
0.048367608 -0.025266662 0.75800002 6.8191667e-39
0.04981143 -0.025266662 0.75800002 6.7273383e-39
-0.028154286 -0.023822844 0.75800002 8.6343709e-39
-0.026640013 -0.023759976 0.75600004 9.0931883e-39
-0.0252 -0.023759954 0.75600004 9.5520042e-39
-0.023728551 -0.023728572 0.75500005 9.9189819e-39
-0.022231417 -0.023665696 0.75300002 1.0469629e-38
-0.02076952 -0.023634277 0.75200003 1.0928801e-38
-0.019285725 -0.023571417 0.75000006 1.138833e-38
-0.017809549 -0.023508549 0.74800003 1.1755309e-38
-0.016384782 -0.023508549 0.74800003 1.1938975e-38
-0.014900002 -0.023414277 0.74500006 1.2214481e-38
-0.013480947 -0.023414269 0.74500006 1.2493575e-38
-0.012029539 -0.023351423 0.74300003 1.2869976e-38
-0.010599997 -0.023320012 0.74200004 1.3055172e-38
-0.0091866553 -0.023320004 0.74200004 1.3224763e-38
-0.0077523878 -0.023257129 0.73999995 1.3316507e-38
-0.0063428837 -0.023257136 0.73999995 1.3408357e-38
-0.0049266815 -0.023225702 0.73900002 1.3775713e-38
-0.0035190547 -0.023225695 0.73899996 1.4051237e-38
-0.0021114547 -0.023225695 0.73899996 1.4418956e-38
-0.00070095545 -0.02313143 0.73600006 1.4787014e-38
0.00070096442 -0.023131415 0.73600006 1.4972119e-38
0.0021028498 -0.023131415 0.73600006 1.5155788e-38
0.0035047696 -0.02313143 0.73600012 1.524798e-38
0.0049066702 -0.023131415 0.73600006 1.533944e-38
0.0062914323 -0.023068555 0.73400003 1.5062482e-38
0.0076895095 -0.023068555 0.73399997 1.4785888e-38
0.0090876063 -0.023068547 0.73399997 1.5432311e-38
0.010485717 -0.023068562 0.73400003 1.617634e-38
0.011883793 -0.023068547 0.73399997 1.3899841e-38
0.013281906 -0.023068555 0.73399997 1.1690393e-38
0.014680003 -0.02306857 0.73400003 6.4356636e-39
0.016121907 -0.023131415 0.73600006 1.1023875e-39
0.017523808 -0.0231314 0.73600006 4.3209332e-39
0.018925725 -0.023131415 0.73600006 7.4556715e-39
0.020355232 -0.023162849 0.73700005 1.3734699e-38
0.021759057 -0.023162849 0.73700005 1.9921773e-38
0.023162859 -0.023162849 0.73700005 2.0289129e-38
0.024566665 -0.023162857 0.73700005 2.0752181e-38
0.025970489 -0.023162849 0.73700005 1.4558235e-38
0.027374281 -0.023162857 0.73700005 8.3574688e-39
0.02885619 -0.023225702 0.73900002 4.2258692e-39
0.030263802 -0.02322571 0.73900002 1.879912e-40
0.031671416 -0.023225717 0.73899996 3.6824176e-39
0.033123791 -0.023257129 0.74000001 7.1826061e-39
0.034533322 -0.023257136 0.73999995 1.0776424e-38
0.035942841 -0.023257129 0.73999995 1.4357655e-38
0.037453342 -0.023319989 0.74200004 1.370369e-38
0.039128568 -0.023477145 0.74700004 1.3151979e-38
0.040551428 -0.02347713 0.74700004 1.2423413e-38
0.042142846 -0.023571417 0.75 1.1784093e-38
0.043687649 -0.023634277 0.75200009 9.0196425e-39
0.045180015 -0.023665711 0.75300002 6.2638462e-39
0.046799995 -0.023759983 0.75599998 6.5422071e-39
0.048367605 -0.023822844 0.75800002 6.8198744e-39
0.049811412 -0.023822844 0.75800002 6.8188052e-39
-0.028154286 -0.022379056 0.75800008 8.7254792e-39
-0.026640009 -0.02231998 0.75600004 9.2764893e-39
-0.025199996 -0.022319995 0.75600004 9.7356654e-39
-0.023728566 -0.022290476 0.75500005 1.0194488e-38
-0.022231413 -0.022231407 0.75300002 1.0653313e-38
-0.020769503 -0.022201888 0.75200009 1.1112476e-38
-0.019285737 -0.022142828 0.75 1.1479806e-38
-0.017809542 -0.022083797 0.74800003 1.1755311e-38
-0.016362848 -0.022054277 0.74700004 1.2030814e-38
-0.014900012 -0.021995202 0.745 1.2214487e-38
-0.013480957 -0.021995217 0.745 1.2398158e-38
-0.012029528 -0.021936178 0.74300003 1.2493265e-38
-0.010614282 -0.021936171 0.74300003 1.2673751e-38
-0.0091866618 -0.021906674 0.74200004 1.2765549e-38
-0.0077733211 -0.021906666 0.74200004 1.3132851e-38
-0.0063428706 -0.021847613 0.74000001 1.3500202e-38
-0.0049333661 -0.021847606 0.74000001 1.3867554e-38
-0.0035190585 -0.021818087 0.73900002 1.4143074e-38
-0.0021114314 -0.021818087 0.73900002 1.451043e-38
-0.00070189609 -0.021759048 0.73700005 1.4878853e-38
0.00070095604 -0.021729514 0.73600006 1.5063605e-38
0.0021028554 -0.021729521 0.73600006 1.5156511e-38
0.0035047631 -0.021729514 0.73600006 1.5249778e-38
0.0049066637 -0.021729507 0.73600006 1.5247977e-38
0.0063085826 -0.021729514 0.73600006 1.4878834e-38
0.0076895067 -0.021670453 0.73399997 1.4418925e-38
0.0090876194 -0.021670468 0.73399997 1.5153238e-38
0.010485714 -0.021670476 0.73400003 1.5910536e-38
0.011916175 -0.021729507 0.73600006 1.3914203e-38
0.013318095 -0.021729521 0.73600006 1.17826e-38
0.014719996 -0.021729507 0.73600006 6.5206972e-39
0.0161219 -0.021729521 0.73600006 1.2860655e-39
0.017523801 -0.021729507 0.73600006 4.041122e-39
0.018951423 -0.021759041 0.73700005 6.7223749e-39
0.020355226 -0.021759041 0.73699999 1.318431e-38
0.02175905 -0.021759041 0.73700005 1.9538589e-38
0.023162857 -0.021759041 0.73700005 1.9919975e-38
0.024633341 -0.021818087 0.73900002 2.0266051e-38
0.026040951 -0.021818079 0.73900002 1.2344062e-38
0.027448567 -0.021818064 0.73899996 4.3259947e-39
0.028856179 -0.021818072 0.73899996 2.204412e-39
0.030304732 -0.021847598 0.73999995 9.4355031e-41
0.031714264 -0.021847606 0.73999995 3.3100393e-39
0.033123802 -0.021847606 0.74000001 6.539036e-39
0.034673329 -0.021936186 0.74300003 1.0315816e-38
0.03608856 -0.021936163 0.74300003 1.4076051e-38
0.037503805 -0.021936178 0.74300003 1.3791219e-38
0.039128587 -0.02205427 0.74700004 1.3522555e-38
0.040605713 -0.022083797 0.74800003 1.251849e-38
0.042142853 -0.02214285 0.75000006 1.141388e-38
0.043687638 -0.022201911 0.75200003 8.8323702e-39
0.045300007 -0.022290468 0.755 6.2642049e-39
0.046738099 -0.022290468 0.755 6.5425827e-39
0.048239999 -0.022319987 0.75599998 6.818815e-39
0.04981143 -0.022379041 0.75800008 6.8184647e-39
0.051255219 -0.022379033 0.75800002 6.8173913e-39
-0.028154301 -0.02093523 0.75800002 8.8173034e-39
-0.026640007 -0.020879976 0.75600004 9.368315e-39
-0.025199996 -0.020879984 0.75599998 9.8271324e-39
-0.023728574 -0.020852372 0.755 1.0285967e-38
-0.022231428 -0.020797133 0.75300002 1.0561488e-38
-0.020769509 -0.020769522 0.75200003 1.0836975e-38
-0.019285752 -0.020714261 0.75 1.1204298e-38
-0.017809534 -0.020659022 0.74800003 1.1479806e-38
-0.016362879 -0.020631403 0.74700004 1.1847148e-38
-0.014900001 -0.020576172 0.74500006 1.2122655e-38
-0.013480966 -0.020576172 0.745 1.2214492e-38
-0.012029544 -0.020520926 0.74300003 1.2398161e-38
-0.010614299 -0.02052094 0.74300003 1.2489992e-38
-0.0091866693 -0.020493336 0.74200004 1.2673677e-38
-0.0077733276 -0.020493343 0.74200004 1.3132867e-38
-0.0063428567 -0.02043809 0.74000001 1.3500213e-38
-0.0049333526 -0.020438097 0.74000001 1.3775722e-38
-0.0035190547 -0.020410463 0.73899996 1.4143076e-38
-0.0021114342 -0.020410463 0.73900002 1.4510786e-38
-0.00070190075 -0.020355225 0.73700005 1.4970334e-38
0.00070094952 -0.020327605 0.73600006 1.5063255e-38
0.0021028488 -0.020327613 0.73600006 1.515616e-38
0.0035047678 -0.020327605 0.73600006 1.5156153e-38
0.0049066534 -0.020327613 0.73600006 1.5156156e-38
0.0063085742 -0.020327605 0.73600006 1.4971051e-38
0.0077104745 -0.020327598 0.73600006 1.4694813e-38
0.0091123804 -0.020327605 0.73600006 1.5344822e-38
0.010514281 -0.020327598 0.73600006 1.6010998e-38
0.0119162 -0.020327605 0.73600012 1.5104848e-38
0.013318087 -0.020327598 0.73600006 1.4270063e-38
0.014720006 -0.020327605 0.73600012 9.5656305e-39
0.016121905 -0.020327613 0.73600006 4.7758213e-39
0.017547615 -0.020355225 0.73700005 5.2360596e-39
0.018951418 -0.020355232 0.73700005 5.6985063e-39
0.020355241 -0.020355232 0.73700005 1.1146973e-38
0.021759048 -0.020355217 0.73700005 1.6587241e-38
0.023225717 -0.020410463 0.73899996 1.6217837e-38
0.024666639 -0.02043809 0.73999995 1.5925698e-38
0.026076181 -0.020438097 0.74000001 1.1957987e-38
0.027485712 -0.020438083 0.74000001 7.9900483e-39
0.028895231 -0.02043809 0.74000001 7.1771607e-39
0.030304745 -0.02043809 0.73999995 6.2462501e-39
0.03180002 -0.020493343 0.74200004 8.0940807e-39
0.033213347 -0.020493343 0.74200004 9.9394548e-39
0.034673322 -0.020520926 0.74300003 1.1874153e-38
0.036088552 -0.020520933 0.74300003 1.3798753e-38
0.037503801 -0.020520933 0.74300003 1.3796599e-38
0.03912859 -0.020631418 0.74700004 1.3801655e-38
0.040605709 -0.020659037 0.74800003 1.2520295e-38
0.042142857 -0.020714261 0.75000006 1.1327065e-38
0.043745734 -0.020797148 0.75300002 8.8370183e-39
0.045300007 -0.020852365 0.75500005 6.3560418e-39
0.046799988 -0.020879984 0.75599998 6.5418806e-39
0.048239999 -0.020879984 0.75599998 6.8181144e-39
0.049679998 -0.020879984 0.75599998 6.6340945e-39
-0.029676225 -0.019542843 0.75999999 8.5432291e-39
-0.028154293 -0.019491412 0.75800002 9.0006073e-39
-0.026710499 -0.019491419 0.75800002 9.3679493e-39
-0.025200022 -0.01943998 0.75600004 9.9186049e-39
-0.023760008 -0.019439988 0.75600004 1.0377791e-38
-0.022290481 -0.019414268 0.755 1.0469636e-38
-0.020769512 -0.019337125 0.75200003 1.0561459e-38
-0.019285714 -0.019285709 0.75000006 1.0928788e-38
-0.017857157 -0.019285709 0.75000006 1.1204295e-38
-0.016362861 -0.019208565 0.74700004 1.1663472e-38
-0.01490001 -0.019157141 0.745 1.2030816e-38
-0.013480955 -0.019157119 0.74500006 1.2122653e-38
-0.012029534 -0.019105695 0.74300003 1.2214492e-38
-0.010614288 -0.019105703 0.74300003 1.2398169e-38
-0.0091866758 -0.019079991 0.74200004 1.258184e-38
-0.0077733351 -0.019079998 0.74200004 1.3041017e-38
-0.0063428911 -0.019028559 0.73999995 1.3500203e-38
-0.0049333391 -0.019028559 0.74000001 1.3775718e-38
-0.0035190585 -0.01900284 0.73900002 1.4051232e-38
-0.0021114314 -0.019002847 0.73899996 1.4602253e-38
-0.00070190447 -0.018951416 0.73700005 1.5061799e-38
0.00070192089 -0.018951431 0.73700005 1.5062168e-38
0.0021028609 -0.018925697 0.73600012 1.5062524e-38
0.0035047613 -0.018925697 0.73600006 1.5062161e-38
0.0049066618 -0.018925704 0.73600006 1.5063607e-38
0.0063085677 -0.018925697 0.73600006 1.506254e-38
0.007710468 -0.018925704 0.73600006 1.4969964e-38
0.009112387 -0.018925697 0.73600006 1.5520593e-38
0.010514274 -0.018925704 0.73600006 1.6010648e-38
0.011916193 -0.018925697 0.73600006 1.640815e-38
0.013318093 -0.018925689 0.73600006 1.674855e-38
0.014719998 -0.018925697 0.73600006 1.2511886e-38
0.016121898 -0.018925697 0.73600006 8.2709428e-39
0.017547609 -0.018951409 0.73700005 6.5206804e-39
0.018951437 -0.018951416 0.73700005 4.6918836e-39
0.02035524 -0.018951423 0.73700005 9.1183024e-39
0.021759046 -0.018951416 0.73699999 1.3536875e-38
0.023225712 -0.019002862 0.73900002 1.2529619e-38
0.024666643 -0.019028552 0.73999995 1.1501765e-38
0.026076173 -0.019028559 0.73999995 1.1571991e-38
0.027485693 -0.019028559 0.73999995 1.1692238e-38
0.028895227 -0.019028567 0.74000001 1.2084044e-38
0.03038667 -0.019079991 0.74200004 1.2434482e-38
0.031800009 -0.019079991 0.74200004 1.2880343e-38
0.03321334 -0.019079998 0.74200004 1.3260253e-38
0.034673341 -0.019105703 0.74300003 1.3441786e-38
0.036088552 -0.019105695 0.74300003 1.3522872e-38
0.037503798 -0.019105703 0.74300003 1.3794088e-38
0.039128575 -0.019208565 0.74700004 1.3986391e-38
0.040551439 -0.01920855 0.74700004 1.2617492e-38
0.042030465 -0.019234285 0.74800003 1.1233069e-38
0.043745719 -0.019362852 0.75300002 8.832359e-39
0.045299999 -0.019414268 0.75500005 6.3556817e-39
0.046799988 -0.019439973 0.75599998 6.5418764e-39
0.048239984 -0.019439973 0.75599998 6.725553e-39
0.049679987 -0.019439988 0.75600004 6.3575006e-39
-0.029676216 -0.018095233 0.76000005 9.1885859e-39
-0.028228587 -0.01809524 0.76000005 9.6502633e-39
-0.026710488 -0.018047594 0.75800002 1.0194104e-38
-0.025266668 -0.018047601 0.75800002 1.0565394e-38
-0.023760006 -0.017999969 0.75600004 1.1020628e-38
-0.022290468 -0.017976172 0.755 1.1396582e-38
-0.020797146 -0.017928578 0.75300002 1.1663474e-38
-0.019337131 -0.017904744 0.75200003 1.2122646e-38
-0.01785717 -0.017857134 0.75000006 1.2581823e-38
-0.01636284 -0.017785706 0.74700004 1.2958133e-38
-0.014899999 -0.017738082 0.74500006 1.3316508e-38
-0.013480965 -0.017738067 0.745 1.3135707e-38
-0.012029551 -0.017690457 0.74300003 1.2949181e-38
-0.010614306 -0.017690457 0.74300003 1.3231516e-38
-0.0091866544 -0.017666653 0.74200004 1.3500193e-38
-0.0077733416 -0.017666653 0.74200004 1.3500179e-38
-0.0063428772 -0.017619044 0.73999995 1.3500193e-38
-0.0049333461 -0.017619044 0.73999995 1.3684595e-38
-0.0035238417 -0.017619029 0.73999995 1.3775718e-38
-0.0021114352 -0.017595224 0.73900002 1.4603318e-38
-0.00070188771 -0.017547607 0.73700005 1.5428771e-38
0.00070190133 -0.017547607 0.73700005 1.5614963e-38
0.0021057061 -0.0175476 0.73700005 1.5796482e-38
0.0035095306 -0.017547615 0.73700005 1.5988762e-38
0.0049133366 -0.017547615 0.73700005 1.6167072e-38
0.0063085742 -0.017523788 0.73600006 1.5528188e-38
0.0077104801 -0.017523803 0.73600012 1.4877771e-38
0.0091123804 -0.017523795 0.73600006 1.5528476e-38
0.010514281 -0.017523795 0.73600006 1.6194687e-38
0.011916187 -0.017523788 0.73600006 1.6113657e-38
0.013318087 -0.017523795 0.73600006 1.5905536e-38
0.014720005 -0.017523795 0.73600006 1.2316361e-38
0.016121892 -0.017523795 0.73600006 8.6328968e-39
0.017547628 -0.017547615 0.73700005 8.272012e-39
0.018951431 -0.017547607 0.73700005 7.9911259e-39
0.020355236 -0.0175476 0.73700005 1.0676955e-38
0.021759061 -0.017547607 0.73700005 1.3340584e-38
0.023162847 -0.017547607 0.73700005 1.2324693e-38
0.024633316 -0.017595224 0.73899996 1.1306211e-38
0.026076173 -0.017619036 0.74000001 1.2796345e-38
0.027485689 -0.017619044 0.73999995 1.4296347e-38
0.028895224 -0.017619029 0.73999995 1.4481953e-38
0.030386677 -0.017666653 0.74200004 1.4761319e-38
0.031800006 -0.01766666 0.74200004 1.4841945e-38
0.033258092 -0.017690465 0.74300003 1.5034198e-38
0.034673337 -0.017690465 0.74300003 1.4181821e-38
0.036088571 -0.017690472 0.74300003 1.3424207e-38
0.037604749 -0.017738082 0.74500006 1.3704405e-38
0.039023802 -0.017738082 0.74500006 1.3987816e-38
0.040605702 -0.01780951 0.74800003 1.2522407e-38
0.042030469 -0.017809518 0.74800003 1.1144455e-38
0.043745726 -0.017928571 0.75300002 8.561879e-39
0.045300018 -0.01797618 0.75500005 5.8965042e-39
0.046923809 -0.018047601 0.75800002 6.2656468e-39
0.04836762 -0.018047616 0.75800008 6.6340692e-39
0.049811441 -0.018047608 0.75800008 6.3589243e-39
-0.029676205 -0.016647629 0.76000005 9.847936e-39
-0.028228594 -0.016647607 0.76000005 1.0400737e-38
-0.026710486 -0.016603813 0.75800008 1.094888e-38
-0.025266683 -0.016603783 0.75800002 1.1311557e-38
-0.023760002 -0.016559981 0.75599998 1.1687528e-38
-0.022290483 -0.016538076 0.75500005 1.2248604e-38
-0.020797133 -0.016494274 0.75300002 1.2785606e-38
-0.019337116 -0.016472377 0.75200009 1.3408701e-38
-0.017857153 -0.016428553 0.75 1.3981978e-38
-0.01638479 -0.016384743 0.74800003 1.4362616e-38
-0.014940007 -0.016362838 0.74700004 1.4629136e-38
-0.013480955 -0.016319036 0.74500006 1.4154873e-38
-0.012061899 -0.016319029 0.74500006 1.3613557e-38
-0.010614273 -0.016275227 0.74300003 1.4078846e-38
-0.0091990558 -0.016275227 0.74300003 1.443828e-38
-0.0077733481 -0.016253322 0.74200004 1.3959357e-38
-0.0063600074 -0.016253322 0.74200004 1.3510948e-38
-0.0049333596 -0.016209505 0.74000001 1.3502705e-38
-0.0035238278 -0.016209505 0.73999995 1.3511316e-38
-0.0021114314 -0.016187593 0.73899996 1.460617e-38
-0.0007019054 -0.016143814 0.73700005 1.5719336e-38
0.00070189853 -0.016143791 0.73700005 1.6171719e-38
0.0021057229 -0.016143799 0.73700005 1.6556641e-38
0.0035095259 -0.016143799 0.73700005 1.6928651e-38
0.004913331 -0.016143799 0.73699999 1.7295989e-38
0.0063171424 -0.016143799 0.73700005 1.6096383e-38
0.0077104867 -0.016121887 0.73600006 1.479632e-38
0.0091123721 -0.016121887 0.73600006 1.5612421e-38
0.010514293 -0.016121894 0.73600006 1.6376939e-38
0.01193238 -0.016143799 0.73699999 1.5762132e-38
0.013318096 -0.016121902 0.73600012 1.5085489e-38
0.014719997 -0.016121879 0.73600006 1.203081e-38
0.016121916 -0.016121894 0.73600012 9.0135329e-39
0.017547622 -0.016143799 0.73700005 1.0127059e-38
0.018951427 -0.016143806 0.73700005 1.1231976e-38
0.020355253 -0.016143791 0.73700005 1.2257613e-38
0.021759043 -0.016143799 0.73700005 1.3164477e-38
0.023225712 -0.016187601 0.73900002 1.2122707e-38
0.024666652 -0.01620952 0.74000001 1.1136196e-38
0.026076172 -0.016209513 0.74000001 1.4011439e-38
0.027485702 -0.01620952 0.74000001 1.6865632e-38
0.028973343 -0.016253337 0.74200004 1.6969423e-38
0.030386683 -0.016253337 0.74200004 1.6966143e-38
0.031842858 -0.016275212 0.74300003 1.6876048e-38
0.033258092 -0.016275227 0.74300003 1.6771938e-38
0.034673333 -0.016275227 0.74300003 1.5010126e-38
0.036185704 -0.016319029 0.74500006 1.3248065e-38
0.03760476 -0.016319029 0.74500006 1.3611852e-38
0.039128579 -0.016362838 0.74700004 1.3894906e-38
0.040605694 -0.016384751 0.74800003 1.252277e-38
0.042142849 -0.016428553 0.75 1.1047955e-38
0.043745708 -0.016494274 0.75300002 8.2817048e-39
0.045359995 -0.016559973 0.75599998 5.4369638e-39
0.046923805 -0.016603805 0.75800002 5.9901376e-39
0.048495237 -0.016647615 0.76000005 6.4507472e-39
0.049942844 -0.016647607 0.75999999 6.451822e-39
0.051458072 -0.016669497 0.76100004 6.3599865e-39
-0.029715264 -0.015219979 0.76100004 1.0323615e-38
-0.028265748 -0.015219979 0.76099998 1.1333088e-38
-0.026780954 -0.015200004 0.76000005 1.2347939e-38
-0.025333343 -0.015199982 0.76000005 1.2251795e-38
-0.023822861 -0.015159987 0.75800008 1.2168963e-38
-0.022320015 -0.01511997 0.75600004 1.2257963e-38
-0.020797128 -0.015059993 0.75300002 1.2443749e-38
-0.01933712 -0.01503998 0.75200003 1.3161893e-38
-0.017857166 -0.014999978 0.75 1.3829898e-38
-0.01638478 -0.014959984 0.74800003 1.493161e-38
-0.014939989 -0.014939994 0.74700004 1.594822e-38
-0.013480963 -0.014899984 0.745 1.5471785e-38
-0.012061909 -0.014899984 0.745 1.5016206e-38
-0.010614291 -0.014859982 0.74300003 1.53832e-38
-0.0091990456 -0.014859982 0.74300003 1.5755547e-38
-0.0077733272 -0.014839999 0.74200004 1.537312e-38
-0.0063600144 -0.014839992 0.74200004 1.510192e-38
-0.0049333456 -0.014799997 0.74000001 1.5558227e-38
-0.0035238147 -0.01479999 0.73999995 1.6018122e-38
-0.0021143111 -0.014799997 0.73999995 1.6293269e-38
-0.00070191006 -0.014739998 0.73700005 1.6579209e-38
0.00070191437 -0.01473999 0.73700011 1.7124872e-38
0.0021057192 -0.01473999 0.73700005 1.7788894e-38
0.003509524 -0.014739983 0.73700005 1.814871e-38
0.0049133338 -0.014739998 0.73700005 1.8613958e-38
0.0063171387 -0.014739998 0.73700005 1.6662425e-38
0.0077104783 -0.014719985 0.73600006 1.4710208e-38
0.0091123786 -0.014719985 0.73600006 1.544059e-38
0.010528573 -0.014739983 0.73700005 1.6194002e-38
0.011932395 -0.014739998 0.73700005 1.4087958e-38
0.013318105 -0.014719985 0.73600006 1.2051346e-38
0.01471999 -0.014719985 0.73600006 1.1491994e-38
0.016143816 -0.01473999 0.73700005 1.1048643e-38
0.017547619 -0.014739983 0.73700005 1.2064614e-38
0.018951431 -0.014739998 0.73700005 1.3174215e-38
0.020355234 -0.01473999 0.73700005 1.4378162e-38
0.021759039 -0.014739983 0.73700005 1.5579495e-38
0.023225699 -0.014779992 0.73899996 1.2884277e-38
0.024666645 -0.01479999 0.73999995 1.0226116e-38
0.026076164 -0.01479999 0.73999995 1.3360406e-38
0.027560012 -0.014839992 0.74200004 1.6583353e-38
0.028973339 -0.014839992 0.74200004 1.640695e-38
0.030386679 -0.014839999 0.74200004 1.6318685e-38
0.031842843 -0.014859982 0.74300003 1.631795e-38
0.033258088 -0.014859982 0.74300003 1.6309931e-38
0.034766655 -0.014899984 0.745 1.4729948e-38
0.0361857 -0.014899977 0.745 1.3150485e-38
0.037705723 -0.014939986 0.74700004 1.3521809e-38
0.039180961 -0.014959998 0.74800003 1.3895626e-38
0.040605705 -0.014959991 0.74800003 1.2520263e-38
0.042142849 -0.014999971 0.75 1.1048314e-38
0.043861918 -0.015099995 0.75500005 8.1927335e-39
0.045359984 -0.01511997 0.75599998 5.4366008e-39
0.046923801 -0.015159987 0.75800002 5.8068211e-39
0.048367608 -0.015159987 0.75800002 6.2674265e-39
0.049942851 -0.015199989 0.76000005 6.2684943e-39
0.051458083 -0.015219972 0.76100004 6.269216e-39
-0.029793326 -0.013806663 0.76300001 1.0781728e-38
-0.028265748 -0.013770454 0.76100004 1.2259719e-38
-0.026780965 -0.013752371 0.76000005 1.3636517e-38
-0.025333334 -0.013752379 0.76000005 1.3086564e-38
-0.023822879 -0.013716176 0.75800002 1.2535572e-38
-0.022320015 -0.013679974 0.75600004 1.2353358e-38
-0.020797143 -0.013625696 0.75300002 1.2066707e-38
-0.019337131 -0.013607614 0.75200009 1.2873114e-38
-0.017857159 -0.013571419 0.75000006 1.3634022e-38
-0.016384773 -0.013535224 0.74800003 1.5494087e-38
-0.014939998 -0.013517134 0.74700004 1.7228543e-38
-0.013517154 -0.013517126 0.74700004 1.6767198e-38
-0.012061918 -0.013480932 0.745 1.6309085e-38
-0.010614281 -0.013444744 0.74300003 1.6681437e-38
-0.0091990624 -0.013444752 0.74300003 1.6952629e-38
-0.0077733342 -0.013426661 0.74200004 1.6767872e-38
-0.006359993 -0.013426661 0.74200004 1.6585657e-38
-0.004933353 -0.013390452 0.73999995 1.76095e-38
-0.0035238287 -0.013390467 0.74000001 1.8519248e-38
-0.0021142962 -0.013390467 0.74000001 1.7969315e-38
-0.00070191378 -0.013336182 0.73699999 1.7321436e-38
0.00070191064 -0.013336174 0.73700005 1.8143643e-38
0.0021057155 -0.013336174 0.73700005 1.8887684e-38
0.0035095399 -0.013336182 0.73700005 1.944662e-38
0.0049133319 -0.013336182 0.73700005 1.9900734e-38
0.0063171349 -0.013336182 0.73699999 1.7321048e-38
0.0077209594 -0.013336182 0.73700005 1.4620157e-38
0.0091123702 -0.013318069 0.73600006 1.533691e-38
0.010528589 -0.013336182 0.73700005 1.6003828e-38
0.011932379 -0.013336182 0.73700005 1.2527744e-38
0.013336184 -0.013336182 0.73700005 8.9246261e-39
0.014740008 -0.013336182 0.73700005 1.0928854e-38
0.016143812 -0.013336174 0.73700005 1.2979394e-38
0.017547637 -0.013336189 0.73700005 1.4092208e-38
0.018951425 -0.013336182 0.73700005 1.5110668e-38
0.02035523 -0.013336174 0.73700005 1.6501492e-38
0.021818096 -0.013372362 0.73900002 1.786499e-38
0.023225712 -0.013372369 0.73900002 1.3608588e-38
0.024666646 -0.013390474 0.73999995 9.3024092e-39
0.026076166 -0.013390467 0.73999995 1.280476e-38
0.027559999 -0.013426676 0.74200004 1.6214551e-38
0.028973343 -0.013426661 0.74200004 1.5939083e-38
0.03038667 -0.013426661 0.74200004 1.5670038e-38
0.031842835 -0.013444744 0.74300003 1.5766543e-38
0.033258084 -0.013444744 0.74300003 1.5844629e-38
0.03476667 -0.013480939 0.74500006 1.4448685e-38
0.036185708 -0.013480932 0.74500006 1.2970393e-38
0.037705727 -0.013517126 0.74700004 1.3428898e-38
0.039180953 -0.013535239 0.74800003 1.3894554e-38
0.040605702 -0.013535231 0.74800003 1.2522423e-38
0.042030483 -0.013535239 0.74800003 1.1046524e-38
0.0438619 -0.013661891 0.755 8.1884287e-39
0.045359988 -0.013679974 0.75599998 5.3447681e-39
0.04692382 -0.013716169 0.75800002 5.7164275e-39
0.048495233 -0.013752371 0.76000005 6.0848527e-39
0.049942862 -0.013752379 0.76000005 6.0859373e-39
0.051593356 -0.013806663 0.76300001 6.0855702e-39
-0.029793316 -0.012353316 0.76300001 1.0873217e-38
-0.02826575 -0.012320936 0.76100004 1.179698e-38
-0.026780954 -0.012304768 0.76000005 1.2718534e-38
-0.025333347 -0.012304761 0.75999999 1.2442638e-38
-0.023822868 -0.012272365 0.75800002 1.2166063e-38
-0.022320012 -0.01223997 0.75600004 1.2810713e-38
-0.020797137 -0.012191415 0.75300002 1.3534626e-38
-0.019337138 -0.012175217 0.75200003 1.3153643e-38
-0.017857142 -0.012142844 0.75000006 1.2890362e-38
-0.016384766 -0.012110464 0.74800003 1.4282272e-38
-0.01494 -0.012094267 0.74700004 1.5652997e-38
-0.013480962 -0.012061879 0.745 1.5933892e-38
-0.012061908 -0.012061886 0.74500006 1.6220485e-38
-0.010614297 -0.012029506 0.74300003 1.6679269e-38
-0.0091990512 -0.012029506 0.74300003 1.7136293e-38
-0.0077733411 -0.012013331 0.74200004 1.6768948e-38
-0.0063599995 -0.012013331 0.74200004 1.6311963e-38
-0.004933367 -0.011980936 0.73999995 1.7607387e-38
-0.0035238352 -0.011980936 0.73999995 1.8897756e-38
-0.0021142832 -0.011980951 0.74000001 1.8159493e-38
-0.00070189702 -0.011932373 0.73700005 1.7511574e-38
0.00070190785 -0.011932366 0.73700005 1.7308484e-38
0.0021057322 -0.011932373 0.73700005 1.7232129e-38
0.0035095213 -0.011932373 0.73700005 1.8160223e-38
0.0049133264 -0.011932373 0.73700005 1.9078164e-38
0.0063171508 -0.011932373 0.73700005 1.6561959e-38
0.0077104764 -0.011916175 0.73600006 1.4143035e-38
0.0091123832 -0.011916183 0.73600006 1.5252961e-38
0.01052857 -0.011932373 0.73700005 1.6375069e-38
0.011932375 -0.011932366 0.73700005 1.3068983e-38
0.013336199 -0.01193238 0.73700005 9.8325694e-39
0.014740004 -0.011932366 0.73700005 1.2145386e-38
0.016143806 -0.011932358 0.73699999 1.4378146e-38
0.017547632 -0.011932373 0.73700005 1.5478747e-38
0.018951422 -0.011932366 0.73700005 1.6491086e-38
0.020355247 -0.01193238 0.73700005 1.7048552e-38
0.021818088 -0.011964746 0.73899996 1.7688506e-38
0.023225702 -0.011964746 0.73899996 1.3894527e-38
0.02466666 -0.011980943 0.74000001 1.0212903e-38
0.026076177 -0.011980951 0.74000001 1.3725655e-38
0.027560009 -0.012013331 0.74200004 1.7326596e-38
0.028973334 -0.012013331 0.74200004 1.6495756e-38
0.030386677 -0.012013324 0.74200004 1.575787e-38
0.031800006 -0.012013324 0.74200004 1.5757538e-38
0.03325808 -0.012029514 0.74300003 1.5658779e-38
0.034766655 -0.012061886 0.745 1.4541937e-38
0.036185697 -0.012061872 0.74500006 1.3424181e-38
0.037705712 -0.012094274 0.74700004 1.3704406e-38
0.039180942 -0.012110464 0.74800003 1.4078229e-38
0.040605709 -0.012110472 0.74800003 1.2518843e-38
0.04225526 -0.012175225 0.75200003 1.0956844e-38
0.043861914 -0.012223788 0.755 8.1923734e-39
0.045359991 -0.01223997 0.75599998 5.435889e-39
0.046923801 -0.012272373 0.75800002 5.8071924e-39
0.048495222 -0.012304753 0.75999999 6.2699811e-39
0.05000855 -0.012320936 0.76100004 6.1774505e-39
0.051593345 -0.012353316 0.76300001 6.1774309e-39
-0.029793339 -0.010899998 0.76300001 1.0870347e-38
-0.028340017 -0.010899983 0.76300001 1.1335978e-38
-0.026816206 -0.010871418 0.76100004 1.1705115e-38
-0.025366673 -0.01087141 0.76100004 1.1799463e-38
-0.023822887 -0.010828547 0.75800002 1.1798384e-38
-0.022320008 -0.010799982 0.75599998 1.3372857e-38
-0.020797132 -0.010757133 0.75300002 1.4911815e-38
-0.019337142 -0.010742836 0.75200003 1.3500199e-38
-0.017904727 -0.010742843 0.75200003 1.2152098e-38
-0.016384784 -0.010685697 0.74800003 1.3091992e-38
-0.014940009 -0.010671422 0.74700004 1.4001376e-38
-0.013480951 -0.010642834 0.74500006 1.5002597e-38
-0.012061917 -0.010642834 0.745 1.6031435e-38
-0.010614314 -0.010614268 0.74300003 1.6678582e-38
-0.009199068 -0.010614276 0.74300003 1.7322861e-38
-0.0077733467 -0.010599986 0.74200004 1.6676063e-38
-0.0063600061 -0.010599986 0.74200004 1.6038255e-38
-0.0049466649 -0.010600001 0.74200004 1.7702075e-38
-0.0035238212 -0.010571413 0.73999995 1.9264037e-38
-0.0021143176 -0.010571413 0.73999995 1.8442939e-38
-0.00070381275 -0.010557137 0.73900002 1.7590536e-38
0.00070380123 -0.010557123 0.73899996 1.6530786e-38
0.0021057136 -0.010528557 0.73700005 1.5475436e-38
0.0035190478 -0.010557137 0.73900002 1.688386e-38
0.0049133422 -0.010528564 0.73700005 1.8233373e-38
0.0063171471 -0.010528572 0.73700005 1.5889018e-38
0.0077209519 -0.010528564 0.73699999 1.3593132e-38
0.0091247633 -0.010528564 0.73700005 1.5156129e-38
0.010528566 -0.010528557 0.73700005 1.6647735e-38
0.011932391 -0.010528564 0.73700005 1.3724781e-38
0.013336196 -0.010528564 0.73700005 1.0773176e-38
0.01474 -0.010528564 0.73699999 1.3257801e-38
0.016143808 -0.010528564 0.73700005 1.5751008e-38
0.017547613 -0.010528557 0.73700005 1.6861302e-38
0.018951438 -0.010528572 0.73700011 1.7873275e-38
0.020355243 -0.010528564 0.73700005 1.7697126e-38
0.0218181 -0.01055713 0.73900002 1.7397923e-38
0.023225712 -0.010557123 0.73899996 1.4251462e-38
0.024666639 -0.010571413 0.73999995 1.1139492e-38
0.026076181 -0.010571435 0.74000001 1.4741558e-38
0.027560001 -0.010600001 0.74200004 1.8331764e-38
0.028973343 -0.010600001 0.74200004 1.7142938e-38
0.030386671 -0.010600001 0.74200004 1.584861e-38
0.031800013 -0.010600008 0.74200004 1.5662408e-38
0.033258099 -0.010614261 0.74300003 1.5472576e-38
0.034766667 -0.010642841 0.74500006 1.4728502e-38
0.036185686 -0.010642834 0.745 1.3888397e-38
0.037705716 -0.010671414 0.74700004 1.4070322e-38
0.039180949 -0.010685697 0.74800003 1.4167914e-38
0.040714275 -0.010714255 0.75 1.251812e-38
0.042311441 -0.010757141 0.75300002 1.0769944e-38
0.043861911 -0.010785699 0.75500005 8.0962387e-39
0.045359991 -0.010799967 0.75599998 5.4362505e-39
0.047047615 -0.010857128 0.75999999 5.8979531e-39
0.048495233 -0.010857135 0.76000005 6.3596487e-39
0.050008561 -0.01087141 0.76100004 6.2685391e-39
0.051593352 -0.010899991 0.76300001 6.1767008e-39
-0.029793331 -0.0094466582 0.76300001 1.0319694e-38
-0.028340006 -0.0094466582 0.76300001 1.078027e-38
-0.026780954 -0.009409517 0.76000005 1.1333827e-38
-0.025333324 -0.0094095245 0.76000005 1.1423542e-38
-0.023822857 -0.0093847513 0.75800002 1.1599308e-38
-0.022320006 -0.0093599856 0.75599998 1.3272065e-38
-0.020852389 -0.0093475953 0.755 1.4922593e-38
-0.019337127 -0.009310469 0.75200003 1.3519949e-38
-0.01790476 -0.009310469 0.75200003 1.2247528e-38
-0.016428562 -0.0092856959 0.75000006 1.3361035e-38
-0.014960027 -0.0092609376 0.74800003 1.4370138e-38
-0.013517127 -0.0092485622 0.7470001 1.5381393e-38
-0.012061906 -0.0092237964 0.74500006 1.640703e-38
-0.010614303 -0.0091990307 0.74300003 1.6682199e-38
-0.0091990568 -0.0091990381 0.74300003 1.7055634e-38
-0.0077733262 -0.0091866627 0.74200004 1.6497439e-38
-0.006360013 -0.0091866553 0.74200004 1.5850283e-38
-0.0049466724 -0.0091866553 0.74200004 1.6497792e-38
-0.0035238361 -0.0091619045 0.74000001 1.7237573e-38
-0.0021143046 -0.009161897 0.74000001 1.7518174e-38
-0.00070380251 -0.0091495141 0.73900002 1.7784292e-38
0.00070381054 -0.0091495141 0.73900002 1.6925784e-38
0.0021057099 -0.0091247633 0.73700005 1.6121893e-38
0.0035190375 -0.0091494992 0.73899996 1.7053547e-38
0.0049133403 -0.0091247484 0.73700005 1.7959326e-38
0.0063171443 -0.0091247559 0.73700005 1.5900897e-38
0.0077209547 -0.0091247559 0.73700005 1.395943e-38
0.0091247596 -0.0091247633 0.73700005 1.5344847e-38
0.010528564 -0.009124741 0.73700005 1.6650995e-38
0.011932389 -0.0091247559 0.73700005 1.501123e-38
0.013318086 -0.0091123581 0.73600006 1.3349244e-38
0.014740016 -0.0091247559 0.73700005 1.2152891e-38
0.016143808 -0.0091247484 0.73700005 1.106775e-38
0.017547611 -0.009124741 0.73699999 1.308887e-38
0.018951435 -0.0091247559 0.73700005 1.5024572e-38
0.02035524 -0.0091247559 0.73700005 1.3358959e-38
0.021818085 -0.0091494918 0.73899996 1.1597928e-38
0.023225719 -0.0091494992 0.73900002 9.751877e-39
0.024666643 -0.009161897 0.73999995 7.9234404e-39
0.026076173 -0.0091618896 0.73999995 1.1514014e-38
0.027485712 -0.0091619119 0.74000001 1.502461e-38
0.028973335 -0.0091866702 0.74200004 1.4380009e-38
0.030386679 -0.0091866702 0.74200004 1.3821395e-38
0.031800009 -0.0091866702 0.74200004 1.3079109e-38
0.033258095 -0.0091990307 0.74300003 1.2350505e-38
0.034766659 -0.0092237815 0.745 1.2980062e-38
0.036282856 -0.0092485547 0.74700004 1.3698284e-38
0.037705719 -0.0092485696 0.74700004 1.3887016e-38
0.039285704 -0.0092856959 0.75 1.4076796e-38
0.040877152 -0.0093228444 0.75300002 1.2334083e-38
0.042423815 -0.0093476102 0.75500005 1.0682412e-38
0.043861907 -0.0093476102 0.75500005 8.1016239e-39
0.045359991 -0.0093599707 0.75599998 5.529165e-39
0.046923816 -0.0093847513 0.75800008 5.9905061e-39
0.048495244 -0.009409517 0.76000005 6.3596347e-39
0.050008547 -0.0094218776 0.76100004 6.1766728e-39
0.051728584 -0.009471409 0.76500005 6.08521e-39
-0.029793324 -0.0079933256 0.76300001 9.7622074e-39
-0.028265743 -0.0079723671 0.76100004 1.0315353e-38
-0.026780946 -0.0079618916 0.76000005 1.0868534e-38
-0.025333364 -0.0079618841 0.76000005 1.1145492e-38
-0.023822874 -0.0079409406 0.75800002 1.142712e-38
-0.022320002 -0.0079199821 0.75599998 1.3193182e-38
-0.020852404 -0.0079095066 0.755 1.4822541e-38
-0.019362843 -0.0078885704 0.75300002 1.3593164e-38
-0.017904745 -0.0078780949 0.75200009 1.2334372e-38
-0.016428573 -0.0078571215 0.75000006 1.3550475e-38
-0.01496002 -0.0078361779 0.74800003 1.4737504e-38
-0.013517157 -0.007825695 0.74700004 1.5745884e-38
-0.012061915 -0.0078047365 0.745 1.6675355e-38
-0.010642861 -0.0078047365 0.745 1.6770775e-38
-0.0091990745 -0.0077837929 0.74300003 1.6772587e-38
-0.0077838288 -0.0077837855 0.74300003 1.6224103e-38
-0.0063685831 -0.0077837929 0.74300003 1.5665568e-38
-0.0049533374 -0.0077837929 0.74300003 1.5384335e-38
-0.0035333375 -0.0077733174 0.74200004 1.5117121e-38
-0.0021142897 -0.0077523813 0.74000001 1.6606979e-38
-0.00070477201 -0.0077523738 0.74000001 1.7955768e-38
0.00070379936 -0.0077418834 0.73899996 1.7266596e-38
0.0021114338 -0.0077418983 0.73900002 1.6666842e-38
0.0035190468 -0.0077418983 0.73900002 1.7157634e-38
0.0049133338 -0.0077209324 0.73700005 1.758447e-38
0.0063342741 -0.0077418908 0.73899996 1.5979805e-38
0.0077209491 -0.0077209473 0.73700005 1.4326754e-38
0.0091247531 -0.0077209398 0.73699999 1.5520602e-38
0.010528578 -0.0077209324 0.73700005 1.6656019e-38
0.011932383 -0.0077209324 0.73700005 1.6320273e-38
0.0133181 -0.0077104568 0.73600012 1.5834527e-38
0.014739998 -0.0077209473 0.73700005 1.1120045e-38
0.016143801 -0.0077209398 0.73700005 6.3589635e-39
0.017547626 -0.0077209398 0.73700005 9.3091942e-39
0.018951431 -0.0077209324 0.73700005 1.2154291e-38
0.020355234 -0.0077209398 0.73699999 9.0243411e-39
0.021818081 -0.0077418908 0.73900002 5.7989682e-39
0.023225708 -0.0077418908 0.73899996 5.2350311e-39
0.02466665 -0.0077523738 0.74000001 4.6926417e-39
0.026146675 -0.0077733323 0.74200004 8.1824059e-39
0.027560003 -0.0077733397 0.74200004 1.1697682e-38
0.028973347 -0.0077733248 0.74200004 1.1714602e-38
0.030386673 -0.0077733248 0.74200004 1.1701617e-38
0.031842846 -0.0077837929 0.74300003 1.0389663e-38
0.033347614 -0.0078047365 0.74500006 9.1183276e-39
0.034859996 -0.007825695 0.74700004 1.1326695e-38
0.03628286 -0.007825695 0.74700004 1.3521443e-38
0.037756179 -0.0078361705 0.74800003 1.3702625e-38
0.039390504 -0.0078780875 0.75200003 1.3893123e-38
0.04087716 -0.0078885779 0.75300002 1.2241889e-38
0.042311441 -0.007888563 0.75300002 1.0495513e-38
0.043861907 -0.007909514 0.75500005 8.0991128e-39
0.045359995 -0.0079199746 0.75599998 5.621362e-39
0.046923805 -0.0079409257 0.75800002 5.9919466e-39
0.048367616 -0.0079409331 0.75800002 6.3600047e-39
0.050008558 -0.0079723671 0.76100004 6.1774085e-39
0.051728588 -0.0080142617 0.76500005 5.9008328e-39
-0.028228585 -0.0065142661 0.75999999 9.6628175e-39
-0.026780955 -0.0065142736 0.76000005 1.021957e-38
-0.025333354 -0.006514281 0.76000005 1.0493283e-38
-0.023822865 -0.0064971223 0.75800002 1.0779968e-38
-0.02232 -0.0064799786 0.75599998 1.1792009e-38
-0.020852389 -0.0064714104 0.755 1.2806142e-38
-0.019362839 -0.006454289 0.75300002 1.2415837e-38
-0.017904749 -0.0064456984 0.75200003 1.2058538e-38
-0.016428586 -0.0064285696 0.75000006 1.2708917e-38
-0.014960011 -0.0064114183 0.74800003 1.3447166e-38
-0.013517139 -0.0064028502 0.74700004 1.4091068e-38
-0.012061904 -0.0063856989 0.74500006 1.483864e-38
-0.01064285 -0.0063856989 0.74500006 1.5014032e-38
-0.0091990428 -0.0063685551 0.74300003 1.520241e-38
-0.0077837976 -0.0063685551 0.74300003 1.5203169e-38
-0.0063685798 -0.0063685626 0.74300003 1.5203196e-38
-0.0049533546 -0.0063685551 0.74300003 1.4735434e-38
-0.0035381087 -0.0063685551 0.74300003 1.4269452e-38
-0.0021143251 -0.0063428432 0.73999995 1.5573096e-38
-0.00070477201 -0.0063428581 0.74000001 1.6950599e-38
0.00070474559 -0.0063428357 0.74000001 1.6654616e-38
0.0021114226 -0.0063342601 0.73899996 1.6396752e-38
0.0035190356 -0.0063342676 0.73899996 1.6588379e-38
0.0049266694 -0.006334275 0.73900002 1.6853394e-38
0.0063171424 -0.0063171238 0.73700005 1.5624289e-38
0.0077209463 -0.0063171312 0.73700005 1.4418571e-38
0.0091247717 -0.0063171387 0.73700005 1.5438786e-38
0.010528577 -0.0063171387 0.73700005 1.6478447e-38
0.01193238 -0.0063171163 0.73699999 1.6495002e-38
0.013336191 -0.0063171312 0.73700005 1.6578883e-38
0.014739995 -0.0063171312 0.73700005 1.0854168e-38
0.016143819 -0.0063171387 0.73700005 5.2349918e-39
0.017547622 -0.0063171238 0.73700005 7.7263954e-39
0.018951425 -0.0063171163 0.73699999 1.0208105e-38
0.020410458 -0.0063342601 0.73899996 1.0677324e-38
0.021818092 -0.0063342676 0.73900002 1.1113896e-38
0.023257112 -0.0063428357 0.73999995 7.5340994e-39
0.02473334 -0.0063600019 0.74200004 3.9492949e-39
0.026146667 -0.0063600019 0.74200004 6.8955725e-39
0.027560009 -0.0063600019 0.74200004 9.8480159e-39
0.028973335 -0.0063600093 0.74200004 1.1337906e-38
0.030427611 -0.0063685626 0.74300003 1.2808637e-38
0.031842846 -0.0063685551 0.74300003 1.1692549e-38
0.033347607 -0.0063856989 0.745 1.0670921e-38
0.03486 -0.0064028502 0.74700004 1.2055312e-38
0.03633143 -0.0064114332 0.74800003 1.3521098e-38
0.037857134 -0.0064285621 0.75000006 1.379912e-38
0.039285712 -0.0064285547 0.75000006 1.4173651e-38
0.040877145 -0.0064542815 0.75300002 1.2151489e-38
0.042423829 -0.0064714178 0.75500005 1.0223593e-38
0.043861907 -0.0064714178 0.75500005 7.9183102e-39
0.045359988 -0.0064799786 0.75599998 5.5288105e-39
0.046923805 -0.0064971223 0.75800002 5.9908746e-39
0.048495226 -0.006514281 0.76000005 6.3592984e-39
0.050008558 -0.0065228418 0.76100004 6.2678273e-39
0.051593345 -0.006539993 0.76300001 6.0834374e-39
-0.029715249 -0.0050733164 0.76100004 8.5471793e-39
-0.028228575 -0.005066663 0.76000005 9.000257e-39
-0.026780946 -0.0050666705 0.76000005 9.4662518e-39
-0.025266683 -0.0050533265 0.75800002 9.8278554e-39
-0.023822861 -0.005053319 0.75800002 1.0113783e-38
-0.022320027 -0.0050399825 0.75600004 1.0480067e-38
-0.020880014 -0.0050399676 0.75599998 1.0758442e-38
-0.019414296 -0.0050333068 0.75500005 1.1205779e-38
-0.017928584 -0.00502 0.75300002 1.1676803e-38
-0.016428599 -0.0049999803 0.75000006 1.196308e-38
-0.014960003 -0.0049866512 0.74800003 1.2144939e-38
-0.013517149 -0.0049799904 0.7470001 1.2515491e-38
-0.012061914 -0.004966639 0.745 1.28821e-38
-0.01064286 -0.004966639 0.74500006 1.3244763e-38
-0.0092238048 -0.0049666539 0.74500006 1.3528197e-38
-0.0077838143 -0.0049533248 0.74300003 1.4091085e-38
-0.0063685686 -0.0049533248 0.74300003 1.463315e-38
-0.0049533229 -0.0049533248 0.74300003 1.4083953e-38
-0.0035381059 -0.0049533322 0.74300003 1.3437164e-38
-0.0021143111 -0.0049333274 0.73999995 1.4649327e-38
-0.00070479343 -0.0049333274 0.73999995 1.5829905e-38
0.00070475863 -0.0049333274 0.74000001 1.5912047e-38
0.0021142771 -0.00493332 0.74000001 1.6017909e-38
0.0035190459 -0.0049266517 0.73900002 1.6129154e-38
0.004926661 -0.0049266443 0.73899996 1.6097866e-38
0.0063171359 -0.0049133152 0.73700005 1.5245081e-38
0.0077209612 -0.0049133226 0.73700005 1.4418551e-38
0.0091247661 -0.0049133226 0.73700005 1.5336898e-38
0.01052857 -0.0049133226 0.73699999 1.6201167e-38
0.01193238 -0.0049133152 0.73700005 1.6785983e-38
0.013336184 -0.0049133152 0.73700005 1.7223909e-38
0.01474001 -0.0049133226 0.73700005 1.0666911e-38
0.016143814 -0.0049133301 0.73700005 4.0504588e-39
0.017595222 -0.0049266443 0.73899996 6.153358e-39
0.018951429 -0.0049133226 0.73700005 8.2017733e-39
0.020410469 -0.0049266592 0.73900002 1.2363121e-38
0.021818081 -0.0049266592 0.73899996 1.6471652e-38
0.023257114 -0.00493332 0.73999995 9.8375847e-39
0.024733335 -0.004946664 0.74200004 3.1271264e-39
0.026146675 -0.0049466491 0.74200004 5.6027304e-39
0.027560001 -0.0049466565 0.74200004 8.0116633e-39
0.028973345 -0.0049466565 0.74200004 1.098022e-38
0.030427607 -0.0049533024 0.74300003 1.3823145e-38
0.031842839 -0.0049533099 0.74300003 1.3084846e-38
0.033347618 -0.0049666539 0.74500006 1.2246504e-38
0.034766655 -0.004966639 0.745 1.2886139e-38
0.036331438 -0.0049866736 0.74800003 1.3432131e-38
0.037756186 -0.0049866512 0.74800003 1.3890235e-38
0.039285712 -0.0049999878 0.75000006 1.4353014e-38
0.040822878 -0.0050133169 0.75200003 1.215077e-38
0.042423826 -0.0050333217 0.75500005 9.9419856e-39
0.043861922 -0.0050333217 0.75500005 7.7292568e-39
0.045359991 -0.0050399825 0.75599998 5.4362533e-39
0.0471095 -0.0050733089 0.76100004 5.8990335e-39
0.048559032 -0.0050733164 0.76100004 6.3589341e-39
0.050140012 -0.0050866604 0.76300001 6.3589397e-39
-0.029715253 -0.0036237985 0.76100004 8.8166028e-39
-0.028154315 -0.0036095008 0.75800002 9.3676158e-39
-0.026710493 -0.0036095083 0.75800002 9.8267961e-39
-0.025266672 -0.0036095083 0.75800002 1.0010829e-38
-0.023822879 -0.0036095157 0.75800002 1.0285957e-38
-0.022320023 -0.003599979 0.75599998 1.0656148e-38
-0.020880012 -0.0035999715 0.75599998 1.102062e-38
-0.019414285 -0.0035952255 0.75500005 1.1296485e-38
-0.017928576 -0.0035857186 0.75300002 1.1663486e-38
-0.016428582 -0.003571406 0.75 1.194511e-38
-0.014959995 -0.0035618916 0.74800003 1.2214862e-38
-0.013517131 -0.0035571381 0.7470001 1.2496812e-38
-0.012061903 -0.0035475865 0.74500006 1.2766217e-38
-0.010642869 -0.0035475865 0.745 1.3046742e-38
-0.0092238141 -0.003547594 0.745 1.331869e-38
-0.0077838306 -0.0035380796 0.74300003 1.3694671e-38
-0.0063685859 -0.003538087 0.74300003 1.4051986e-38
-0.0049533402 -0.0035380945 0.74300003 1.3875865e-38
-0.0035380947 -0.0035380796 0.74300003 1.3592107e-38
-0.0021200173 -0.0035333261 0.74200004 1.4433335e-38
-0.00070667657 -0.0035333335 0.74200004 1.5348831e-38
0.00070473814 -0.0035237893 0.73999995 1.5536101e-38
0.0021142557 -0.0035237893 0.73999995 1.5725523e-38
0.0035237947 -0.0035238042 0.74000001 1.5724456e-38
0.0049266564 -0.003519021 0.73900002 1.5796134e-38
0.006317134 -0.0035095066 0.73699999 1.5337247e-38
0.0077209594 -0.0035095066 0.73700005 1.4877711e-38
0.0091247633 -0.003509514 0.73700005 1.562208e-38
0.010528574 -0.0035095215 0.73700005 1.6386292e-38
0.011932378 -0.0035095066 0.73700005 1.7146558e-38
0.013336183 -0.0035095066 0.73699999 1.7792525e-38
0.014740008 -0.003509514 0.73700005 1.3820886e-38
0.016187618 -0.0035190359 0.73900002 9.8500884e-39
0.017595232 -0.003519021 0.73900002 8.740899e-39
0.019002846 -0.003519021 0.73899996 7.6640923e-39
0.020438092 -0.0035238117 0.74000001 1.2088446e-38
0.021847611 -0.0035237968 0.74000001 1.6500799e-38
0.023257127 -0.0035237968 0.74000001 1.1233117e-38
0.02473334 -0.0035333335 0.74200004 6.0677022e-39
0.026146671 -0.0035333335 0.74200004 7.4509478e-39
0.027560009 -0.0035333186 0.74200004 8.8292145e-39
0.028973335 -0.0035333261 0.74200004 1.0412675e-38
0.030427603 -0.0035380721 0.74300003 1.2082229e-38
0.03192855 -0.0035475865 0.745 1.1886375e-38
0.033347603 -0.003547594 0.745 1.1701258e-38
0.034766659 -0.0035476014 0.74500006 1.2611351e-38
0.036331411 -0.0035618916 0.74800003 1.3615085e-38
0.037756193 -0.0035618842 0.74800003 1.3889872e-38
0.039285716 -0.0035714135 0.75000006 1.4259023e-38
0.040877149 -0.0035857037 0.75300002 1.2054985e-38
0.042423807 -0.0035952255 0.755 9.9401905e-39
0.043861922 -0.0035952181 0.75500005 7.7310477e-39
0.045359991 -0.0035999715 0.75599998 5.4340981e-39
0.0471095 -0.003623791 0.76100004 5.897593e-39
0.048559036 -0.003623791 0.76100004 6.450764e-39
0.050140001 -0.0036333203 0.76300001 6.2674559e-39
0.051863793 -0.0036523566 0.76700002 6.1752631e-39
-0.028228605 -0.002171427 0.76000005 9.6434656e-39
-0.026780974 -0.0021714345 0.76000005 1.019413e-38
-0.02526669 -0.0021656901 0.75800002 1.0285975e-38
-0.023822868 -0.0021656901 0.75800002 1.037887e-38
-0.022320021 -0.0021599829 0.75599998 1.0837673e-38
-0.020880008 -0.0021599829 0.75599998 1.1204656e-38
-0.01941427 -0.0021571219 0.75500005 1.1480161e-38
-0.017928572 -0.0021514297 0.75300002 1.1663484e-38
-0.016428595 -0.0021428466 0.75 1.1939e-38
-0.015000016 -0.0021428391 0.75000006 1.2214495e-38
-0.013535238 -0.0021371245 0.74800003 1.2489992e-38
-0.012094268 -0.0021342784 0.74700004 1.2674024e-38
-0.010642857 -0.0021285489 0.74500006 1.2857339e-38
-0.0092238029 -0.0021285489 0.74500006 1.3041746e-38
-0.0078047691 -0.0021285415 0.745 1.3316553e-38
-0.0063857427 -0.0021285564 0.745 1.3500597e-38
-0.0049666874 -0.0021285564 0.74500006 1.3683925e-38
-0.0035381115 -0.0021228418 0.74300003 1.3775766e-38
