# .PCD v0.7 - Point Cloud Data file format
VERSION 0.7
FIELDS x y z rgb
SIZE 4 4 4 4
TYPE F F F F
COUNT 1 1 1 1
WIDTH 978
HEIGHT 1
VIEWPOINT 0 0 0 1 0 0 0
POINTS 978
DATA ascii
0.009124768 0.018951438 0.73700005 9.6653286e-39
0.010528596 0.018951431 0.73699999 4.2420275e-39
0.011932399 0.018951431 0.73699999 1.0141756e-38
0.013336197 0.018951431 0.73700005 1.6115364e-38
0.014739998 0.018951431 0.73699999 1.5356999e-38
0.016143827 0.018951438 0.73699999 1.4602236e-38
0.017547654 0.018951438 0.73699999 1.469408e-38
0.018951425 0.018951423 0.73700005 1.4877748e-38
0.020355253 0.018951423 0.73699999 1.4877744e-38
0.021759056 0.018951438 0.73699999 1.487774e-38
0.023225751 0.019002862 0.73899996 1.4785899e-38
0.024633341 0.019002847 0.73899996 1.4785888e-38
0.026146658 0.019079998 0.74200004 1.4694041e-38
0.02756002 0.019080013 0.74199998 1.4694042e-38
0.028973356 0.019080013 0.74199998 1.4510373e-38
0.030427655 0.019105732 0.74299997 1.4326702e-38
0.031842884 0.019105718 0.74300003 1.43267e-38
0.033258144 0.019105732 0.74299997 1.4234875e-38
0.034673374 0.019105732 0.74299997 1.4143049e-38
0.036088601 0.019105725 0.74299997 1.414343e-38
0.037604745 0.019157141 0.74500006 1.3778262e-38
0.039023824 0.019157156 0.74500006 1.3416319e-38
0.040551454 0.01920858 0.74699998 1.3422794e-38
0.04203051 0.0192343 0.74799997 1.3338521e-38
0.043571439 0.019285731 0.75 1.3072011e-38
0.045180034 0.019362845 0.75300002 1.2803241e-38
0.046738107 0.019414291 0.75500005 9.4809402e-39
0.048240025 0.019440003 0.75599998 6.2498388e-39
0.049811419 0.019491434 0.75800002 6.0737026e-39
0.051458124 0.019568577 0.76099998 5.9822244e-39
0.053046666 0.019619994 0.76300001 4.7880028e-39
0.054642905 0.019671433 0.76499999 3.6924439e-39
-0.028414248 0.02112858 0.76499999 9.0960357e-39
-0.026957119 0.02112858 0.76499999 9.554137e-39
-0.025366617 0.021018118 0.76099998 1.0104791e-38
-0.023917101 0.02101811 0.76099998 1.0562535e-38
-0.022438077 0.020990476 0.76000005 1.0837326e-38
-0.020935226 0.020935237 0.75800002 1.1021002e-38
-0.019439986 0.020879999 0.75600004 1.1020649e-38
-0.017904734 0.020769536 0.75199997 1.0932762e-38
-0.016428564 0.020714283 0.75 1.2597642e-38
-0.015000011 0.020714283 0.75000006 1.4172129e-38
-0.013535208 0.020659052 0.74799997 1.1422456e-38
-0.012094262 0.02063144 0.74699998 8.560821e-39
-0.010642873 0.020576186 0.74500006 8.5410627e-39
-0.0092238234 0.020576209 0.745 8.4747869e-39
-0.0078047467 0.020576201 0.745 1.2627563e-38
-0.0063685495 0.020520948 0.74300003 1.6771658e-38
-0.0049532913 0.020520955 0.74299997 1.8441936e-38
-0.0035380607 0.020520963 0.74299997 2.0088865e-38
-0.0021199731 0.020493336 0.74199998 1.8346492e-38
-0.00070476328 0.020438097 0.74000001 1.647632e-38
0.00070381927 0.020410478 0.73899996 8.3584665e-39
0.0021056982 0.02035524 0.73700005 1.8479203e-40
0.0035095273 0.020355247 0.73700005 2.848425e-39
0.0049133543 0.02035524 0.73700005 5.4571971e-39
0.0063171564 0.02035524 0.73699999 1.054804e-38
0.0077209529 0.020355247 0.73700005 1.5477284e-38
0.0091247559 0.020355247 0.73700005 9.934413e-39
0.010557154 0.020410486 0.73899996 4.3363882e-39
0.01193241 0.020355254 0.73699999 1.0147848e-38
0.013336183 0.02035524 0.73700005 1.5833032e-38
0.014740011 0.020355232 0.73700005 1.5170447e-38
0.016143814 0.020355247 0.73699999 1.4422857e-38
0.017547639 0.020355247 0.73699999 1.4694068e-38
0.019002868 0.020410478 0.73899996 1.4969568e-38
0.020355241 0.020355247 0.73700005 1.4969563e-38
0.021759067 0.020355247 0.73699999 1.4969568e-38
0.023257125 0.02043809 0.74000001 1.4877739e-38
0.024666669 0.02043809 0.74000001 1.478589e-38
0.026146676 0.020493329 0.74200004 1.4785879e-38
0.027560012 0.020493343 0.74199998 1.4694045e-38
0.028973345 0.020493343 0.74199998 1.4602211e-38
0.03042764 0.020520955 0.74299997 1.4418546e-38
0.031842902 0.020520963 0.74299997 1.4418551e-38
0.033258129 0.020520963 0.74300003 1.4326721e-38
0.034673359 0.020520963 0.74299997 1.423489e-38
0.036088619 0.020520955 0.74299997 1.4143432e-38
0.037604775 0.020576209 0.745 1.3868303e-38
0.039023798 0.020576194 0.74500006 1.3598911e-38
0.040605765 0.020659052 0.74799997 1.3515342e-38
0.042030502 0.020659059 0.74799997 1.3338521e-38
0.043571446 0.02071429 0.75000006 1.3902125e-38
0.045300003 0.02085238 0.75500005 1.436841e-38
0.046738122 0.020852402 0.755 1.3172329e-38
0.048240032 0.020879999 0.75599998 1.1878368e-38
0.049942907 0.020990476 0.76000005 1.0029806e-38
0.051458139 0.021018103 0.76099998 8.1938195e-39
0.0530467 0.021073334 0.76300001 5.2350002e-39
0.054642897 0.02112858 0.76499999 2.3131206e-39
-0.028414253 0.022585712 0.76500005 9.0956658e-39
-0.026886662 0.022526667 0.76300001 9.64632e-39
-0.025333302 0.022438094 0.76000005 1.010478e-38
-0.023917144 0.022467628 0.76099998 1.0654365e-38
-0.022438057 0.022438109 0.75999999 1.0837683e-38
-0.020935224 0.022379056 0.75800002 1.1112838e-38
-0.019439975 0.022319995 0.75599998 1.1112485e-38
-0.017904734 0.022201926 0.75199997 1.1204309e-38
-0.01647236 0.022201911 0.75199997 1.2415377e-38
-0.014999999 0.022142872 0.75 1.3717573e-38
-0.013535218 0.022083819 0.74799997 1.0493283e-38
-0.012094266 0.0220543 0.74699998 7.2700724e-39
-0.010671427 0.022054292 0.74699998 8.7383641e-39
-0.0092238206 0.021995246 0.74500006 1.0296741e-38
-0.00780477 0.021995239 0.745 1.1965966e-38
-0.0063857241 0.021995232 0.74500006 1.3717012e-38
-0.0049666744 0.021995239 0.74500006 1.4925296e-38
-0.0035380737 0.021936208 0.74299997 1.6213836e-38
-0.0021199805 0.021906674 0.74199998 1.4551443e-38
-0.00070476515 0.021847613 0.74000001 1.2980464e-38
0.00070475246 0.021847628 0.73999995 7.4497973e-39
0.0021142943 0.021847621 0.73999995 1.9289196e-39
0.0035238082 0.021847621 0.74000001 2.8523108e-39
0.0049266815 0.021818109 0.73899996 3.8762606e-39
0.0063343272 0.021818109 0.73899996 8.5822398e-39
0.0077209705 0.021759056 0.73699999 1.3268972e-38
0.0091495393 0.021818101 0.73899996 9.7532867e-39
0.010557158 0.021818101 0.73899996 6.3370514e-39
0.011964804 0.021818101 0.73899996 1.1332015e-38
0.013372396 0.021818101 0.73899996 1.6296506e-38
0.014780017 0.021818094 0.73899996 1.5444508e-38
0.016187662 0.021818094 0.73899996 1.4602211e-38
0.017595282 0.021818109 0.73899996 1.4877725e-38
0.019002873 0.021818094 0.73899996 1.5153224e-38
0.020410519 0.021818101 0.73899996 1.5061382e-38
0.021847611 0.021847621 0.74000001 1.4969561e-38
0.023257155 0.021847613 0.73999995 1.4877741e-38
0.024733335 0.021906674 0.74199998 1.4785895e-38
0.026146695 0.021906674 0.74199998 1.4694047e-38
0.027560001 0.021906681 0.74199998 1.4694048e-38
0.028973363 0.021906674 0.74199998 1.4510378e-38
0.030386668 0.021906659 0.74200004 1.4418555e-38
0.031842884 0.021936193 0.74300003 1.4418567e-38
0.033258144 0.021936186 0.74299997 1.4326731e-38
0.0346734 0.021936208 0.74299997 1.4234896e-38
0.036088601 0.021936201 0.74299997 1.4143076e-38
0.037604753 0.021995246 0.745 1.3776825e-38
0.039023802 0.021995239 0.74500006 1.3503485e-38
0.040551443 0.0220543 0.74699998 1.3142254e-38
0.042030521 0.022083811 0.74799997 1.2689576e-38
0.043455254 0.022083811 0.74799997 1.3901415e-38
0.044880044 0.022083819 0.74799997 1.502491e-38
0.046738137 0.022290476 0.75500005 1.5208526e-38
0.048240013 0.022320002 0.75600004 1.539755e-38
0.049811419 0.022379033 0.75800002 1.4283658e-38
0.051458102 0.022467621 0.76099998 1.3180927e-38
0.052907672 0.022467636 0.76099998 1.151678e-38
0.054500017 0.022526674 0.76299995 9.8640832e-39
0.056100018 0.02258572 0.76500005 9.4888323e-39
0.057557203 0.02258572 0.76499999 9.1082172e-39
-0.028414229 0.024042875 0.76499999 9.1875013e-39
-0.026886631 0.023980007 0.76300001 9.6463214e-39
-0.025333311 0.023885712 0.76000005 1.0196977e-38
-0.023979986 0.023979999 0.76300001 1.0654721e-38
-0.022438066 0.023885719 0.75999999 1.0929511e-38
-0.020935226 0.023822866 0.75800002 1.1204669e-38
-0.019439965 0.023760013 0.75599998 1.1296156e-38
-0.017904734 0.023634292 0.75199997 1.1393001e-38
-0.016472362 0.0236343 0.75199997 1.2326051e-38
-0.014999991 0.023571439 0.75 1.3156542e-38
-0.013535198 0.023508593 0.74799997 9.5635033e-39
-0.01209427 0.023477152 0.74699998 5.8940029e-39
-0.010671431 0.023477145 0.74700004 9.0289388e-39
-0.0092238151 0.023414291 0.745 1.2056303e-38
-0.0078047682 0.023414284 0.74500006 1.1313747e-38
-0.0063857185 0.023414299 0.745 1.0592415e-38
-0.0049532913 0.023351438 0.74299997 1.1511926e-38
-0.0035380588 0.023351438 0.74299997 1.233839e-38
-0.0021199898 0.023320012 0.74199998 1.08478e-38
-0.00070479308 0.023257144 0.74000001 9.384863e-39
0.00070667471 0.023319997 0.74200004 6.53112e-39
0.0021142943 0.023257136 0.74000001 3.590938e-39
0.0035237821 0.023257144 0.74000001 2.93911e-39
0.0049333218 0.023257144 0.74000001 2.3063845e-39
0.0063343067 0.023225725 0.73899996 6.6345709e-39
0.0077419532 0.023225725 0.73899996 1.0952923e-38
0.009149543 0.023225725 0.73899996 9.6556793e-39
0.010557164 0.023225725 0.73899996 8.3800339e-39
0.01196481 0.023225717 0.73899996 1.2546719e-38
0.0133724 0.02322571 0.73899996 1.6660996e-38
0.01478002 0.023225717 0.73899996 1.5709255e-38
0.016187668 0.023225725 0.73899996 1.4695494e-38
0.017595259 0.023225725 0.73899996 1.4969582e-38
0.01902858 0.023257151 0.74000001 1.5245071e-38
0.020410525 0.023225725 0.73899996 1.5153218e-38
0.021847611 0.023257136 0.74000001 1.4969556e-38
0.023257127 0.023257136 0.73999995 1.487773e-38
0.024733352 0.023319997 0.74199998 1.4785889e-38
0.026146688 0.023319997 0.74199998 1.4694049e-38
0.027559994 0.023320012 0.74199998 1.4602214e-38
0.028973354 0.023320012 0.74199998 1.4510378e-38
0.03042764 0.023351438 0.74299997 1.4418555e-38
0.031842902 0.023351431 0.74299997 1.4418568e-38
0.033258129 0.023351438 0.74300003 1.4326734e-38
0.034673359 0.023351438 0.74299997 1.42349e-38
0.036185712 0.023414284 0.745 1.4051233e-38
0.037705731 0.023477152 0.74699998 1.377609e-38
0.039128602 0.023477159 0.74699998 1.3410202e-38
0.040605776 0.023508579 0.74799997 1.2768089e-38
0.04203051 0.023508571 0.74799997 1.2046374e-38
0.043571439 0.023571439 0.75 1.3896772e-38
0.045300033 0.023728579 0.75500005 1.5665662e-38
0.04680004 0.023760021 0.75599998 1.7331596e-38
0.048367646 0.023822859 0.75799996 1.8891702e-38
0.050008599 0.023917153 0.76099998 1.8526133e-38
0.051458117 0.023917146 0.76099998 1.8060862e-38
0.053046685 0.023980007 0.76300001 1.7786439e-38
0.054500017 0.023980007 0.76300001 1.7412627e-38
0.056100044 0.024042867 0.76499999 1.6308795e-38
-0.028339989 0.025433324 0.76300001 9.2796955e-39
-0.026886653 0.025433339 0.76300001 9.7374409e-39
-0.02536663 0.025366679 0.76099998 1.0288098e-38
-0.023917114 0.025366671 0.76099998 1.0746196e-38
-0.022438075 0.025333337 0.76000005 1.0929504e-38
-0.020879969 0.025200009 0.75600004 1.1204307e-38
-0.019414255 0.025166675 0.755 1.1296156e-38
-0.017904736 0.025066674 0.75199997 1.1479814e-38
-0.016472362 0.025066666 0.75199997 1.2416092e-38
-0.015000011 0.025000013 0.75000006 1.3437815e-38
-0.013571426 0.025000006 0.75 1.048801e-38
-0.012110445 0.024933346 0.74799997 7.448417e-39
-0.010671406 0.024900019 0.74699998 1.0409341e-38
-0.0092238104 0.024833344 0.745 1.3360633e-38
-0.0078047896 0.024833329 0.74500006 1.3263415e-38
-0.0063857138 0.024833344 0.74500006 1.3173817e-38
-0.004953308 0.024766669 0.74300003 1.3542678e-38
-0.0035380495 0.024766669 0.74299997 1.3994597e-38
-0.0021143069 0.024666674 0.74000001 1.2046594e-38
-0.00070476328 0.024666674 0.73999995 1.0118803e-38
0.00070666726 0.024733335 0.74200004 1.0038841e-38
0.0021142664 0.024666674 0.74000001 1.0036294e-38
0.0035190696 0.024633333 0.73899996 5.8903875e-39
0.0049266908 0.024633348 0.73899996 1.7452654e-39
0.0063343104 0.024633348 0.73899996 3.7757202e-39
0.0077419272 0.024633333 0.73899996 5.8036065e-39
0.0091495477 0.024633333 0.73899996 8.0051193e-39
0.010557169 0.024633348 0.73899996 1.0307147e-38
0.011964814 0.024633341 0.73899996 1.4100066e-38
0.013372405 0.024633348 0.73899996 1.7867074e-38
0.014780026 0.024633348 0.73899996 1.6179913e-38
0.016187645 0.024633348 0.73899996 1.4510399e-38
0.017619068 0.024666674 0.73999995 1.4785932e-38
0.019028554 0.024666667 0.74000001 1.5153248e-38
0.020438097 0.024666667 0.74000001 1.4969549e-38
0.021847639 0.024666667 0.73999995 1.4877716e-38
0.023320008 0.024733335 0.74200004 1.4785882e-38
0.024733344 0.024733335 0.74199998 1.4785885e-38
0.026146678 0.024733342 0.74199998 1.4694051e-38
0.027560009 0.024733342 0.74200004 1.4602214e-38
0.028973345 0.024733335 0.74199998 1.4510377e-38
0.030427655 0.024766669 0.74299997 1.4418555e-38
0.031842884 0.024766676 0.74300003 1.4418568e-38
0.03325814 0.024766669 0.74299997 1.4326737e-38
0.034766667 0.024833336 0.74500006 1.4234904e-38
0.036185715 0.024833329 0.74500006 1.4143062e-38
0.037705731 0.024900004 0.74699998 1.3776071e-38
0.039181005 0.024933346 0.74799997 1.3500949e-38
0.040605739 0.024933338 0.74799997 1.3141881e-38
0.042142835 0.025000006 0.75000006 1.2871107e-38
0.043571446 0.025000013 0.75 1.408692e-38
0.045300018 0.025166675 0.75500005 1.5306626e-38
0.046800021 0.025200002 0.75600004 1.677852e-38
0.048367646 0.025266662 0.75800002 1.8250744e-38
0.049942907 0.025333337 0.75999999 1.7974147e-38
0.051458128 0.025366671 0.76099998 1.7790476e-38
0.053046688 0.025433339 0.76300001 1.7881953e-38
0.054500025 0.025433347 0.76299995 1.797701e-38
0.056100037 0.025500014 0.76499999 1.732949e-38
-0.028339988 0.026886657 0.76300001 9.3711751e-39
-0.026816163 0.026816204 0.76099998 9.8289218e-39
-0.0253333 0.026780948 0.75999999 1.037994e-38
-0.02388568 0.026780955 0.76000005 1.0838039e-38
-0.022379028 0.026710473 0.75800002 1.1020991e-38
-0.02087996 0.026640005 0.75599998 1.1112478e-38
-0.019414267 0.026604772 0.755 1.1296158e-38
-0.017904734 0.026499063 0.75199997 1.1485555e-38
-0.016472364 0.026499055 0.75199997 1.2604067e-38
-0.015000029 0.026428573 0.75000006 1.3711506e-38
-0.013571421 0.02642858 0.75 1.1410269e-38
-0.012110455 0.026358105 0.74799997 9.0250417e-39
-0.010671412 0.026322879 0.74699998 1.1891657e-38
-0.0092238327 0.026252382 0.74500006 1.4648906e-38
-0.007804757 0.026252396 0.745 1.5204974e-38
-0.0063857371 0.026252389 0.74500006 1.5661326e-38
-0.0049532931 0.026181899 0.74299997 1.5673211e-38
-0.0035380346 0.026181914 0.74299997 1.5644086e-38
-0.0021199824 0.02614668 0.74200004 1.3225088e-38
-0.00070476328 0.026076183 0.74000001 1.0772468e-38
0.0007066598 0.026146665 0.74200004 1.3652047e-38
0.0021142645 0.026076183 0.74000001 1.6387328e-38
0.0035238082 0.026076183 0.74000001 8.748787e-39
0.0049333237 0.026076198 0.73999995 1.1153355e-39
0.0063428367 0.02607619 0.74000001 8.2693005e-40
0.0077419328 0.026040949 0.73899996 5.5786112e-40
0.0091495514 0.026040964 0.73899996 6.3456316e-39
0.010557173 0.026040971 0.73899996 1.2157148e-38
0.01196479 0.026040956 0.73900002 1.55874e-38
0.01337241 0.026040949 0.73899996 1.8961579e-38
0.01478003 0.026040971 0.73899996 1.6632274e-38
0.016187651 0.026040971 0.73899996 1.4237394e-38
0.017619042 0.026076198 0.73999995 1.4602245e-38
0.019028552 0.02607619 0.74000001 1.4969567e-38
0.020438096 0.026076183 0.74000001 1.4877713e-38
0.021906693 0.026146673 0.74199998 1.4785879e-38
0.023320029 0.02614668 0.74199998 1.4785882e-38
0.024733333 0.026146673 0.74199998 1.4694047e-38
0.026146695 0.02614668 0.74199998 1.4694048e-38
0.027560001 0.026146673 0.74200004 1.460221e-38
0.028973335 0.026146673 0.74199998 1.4510373e-38
0.030427638 0.026181914 0.74299997 1.441855e-38
0.031842899 0.026181914 0.74299997 1.4418564e-38
0.033258125 0.026181921 0.74300003 1.4326744e-38
0.03476667 0.026252396 0.745 1.4234924e-38
0.036282886 0.026322864 0.74699998 1.4143448e-38
0.037705723 0.026322871 0.74700004 1.3867583e-38
0.03918099 0.026358098 0.74799997 1.3505638e-38
0.040605757 0.026358113 0.74799997 1.3610763e-38
0.042142872 0.026428595 0.75 1.3616187e-38
0.043571424 0.02642858 0.75000006 1.4273071e-38
0.045300003 0.026604772 0.75500005 1.4932451e-38
0.046800029 0.026640005 0.75599998 1.6224274e-38
0.048367646 0.02671048 0.75799996 1.7512468e-38
0.050008595 0.026816197 0.76099998 1.7513172e-38
0.051458113 0.026816197 0.76100004 1.7422059e-38
0.053046692 0.026886664 0.76300001 1.7973795e-38
0.054500032 0.026886679 0.76300001 1.8433681e-38
0.056100033 0.026957154 0.76500005 1.8433672e-38
0.057782885 0.027062863 0.76800001 1.8434346e-38
-0.026816148 0.02826573 0.76099998 1.0011163e-38
-0.025333311 0.028228566 0.76000005 1.0470347e-38
-0.02388569 0.028228559 0.76000005 1.0929165e-38
-0.022379056 0.028154276 0.75800002 1.1021001e-38
-0.020879975 0.028080009 0.75599998 1.120432e-38
-0.019414281 0.02804286 0.75500005 1.1204326e-38
-0.017904734 0.027931444 0.75199997 1.120431e-38
-0.01647239 0.027931437 0.75199997 1.288065e-38
-0.014999991 0.027857155 0.75 1.4546615e-38
-0.013571438 0.02785714 0.75000006 1.1693267e-38
-0.012110435 0.027782865 0.74799997 8.9314084e-39
-0.010671416 0.027745731 0.74699998 1.0498374e-38
-0.00922383 0.027671419 0.74500006 1.2076504e-38
-0.0077837929 0.027597152 0.74299997 1.281197e-38
-0.0063685346 0.027597144 0.74299997 1.3542354e-38
-0.004953308 0.027597144 0.74300003 1.2528941e-38
-0.0035380495 0.027597144 0.74299997 1.1510093e-38
-0.002114279 0.027485713 0.73999995 1.0304345e-38
-0.00070476515 0.027485713 0.74000001 9.0326704e-39
0.00070670265 0.027560003 0.74199998 1.2442453e-38
0.0021142943 0.027485706 0.73999995 1.5846396e-38
0.0035238063 0.027485713 0.74000001 1.2071745e-38
0.0049333237 0.027485706 0.74000001 8.2013809e-39
0.0063428665 0.027485721 0.73999995 4.3234836e-39
0.0077419365 0.02744858 0.73899996 4.5956844e-40
0.009149557 0.02744858 0.73899996 6.9009577e-39
0.010557178 0.027448587 0.73899996 1.3357487e-38
0.011964793 0.02744858 0.73899996 1.6033692e-38
0.013372414 0.027448572 0.73899996 1.8688239e-38
0.014780035 0.027448587 0.73899996 1.6453263e-38
0.016187625 0.027448572 0.73899996 1.4326709e-38
0.017619038 0.027485706 0.74000001 1.4602226e-38
0.019028582 0.027485713 0.74000001 1.4969559e-38
0.020438069 0.027485713 0.74000001 1.4785876e-38
0.021906681 0.027560011 0.74199998 1.4694044e-38
0.023320017 0.027560011 0.74199998 1.4785881e-38
0.02473335 0.027559996 0.74200004 1.4785881e-38
0.026146686 0.027559996 0.74199998 1.4785879e-38
0.02756002 0.027560018 0.74199998 1.4785878e-38
0.029012423 0.027597152 0.74299997 1.469404e-38
0.030427655 0.027597152 0.74299997 1.4602217e-38
0.031842884 0.027597152 0.74299997 1.4510394e-38
0.033347599 0.027671427 0.74500006 1.4418586e-38
0.034766678 0.027671434 0.74500006 1.4235302e-38
0.036282878 0.027745716 0.74699998 1.4144192e-38
0.03775622 0.027782857 0.74799997 1.3592829e-38
0.039181013 0.027782865 0.74799997 1.3043258e-38
0.040605746 0.027782872 0.74799997 1.2869639e-38
0.042142857 0.027857155 0.75 1.2607426e-38
0.04368766 0.027931437 0.75199997 1.3720234e-38
0.045300048 0.028042868 0.755 1.493602e-38
0.04680004 0.028080001 0.75599998 1.6224629e-38
0.048495267 0.028228574 0.76000005 1.7602506e-38
0.05000861 0.028265722 0.76099998 1.7419896e-38
0.05159336 0.028339997 0.76300001 1.7145477e-38
0.05304667 0.028339997 0.76300001 1.7513189e-38
0.054642875 0.028414294 0.76500005 1.7880162e-38
0.056246664 0.028488562 0.76700002 1.7973064e-38
0.057782892 0.028525718 0.76800001 1.8065262e-38
-0.025333321 0.029676192 0.76000005 1.0561459e-38
-0.023822829 0.029598102 0.75800002 1.0929172e-38
-0.022379028 0.029598087 0.75800002 1.1112499e-38
-0.020879995 0.029520005 0.75599998 1.1204321e-38
-0.019414239 0.029480956 0.755 1.1020639e-38
-0.017904734 0.029363811 0.75199997 1.0845568e-38
-0.016472388 0.029363826 0.75199997 1.307544e-38
-0.015000009 0.029285721 0.75 1.5283088e-38
-0.013535182 0.029207632 0.74799997 1.2068854e-38
-0.012110446 0.029207624 0.74799997 8.8356072e-39
-0.010671421 0.029168583 0.74699998 9.0939029e-39
-0.0092237974 0.029090486 0.745 9.3913426e-39
-0.0078047775 0.029090479 0.74500006 1.0424184e-38
-0.0063685514 0.029012389 0.74299997 1.1417145e-38
-0.0049532931 0.029012382 0.74299997 9.389221e-39
-0.0035380644 0.029012389 0.74300003 7.3641611e-39
-0.002114279 0.028895244 0.74000001 7.3569711e-39
-0.00070476142 0.028895251 0.73999995 7.274485e-39
0.00070474873 0.028895237 0.74000001 1.1329619e-38
0.0021114389 0.028856203 0.73899996 1.5291102e-38
0.0035190845 0.028856196 0.73899996 1.5306889e-38
0.0049267039 0.028856203 0.73899996 1.5277064e-38
0.0063342946 0.028856188 0.73899996 7.8064109e-39
0.0077419411 0.028856203 0.73899996 2.7807227e-40
0.0091495626 0.028856203 0.73899996 7.4416193e-39
0.010557181 0.02885621 0.73899996 1.4551728e-38
0.011964773 0.028856203 0.73899996 1.6501112e-38
0.013372419 0.028856196 0.73899996 1.840663e-38
0.014780038 0.02885621 0.73899996 1.634959e-38
0.016209526 0.028895237 0.73999995 1.4327435e-38
0.017666671 0.028973348 0.74200004 1.4602243e-38
0.019028556 0.028895237 0.74000001 1.4877734e-38
0.020438097 0.028895251 0.73999995 1.4785885e-38
0.021906674 0.028973348 0.74199998 1.4602212e-38
0.02332001 0.028973341 0.74199998 1.4785883e-38
0.024733339 0.028973326 0.74200004 1.487772e-38
0.026146675 0.028973348 0.74199998 1.487772e-38
0.027560011 0.028973341 0.74199998 1.4877722e-38
0.029012408 0.029012375 0.74300003 1.4785889e-38
0.030427638 0.029012389 0.74299997 1.4694066e-38
0.031842899 0.029012397 0.74299997 1.4602243e-38
0.033347633 0.029090486 0.745 1.4418593e-38
0.034766652 0.029090479 0.74500006 1.4234943e-38
0.036282875 0.029168583 0.74699998 1.405163e-38
0.037705716 0.029168569 0.74700004 1.3316586e-38
0.039180998 0.029207624 0.74799997 1.2584046e-38
0.040605765 0.029207624 0.74799997 1.212486e-38
0.042142864 0.029285729 0.75000006 1.1586816e-38
0.04368766 0.029363818 0.75199997 1.3247441e-38
0.045300033 0.029480949 0.75500005 1.4836658e-38
0.046923812 0.029598095 0.75800002 1.6318612e-38
0.048495255 0.029676199 0.76000005 1.7695412e-38
0.050008625 0.029715247 0.76099998 1.7326261e-38
0.051593367 0.029793344 0.76299995 1.6868528e-38
0.053185772 0.029871441 0.76499999 1.7144405e-38
0.054642897 0.029871434 0.76499999 1.7328427e-38
0.056246653 0.029949531 0.76700002 1.751245e-38
0.057782877 0.029988572 0.76800001 1.7605722e-38
-0.025333298 0.031123824 0.75999999 1.1304387e-38
-0.023822857 0.031041913 0.75800002 1.1664223e-38
-0.022379054 0.031041905 0.75800002 1.1671425e-38
-0.02085237 0.030919045 0.75500005 1.1663502e-38
-0.019362859 0.030837141 0.75300002 1.1851447e-38
-0.01790476 0.0307962 0.75199997 1.2122647e-38
-0.01647236 0.030796207 0.75199997 1.3898371e-38
-0.015000003 0.030714281 0.75000006 1.5655449e-38
-0.013571418 0.030714296 0.75 1.2340409e-38
-0.012110427 0.030632384 0.74799997 9.1057131e-39
-0.010671426 0.030591436 0.74699998 6.9838039e-39
-0.0092238197 0.030509539 0.74500006 4.9598721e-39
-0.0077837929 0.030427627 0.74299997 8.2839216e-39
-0.0063685346 0.03042762 0.74299997 1.1669256e-38
-0.0049533062 0.030427627 0.74300003 9.4755816e-39
-0.0035380495 0.03042762 0.74299997 7.3526215e-39
-0.002114305 0.030304767 0.74000001 7.0756968e-39
-0.00070476515 0.03030476 0.74000001 6.705499e-39
0.00070477853 0.03030476 0.73999995 9.2037241e-39
0.0021142664 0.03030476 0.74000001 1.1610174e-38
0.0035238082 0.03030476 0.74000001 1.3174677e-38
0.0049333498 0.030304775 0.73999995 1.4823669e-38
0.0063343002 0.030263819 0.73899996 1.0124174e-38
0.0077419449 0.030263819 0.73899996 5.4251873e-39
0.0091495663 0.030263819 0.73899996 1.0681384e-38
0.010557157 0.030263826 0.73899996 1.5855384e-38
0.011964777 0.030263819 0.73899996 1.7140723e-38
0.013372423 0.030263819 0.73899996 1.8414159e-38
0.014780014 0.030263819 0.73900002 1.6083769e-38
0.016209524 0.03030476 0.74000001 1.3775713e-38
0.01761904 0.030304775 0.73999995 1.4326754e-38
0.019028554 0.03030476 0.74000001 1.4785911e-38
0.020438096 0.03030476 0.74000001 1.4694056e-38
0.021906665 0.030386679 0.74199998 1.4602218e-38
0.023320025 0.030386679 0.74199998 1.4602215e-38
0.024733331 0.030386664 0.74200004 1.4694054e-38
0.026146667 0.030386679 0.74199998 1.478589e-38
0.027560027 0.030386679 0.74199998 1.4877732e-38
0.029012423 0.030427627 0.74299997 1.4694066e-38
0.030427655 0.030427635 0.74299997 1.4602245e-38
0.031842884 0.03042762 0.74299997 1.4694093e-38
0.03334761 0.030509531 0.745 1.4785942e-38
0.034766685 0.030509539 0.745 1.4698424e-38
0.036282871 0.030591436 0.74699998 1.469411e-38
0.037756231 0.030632384 0.74799997 1.4520472e-38
0.039180994 0.030632392 0.74799997 1.4331396e-38
0.04071429 0.030714288 0.75000006 1.4157746e-38
0.042142842 0.030714288 0.75000006 1.3969858e-38
0.043687634 0.030796207 0.75199997 1.4452082e-38
0.045360047 0.030960016 0.75599998 1.4936391e-38
0.046923842 0.031041913 0.75800002 1.5489578e-38
0.048495278 0.031123824 0.75999999 1.5951967e-38
0.050008584 0.031164758 0.76099998 1.6500093e-38
0.051593345 0.031246662 0.76300001 1.6959281e-38
0.053185765 0.031328589 0.76499999 1.7144396e-38
0.054785695 0.031410478 0.76700002 1.7327704e-38
0.056466687 0.031533338 0.76999998 1.7420971e-38
0.058083836 0.031615242 0.77199996 1.7513884e-38
0.059785713 0.031738102 0.77500004 1.7513525e-38
0.061420035 0.031819999 0.77700001 1.7605362e-38
-0.02533331 0.032571428 0.75999999 1.2061719e-38
-0.023822827 0.032485723 0.75799996 1.2331134e-38
-0.022379026 0.032485709 0.75800002 1.2245764e-38
-0.020879975 0.032400019 0.75599998 1.2050243e-38
-0.019414267 0.032357149 0.75500005 1.2782765e-38
-0.017928567 0.03227143 0.75300002 1.343782e-38
-0.01647236 0.032228589 0.75199997 1.4740029e-38
-0.014999991 0.03214287 0.75 1.6030026e-38
-0.013571437 0.032142863 0.75 1.2714619e-38
-0.012110437 0.032057159 0.74799997 9.3023307e-39
-0.010685672 0.032057159 0.74799997 4.9594923e-39
-0.0092238169 0.031928577 0.74500006 5.575178e-40
-0.0077837761 0.031842865 0.74299997 6.2660588e-39
-0.0063685514 0.031842873 0.74300003 1.1875182e-38
-0.0049532931 0.031842865 0.74299997 9.6743418e-39
-0.0035380644 0.031842858 0.74300003 7.3648141e-39
-0.002114279 0.03171429 0.73999995 6.7962163e-39
-0.00070476515 0.031714275 0.74000001 6.1551867e-39
0.00070475059 0.03171429 0.73999995 7.0778731e-39
0.0021142943 0.031714283 0.73999995 7.9184307e-39
0.0035238063 0.031714283 0.74000001 1.1140972e-38
0.0049333237 0.03171429 0.73999995 1.4275912e-38
0.0063428655 0.03171429 0.73999995 1.2440974e-38
0.0077419244 0.031671442 0.73899996 1.0596005e-38
0.0091618961 0.03171429 0.73999995 1.3910684e-38
0.010571437 0.03171429 0.73999995 1.7138564e-38
0.011964781 0.031671435 0.73899996 1.779182e-38
0.013372429 0.031671435 0.73899996 1.8406624e-38
0.014780018 0.03167142 0.73899996 1.5796065e-38
0.016209522 0.031714268 0.74000001 1.3225053e-38
0.01761904 0.03171429 0.74000001 1.3959402e-38
0.019028584 0.031714283 0.73999995 1.4696228e-38
0.020438094 0.03171429 0.74000001 1.4694066e-38
0.021847611 0.031714283 0.74000001 1.4605456e-38
0.023257155 0.031714283 0.73999995 1.451039e-38
0.024666641 0.031714283 0.74000001 1.4425004e-38
0.026146682 0.031800009 0.74200004 1.4602212e-38
0.027560018 0.031800009 0.74199998 1.479342e-38
0.029012408 0.03184285 0.74300003 1.4602218e-38
0.030427665 0.03184285 0.74299997 1.4428599e-38
0.031842899 0.031842865 0.74299997 1.4785904e-38
0.033347614 0.031928577 0.74500006 1.5077925e-38
0.034766663 0.031928584 0.745 1.5261609e-38
0.036185708 0.031928569 0.74500006 1.5362422e-38
0.037705734 0.032014288 0.74699998 1.5740179e-38
0.039180983 0.032057144 0.74799997 1.6013897e-38
0.040714271 0.032142855 0.75000006 1.620439e-38
0.042255256 0.032228574 0.75200003 1.6384863e-38
0.04374573 0.03227143 0.75299996 1.5745991e-38
0.045360025 0.032400005 0.75600004 1.5021031e-38
0.046923816 0.032485716 0.75800002 1.4659107e-38
0.048495267 0.032571428 0.75999999 1.4199928e-38
0.050008599 0.032614283 0.76099998 1.5671086e-38
0.051593345 0.032699987 0.76300001 1.7049692e-38
0.053185735 0.032785721 0.76499999 1.7238023e-38
0.054785706 0.032871425 0.76700002 1.7329494e-38
0.056466687 0.033000015 0.77000004 1.7329488e-38
0.058083855 0.033085711 0.77199996 1.7329134e-38
0.059631441 0.033128574 0.77300006 1.7420256e-38
0.061103821 0.033128567 0.77300006 1.7419538e-38
-0.026816178 0.034063816 0.76100004 8.9389628e-39
-0.025333319 0.034019046 0.76000005 1.0502715e-38
-0.023885669 0.034019053 0.75999999 1.215897e-38
-0.022379054 0.033929519 0.75800002 1.0222161e-38
-0.020879995 0.033840008 0.75599998 8.2947018e-39
-0.019414281 0.033795245 0.75500005 1.0961528e-38
-0.017928574 0.033705711 0.75300002 1.3554467e-38
-0.01647236 0.033660963 0.75199997 1.5397655e-38
-0.015000009 0.033571444 0.75 1.7152562e-38
-0.013571429 0.03357143 0.75000006 1.5396913e-38
-0.012110418 0.033481911 0.74799997 1.3643744e-38
-0.010685682 0.033481903 0.74799997 7.1807774e-39
-0.0092238104 0.033347636 0.745 7.3797142e-40
-0.0077837929 0.033258103 0.74299997 7.0990425e-39
-0.0063685346 0.033258103 0.74299997 1.3554424e-38
-0.0049533062 0.033258095 0.74300003 1.2535255e-38
-0.0035380495 0.033258103 0.74299997 1.160467e-38
-0.0021199731 0.03321334 0.74199998 8.9170128e-39
-0.00070476328 0.033123821 0.73999995 6.2452131e-39
0.00070475059 0.033123814 0.74000001 7.3562452e-39
0.0021142925 0.033123821 0.74000001 8.3643071e-39
0.0035238082 0.033123821 0.73999995 1.07725e-38
0.0049333218 0.033123806 0.74000001 1.3279021e-38
0.0063428646 0.033123799 0.74000001 1.3549921e-38
0.0077419281 0.033079065 0.73899996 1.3821059e-38
0.0091618933 0.033123806 0.74000001 1.3542616e-38
0.010600002 0.03321334 0.74200004 1.3373303e-38
0.011964787 0.033079058 0.73899996 1.6126223e-38
0.013390466 0.033123806 0.74000001 1.8869388e-38
0.014780023 0.033079043 0.73899996 1.7567845e-38
0.016187644 0.033079065 0.73899996 1.6348532e-38
0.017619038 0.033123799 0.74000001 1.5626061e-38
0.01902858 0.033123806 0.74000001 1.4977473e-38
0.020438097 0.033123821 0.73999995 1.517083e-38
0.021847611 0.033123806 0.74000001 1.5349477e-38
0.023257127 0.033123821 0.74000001 1.5079708e-38
0.024666669 0.033123814 0.73999995 1.4811002e-38
0.026146675 0.03321334 0.74200004 1.5362717e-38
0.027560009 0.03321334 0.74199998 1.6009511e-38
0.029012423 0.033258095 0.74299997 1.5549975e-38
0.030427655 0.03325811 0.74299997 1.5193039e-38
0.031842884 0.033258095 0.74299997 1.5831944e-38
0.03325814 0.03325811 0.74299997 1.6488077e-38
0.034766667 0.033347622 0.74500006 1.4828592e-38
0.036185719 0.033347629 0.745 1.3273878e-38
0.037705731 0.033437155 0.74699998 1.3544753e-38
0.039285701 0.03357143 0.75000006 1.3831057e-38
0.040714309 0.03357143 0.75 1.3547692e-38
0.04225523 0.033660963 0.75199997 1.3190369e-38
0.043745723 0.033705711 0.75300002 1.2808294e-38
0.045360036 0.033840001 0.75599998 1.2446027e-38
0.046800021 0.033839993 0.75600004 1.2263845e-38
0.048495259 0.034019053 0.76000005 1.2169869e-38
0.050008614 0.034063831 0.76099998 1.2633006e-38
0.051593352 0.034153335 0.76300001 1.3187948e-38
0.053185727 0.034242868 0.76499999 1.4385021e-38
-0.033085674 0.036026679 0.77199996 5.4272724e-39
-0.031533305 0.035933346 0.76999998 4.4142051e-39
-0.030066645 0.035933338 0.76999998 3.4133669e-39
-0.02678095 0.035466664 0.76000005 6.0848751e-39
-0.025333298 0.035466664 0.75999999 9.0340185e-39
-0.023885677 0.035466664 0.75999999 1.1876622e-38
-0.022379026 0.03537333 0.75800002 8.1895792e-39
-0.020879986 0.035280012 0.75599998 4.5200956e-39
-0.019414239 0.035233341 0.755 9.1215478e-39
-0.01792855 0.03514 0.75300002 1.3638775e-38
-0.01647236 0.035093352 0.75199997 1.5959844e-38
-0.015000002 0.035000004 0.75000006 1.8251415e-38
-0.013571418 0.035000011 0.75 1.8076342e-38
-0.012110455 0.03490667 0.74799997 1.7864655e-38
-0.010685664 0.034906685 0.74799997 9.3823911e-39
-0.0092238057 0.034766674 0.745 8.3954173e-40
-0.0077837519 0.034673341 0.74299997 8.0217261e-39
-0.0063685495 0.034673356 0.74300003 1.5110283e-38
-0.0049532931 0.034673348 0.74299997 1.5490902e-38
-0.0035380644 0.034673348 0.74300003 1.5738375e-38
-0.0021199842 0.034626678 0.74199998 1.1021353e-38
-0.00070476328 0.034533329 0.73999995 6.3456568e-39
0.00070668402 0.034626678 0.74199998 7.6453667e-39
0.0021142645 0.034533337 0.74000001 8.8356689e-39
0.0035333245 0.03462667 0.74199998 1.0489093e-38
0.0049466854 0.034626685 0.74199998 1.2162982e-38
0.0063428367 0.034533337 0.74000001 1.4566533e-38
0.0077419337 0.034486681 0.73899996 1.6941656e-38
0.0091619231 0.034533337 0.73999995 1.3248463e-38
0.010599993 0.03462667 0.74200004 9.4943534e-39
0.011964791 0.034486681 0.73899996 1.446964e-38
0.013390495 0.034533344 0.73999995 1.9345874e-38
0.014780029 0.034486674 0.73899996 1.9441642e-38
0.016209522 0.034533352 0.74000001 1.9425082e-38
0.017666692 0.034626685 0.74199998 1.740285e-38
0.019028554 0.034533337 0.74000001 1.5284215e-38
0.020438096 0.034533329 0.74000001 1.5753473e-38
0.021847639 0.034533344 0.73999995 1.6110744e-38
0.023319999 0.03462667 0.74199998 1.5647594e-38
0.024666669 0.034533344 0.74000001 1.50955e-38
0.026146665 0.034626678 0.74200004 1.611932e-38
0.027560001 0.03462667 0.74199998 1.7126654e-38
0.029012408 0.034673333 0.74300003 1.6578167e-38
0.030427665 0.034673348 0.74300003 1.5933883e-38
0.031842899 0.034673348 0.74299997 1.6951966e-38
0.033258129 0.034673333 0.74300003 1.7871404e-38
0.034766641 0.034766659 0.74500006 1.4473856e-38
0.036185719 0.034766674 0.74500006 1.1059081e-38
0.037857153 0.035000011 0.75000006 1.1333153e-38
0.039285708 0.034999996 0.75000006 1.1606176e-38
0.040822882 0.03509333 0.75199997 1.0781477e-38
0.04225526 0.035093352 0.75199997 9.9481303e-39
0.043745745 0.035140015 0.75300002 9.8505439e-39
0.045360047 0.035280012 0.75599998 9.7759836e-39
0.046800029 0.035280012 0.75599998 9.9640168e-39
0.048495248 0.035466671 0.76000005 1.0055496e-38
0.050008595 0.035513349 0.76099998 9.6860062e-39
0.05159333 0.035606667 0.76300001 9.3229592e-39
0.053185754 0.035700008 0.76499999 1.1619556e-38
-0.033085681 0.037497148 0.77199996 6.6204178e-39
-0.031533305 0.0374 0.77000004 5.9815056e-39
-0.029988566 0.037302844 0.76800001 5.337976e-39
-0.02848858 0.037254289 0.76700002 5.6163888e-39
-0.026957113 0.037157148 0.76499999 5.8922232e-39
-0.025433334 0.03706 0.76300001 8.2896011e-39
-0.023885688 0.036914289 0.76000005 1.0685246e-38
-0.022379054 0.036817141 0.75800002 8.2846377e-39
-0.020879975 0.036720008 0.75599998 5.8825374e-39
-0.019439967 0.036720015 0.75599998 6.8127026e-39
-0.017928584 0.036574274 0.75300002 7.7462434e-39
-0.01647236 0.036525719 0.75199997 1.0878812e-38
-0.01500002 0.036428578 0.75000006 1.4102013e-38
-0.013571436 0.036428578 0.75 1.4194556e-38
-0.012094257 0.03628286 0.74699998 1.4285288e-38
-0.010671419 0.036282867 0.74699998 1.0406645e-38
-0.00922383 0.036185719 0.74500006 6.5222694e-39
-0.0078047533 0.036185727 0.745 8.9286254e-39
-0.0063857343 0.036185719 0.74500006 1.1343629e-38
-0.0049533062 0.036088571 0.74300003 1.3828585e-38
-0.0035476366 0.036185712 0.74500006 1.629516e-38
-0.0021199917 0.036040001 0.74199998 1.1131497e-38
-0.00070665946 0.036039993 0.74200004 5.888989e-39
0.00070667471 0.036040016 0.74199998 7.9197802e-39
0.0021200108 0.036040008 0.74199998 9.9459331e-39
0.0035333412 0.036040001 0.74200004 1.0866113e-38
0.0049466761 0.036040016 0.74199998 1.1877767e-38
0.0063600112 0.036040016 0.74199998 1.1887841e-38
0.0077733435 0.036040001 0.74200004 1.1896428e-38
0.0091618951 0.035942867 0.73999995 9.2963135e-39
0.010571438 0.03594286 0.73999995 6.8042443e-39
0.011964796 0.035894312 0.73899996 1.3180399e-38
0.013372411 0.03589429 0.73899996 1.9643713e-38
0.014780032 0.035894297 0.73899996 1.9728405e-38
0.016187653 0.035894305 0.73899996 1.9915531e-38
0.017595245 0.035894297 0.73899996 1.8246576e-38
0.019028582 0.03594286 0.73999995 1.6584285e-38
0.02041051 0.035894305 0.73899996 1.5759992e-38
0.021818131 0.035894297 0.73899996 1.4845891e-38
0.023257153 0.035942867 0.73999995 1.1786211e-38
0.024666667 0.035942852 0.74000001 8.7524191e-39
0.026076185 0.03594286 0.74000001 1.1885595e-38
0.027560018 0.036040008 0.74199998 1.5116367e-38
0.028973352 0.036040016 0.74199998 1.5296837e-38
0.030427655 0.036088593 0.74299997 1.5563016e-38
0.031842884 0.036088578 0.74299997 1.5752065e-38
0.033347625 0.036185719 0.74500006 1.6040488e-38
0.034766678 0.036185719 0.745 1.2623564e-38
0.036331486 0.036331445 0.74799997 9.1958432e-39
0.03775622 0.036331438 0.74799997 7.5456405e-39
0.039285719 0.036428586 0.75 5.8876003e-39
0.040714271 0.036428578 0.75000006 5.4305949e-39
0.042255256 0.036525726 0.75199997 5.0514175e-39
0.043745715 0.036574289 0.75300002 7.6429032e-39
0.045180008 0.036574282 0.75300002 1.0240904e-38
0.046738137 0.036671437 0.755 1.033208e-38
0.048240025 0.036720008 0.75599998 1.0421758e-38
0.050008614 0.036962874 0.76099998 1.0145528e-38
0.051458128 0.036962867 0.76099998 9.9618574e-39
0.05318575 0.037157156 0.76499999 1.0881646e-38
0.054642905 0.037157156 0.76499999 1.1891859e-38
0.056100029 0.037157156 0.76499999 1.3094351e-38
-0.032999963 0.038866673 0.76999998 7.7343169e-39
-0.031533301 0.038866665 0.76999998 7.4613286e-39
-0.029988555 0.038765717 0.76799995 7.1815271e-39
-0.028525684 0.038765732 0.76799995 6.4447006e-39
-0.026957119 0.038614295 0.76500005 5.7096382e-39
-0.02549999 0.038614288 0.76500005 7.547046e-39
-0.023917099 0.038412392 0.76099998 9.3898852e-39
-0.022379024 0.038260959 0.75800002 8.380443e-39
-0.020879993 0.038160011 0.75599998 7.2679928e-39
-0.019439956 0.038160011 0.75599998 4.5003527e-39
-0.017928559 0.038008571 0.75300002 1.7571862e-39
-0.01647236 0.037958108 0.75199997 5.890204e-39
-0.01503999 0.037958108 0.75199997 9.9492499e-39
-0.01357143 0.037857141 0.75000006 1.031407e-38
-0.012142845 0.03785716 0.75 1.059709e-38
-0.010685654 0.037756205 0.74799997 1.1436863e-38
-0.0092485538 0.037705727 0.74699998 1.214677e-38
-0.0078047775 0.037604772 0.745 9.8268255e-39
-0.0063857008 0.037604775 0.745 7.5650667e-39
-0.00496668 0.037604764 0.74500006 1.2275991e-38
-0.0035476049 0.037604772 0.745 1.6850471e-38
-0.0021228322 0.037503801 0.74299997 1.1136866e-38
-0.00070664083 0.037453339 0.74199998 5.4394805e-39
0.00070666539 0.037453339 0.74199998 8.2910472e-39
0.0021200276 0.037453339 0.74199998 1.1050462e-38
0.0035333319 0.037453324 0.74200004 1.1335699e-38
0.0049466677 0.037453346 0.74199998 1.1514334e-38
0.0063600289 0.037453346 0.74199998 9.209824e-39
0.0077523515 0.037352391 0.74000001 6.8152725e-39
0.0091618942 0.037352383 0.74000001 5.4190734e-39
0.010600031 0.037453346 0.74199998 4.0556212e-39
0.0119648 0.037301928 0.73899996 1.1987642e-38
0.013390467 0.037352376 0.74000001 1.9815927e-38
0.014800009 0.037352391 0.74000001 2.0096122e-38
0.016187657 0.037301905 0.73899996 2.037442e-38
0.017619038 0.037352383 0.74000001 1.9175817e-38
0.019028582 0.037352376 0.74000001 1.7876869e-38
0.020438069 0.037352383 0.74000001 1.57636e-38
0.021847609 0.037352383 0.74000001 1.3532929e-38
0.023320006 0.037453331 0.74200004 7.8993226e-39
0.024733342 0.037453353 0.74199998 2.3095655e-39
0.026146702 0.037453346 0.74199998 7.7382728e-39
0.027560009 0.037453331 0.74200004 1.3083806e-38
0.029012408 0.037503816 0.74300003 1.4112714e-38
0.030427665 0.037503816 0.74299997 1.510527e-38
0.031842899 0.037503816 0.74299997 1.4635633e-38
0.033258129 0.037503816 0.74300003 1.4090362e-38
0.034766678 0.03760476 0.74500006 1.0783926e-38
0.036331475 0.037756201 0.74799997 7.3598059e-39
0.037857119 0.037857153 0.75000006 3.7656477e-39
0.039285727 0.037857153 0.75000006 9.5474668e-41
0.040822856 0.0379581 0.75199997 9.298316e-41
0.04225526 0.037958112 0.75199997 9.7322981e-41
0.043745738 0.038008582 0.75300002 5.4291964e-39
0.045300033 0.038109541 0.755 1.0691484e-38
0.046738122 0.038109537 0.75500005 1.0793047e-38
0.048240032 0.038160019 0.75599998 1.0790175e-38
0.050008625 0.038412396 0.76099998 1.0696184e-38
0.051593337 0.03851334 0.76300001 1.0512153e-38
0.053046703 0.03851334 0.76299995 1.0144449e-38
0.054500014 0.03851334 0.76299995 9.7785522e-39
-0.032999966 0.040333342 0.76999998 9.3952816e-39
-0.031533305 0.040333342 0.76999998 8.6609802e-39
-0.029949527 0.04017619 0.76700002 8.0127353e-39
-0.02848858 0.040176202 0.76700002 6.7209231e-39
-0.026957095 0.040071435 0.76499999 5.4334241e-39
-0.025433324 0.039966673 0.76300001 6.9960526e-39
-0.023917142 0.039861917 0.76100004 8.6512762e-39
-0.022438055 0.039809521 0.75999999 8.1942833e-39
-0.020935221 0.039704762 0.75799996 7.8283651e-39
-0.019439977 0.0396 0.75600004 5.7050154e-39
-0.017928565 0.039442848 0.75300002 3.5852684e-39
-0.016472362 0.039390482 0.75199997 6.1670683e-39
-0.015039989 0.039390478 0.75199997 8.7560289e-39
-0.013607587 0.039390478 0.75199997 9.4860367e-39
-0.012142863 0.039285716 0.75 1.0208871e-38
-0.010714309 0.039285723 0.75000006 1.2251481e-38
-0.0092609012 0.039180975 0.74799997 1.4372282e-38
-0.0078257201 0.039128583 0.74700004 1.2154932e-38
-0.006385725 0.039023817 0.745 1.0038493e-38
-0.0049666781 0.039023802 0.74500006 1.2255901e-38
-0.0035476254 0.039023813 0.74500006 1.446884e-38
-0.0021228173 0.038919061 0.74299997 1.1792615e-38
-0.00070664828 0.038866673 0.74199998 9.022483e-39
0.00070668216 0.038866673 0.74200004 7.5495263e-39
0.0021200182 0.038866669 0.74199998 5.9969913e-39
0.0035333543 0.038866673 0.74199998 8.9436767e-39
0.0049466845 0.038866673 0.74200004 1.1888814e-38
0.0063600196 0.038866676 0.74199998 8.93316e-39
0.0077733258 0.038866665 0.74200004 6.0615057e-39
0.0091866869 0.038866673 0.74199998 4.1329575e-39
0.010571409 0.03876191 0.74000001 2.2045452e-39
0.011980953 0.038761906 0.73999995 9.7735733e-39
0.013390466 0.03876191 0.74000001 1.7341772e-38
0.014799981 0.038761914 0.74000001 1.9182448e-38
0.016209524 0.03876191 0.73999995 2.1024872e-38
0.017619038 0.038761895 0.74000001 1.9451086e-38
0.019028554 0.038761914 0.74000001 1.7871559e-38
0.020438096 0.038761906 0.73999995 1.2890173e-38
0.021847609 0.03876191 0.74000001 7.9083624e-39
0.023257125 0.03876191 0.74000001 5.0541935e-39
0.024733359 0.038866665 0.74199998 2.2962728e-39
0.026146693 0.038866676 0.74199998 4.699075e-39
0.027559999 0.038866669 0.74200004 7.1937969e-39
0.029012423 0.038919054 0.74299997 9.6824189e-39
0.030427681 0.03891905 0.74299997 1.225191e-38
0.031842884 0.038919058 0.74299997 1.1782577e-38
0.033347636 0.039023828 0.745 1.1319814e-38
0.034766655 0.039023817 0.74500006 9.3858887e-39
0.036331467 0.039180968 0.74799997 7.3472068e-39
0.037857156 0.039285716 0.75 5.6030443e-39
0.039285708 0.039285719 0.75000006 3.768505e-39
0.040822856 0.039390475 0.75199997 5.1571763e-39
0.042255256 0.039390493 0.75199997 6.5297524e-39
0.04368763 0.039390482 0.75199997 9.2106255e-39
0.045300018 0.039547622 0.755 1.1894328e-38
0.046800029 0.039600015 0.75600004 1.1619921e-38
0.048240013 0.039600007 0.75600004 1.1340828e-38
0.050008584 0.039861914 0.76099998 1.1064604e-38
0.051593367 0.039966676 0.76300001 1.0786224e-38
0.053046681 0.039966673 0.76300001 1.0419596e-38
0.054500017 0.039966661 0.76300001 1.0052251e-38
-0.032999966 0.0418 0.76999998 1.0961503e-38
-0.031533305 0.041800015 0.76999998 9.8659623e-39
-0.02994954 0.041637138 0.76700002 8.7502709e-39
-0.028488593 0.041637149 0.76700002 6.9009731e-39
-0.0269571 0.041528586 0.76499999 5.0649835e-39
-0.025433322 0.041419998 0.76300001 6.4443138e-39
-0.023917127 0.041311439 0.76099998 7.8232994e-39
-0.022438066 0.041257143 0.76000005 8.1009779e-39
-0.020935223 0.041148581 0.75800002 8.3750466e-39
-0.019439964 0.041040003 0.75599998 6.906036e-39
-0.017928569 0.040877141 0.75300002 5.3358503e-39
-0.016472362 0.040822871 0.75199997 6.4360686e-39
-0.015039991 0.04082286 0.75200003 7.4584811e-39
-0.013607613 0.040822867 0.75199997 8.6656409e-39
-0.012142857 0.040714301 0.75000006 9.8555339e-39
-0.010714271 0.040714301 0.75 1.3171993e-38
-0.0092609115 0.04060572 0.74799997 1.6486334e-38
-0.007825695 0.040551443 0.74699998 1.4474575e-38
-0.0064028576 0.040551446 0.74699998 1.24359e-38
-0.0049666688 0.040442865 0.745 1.2240394e-38
-0.0035476235 0.040442862 0.74500006 1.2069992e-38
-0.0021228322 0.040334288 0.74299997 1.2359127e-38
-0.00070757588 0.040334303 0.74299997 1.2606272e-38
0.00070667471 0.040280011 0.74200004 6.7962191e-39
0.0021200089 0.040280007 0.74199998 9.3562176e-40
0.0035333431 0.040280007 0.74199998 6.5523077e-39
0.0049466752 0.040280007 0.74200004 1.2156773e-38
0.0063600112 0.040280007 0.74199998 8.7563372e-39
0.0077733453 0.040280022 0.74199998 5.3386753e-39
0.0091866767 0.040280007 0.74200004 2.8472605e-39
0.010600013 0.040280007 0.74199998 2.8347988e-40
0.01198095 0.040171441 0.74000001 7.5604466e-39
0.013426679 0.040280011 0.74199998 1.4750938e-38
0.01479998 0.040171426 0.74000001 1.8175458e-38
0.016209524 0.040171426 0.74000001 2.1568328e-38
0.01761904 0.040171437 0.73999995 1.9731238e-38
0.019028554 0.040171426 0.74000001 1.7768903e-38
0.020438096 0.040171433 0.74000001 1.0016268e-38
0.021847611 0.040171437 0.73999995 2.3002595e-39
0.023319988 0.040280003 0.74200004 2.2962798e-39
0.02473335 0.040280014 0.74199998 2.2066079e-39
0.026146684 0.040280014 0.74199998 1.7510303e-39
0.02755999 0.040279999 0.74200004 1.3033715e-39
0.029012408 0.040334281 0.74300003 5.3549346e-39
0.030427666 0.040334295 0.74300003 9.2984281e-39
0.031842899 0.040334295 0.74299997 8.9227848e-39
0.033347614 0.040442869 0.74500006 8.5565162e-39
0.034906723 0.040605728 0.74799997 8.0001194e-39
0.036331456 0.040605724 0.74799997 7.3500893e-39
0.037857134 0.040714297 0.75 7.4390479e-39
0.039285716 0.040714297 0.75 7.4595671e-39
0.040822856 0.040822864 0.75199997 1.0236946e-38
0.04225526 0.040822878 0.75199997 1.2895153e-38
0.043745752 0.040877145 0.75300002 1.2989501e-38
0.045300033 0.040985715 0.75500005 1.3091058e-38
0.046800036 0.041040018 0.75599998 1.2450755e-38
0.048240025 0.041040011 0.75599998 1.1803238e-38
0.050008599 0.041311435 0.76099998 1.1435173e-38
0.051593345 0.041419998 0.76300001 1.1065308e-38
0.053185765 0.04152859 0.76499999 1.0695444e-38
0.054500025 0.041420009 0.76299995 1.0236272e-38
-0.032999992 0.043266665 0.76999998 8.3936923e-39
-0.031615209 0.043379053 0.77200001 8.0213603e-39
-0.030066645 0.043266669 0.77000004 7.7411399e-39
-0.02848858 0.043098096 0.76700002 5.2478992e-39
-0.027027635 0.043098088 0.76700002 2.8591169e-39
-0.025499975 0.042985722 0.76500005 4.697996e-39
-0.02397998 0.042873338 0.76300001 6.6265471e-39
-0.022438075 0.042704761 0.76000005 6.6251163e-39
-0.02093525 0.04259238 0.75800002 6.5318543e-39
-0.019439956 0.042480018 0.75599998 5.3365649e-39
-0.017928572 0.042311415 0.75300002 4.0479687e-39
-0.016472364 0.042255249 0.75199997 3.9543087e-39
-0.01503996 0.04225526 0.75199997 3.8639698e-39
-0.013571428 0.042142864 0.75000006 6.9125395e-39
-0.012142875 0.042142868 0.75000006 9.9470247e-39
-0.010685682 0.042030487 0.74799997 1.1975265e-38
-0.0092608919 0.042030483 0.74799997 1.4099729e-38
-0.0078257006 0.041974299 0.74699998 1.4285602e-38
-0.0064028613 0.041974284 0.74699998 1.4551344e-38
-0.0049666669 0.041861914 0.74500006 1.2153139e-38
-0.0035476161 0.041861914 0.745 9.7629795e-39
-0.0021228471 0.041749533 0.74300003 9.3074636e-39
-0.00070758892 0.04174953 0.74299997 8.9311099e-39
0.00070666539 0.041693337 0.74200004 5.4266096e-39
0.0021199996 0.041693337 0.74199998 2.0286654e-39
0.0035238063 0.04158096 0.74000001 6.9120574e-39
0.0049333218 0.041580956 0.74000001 1.1878024e-38
0.0063600009 0.041693341 0.74199998 8.1063449e-39
0.007773363 0.041693337 0.74199998 4.3317288e-39
0.0091866693 0.041693341 0.74199998 2.3001936e-39
0.010600002 0.041693341 0.74199998 2.7589325e-40
0.01198095 0.041580953 0.74000001 4.9763906e-39
0.013426671 0.041693341 0.74199998 9.6812642e-39
0.014800008 0.041580949 0.73999995 1.4017002e-38
0.016209496 0.041580956 0.74000001 1.8434059e-38
0.017619038 0.041580953 0.74000001 1.723193e-38
0.01902858 0.041580964 0.73999995 1.6109348e-38
0.020438094 0.041580949 0.74000001 8.735853e-39
0.021847611 0.041580956 0.74000001 1.4697547e-39
0.023320036 0.041693337 0.74199998 1.6548872e-39
0.02473334 0.041693341 0.74200004 1.840003e-39
0.026146676 0.041693341 0.74199998 1.657418e-39
0.027560007 0.041693337 0.74200004 1.4740889e-39
0.028973341 0.041693348 0.74199998 5.2465007e-39
0.030427681 0.041749533 0.74299997 8.9192115e-39
0.031842884 0.041749537 0.74299997 1.0583737e-38
0.033437181 0.041974287 0.74699998 1.2228159e-38
0.034906711 0.04203048 0.74799997 9.7482351e-39
0.036331479 0.042030483 0.74799997 7.3479481e-39
0.037857141 0.042142861 0.75000006 7.4498197e-39
0.039285727 0.042142868 0.75 7.5672527e-39
0.040714283 0.042142857 0.75000006 1.0331771e-38
0.042255256 0.042255241 0.75199997 1.3192239e-38
