# .PCD v0.7 - Point Cloud Data file format
VERSION 0.7
FIELDS x y z rgb
SIZE 4 4 4 4
TYPE F F F F
COUNT 1 1 1 1
WIDTH 952
HEIGHT 1
VIEWPOINT 0 0 0 1 0 0 0
POINTS 952
DATA ascii
0.010357105 -0.073880963 0.72500002 9.1907663e-40
0.011738071 -0.073880963 0.72500008 9.187165e-40
0.013119022 -0.073880948 0.72500002 9.1907523e-40
0.014459976 -0.07367716 0.72300005 1.1023875e-39
0.015837133 -0.07367716 0.72300011 1.2867928e-39
0.017214254 -0.073677145 0.72300011 1.8371051e-39
0.018591437 -0.07367716 0.72300011 2.2966427e-39
0.019940946 -0.073575251 0.72200012 3.0309693e-39
0.021316178 -0.073575251 0.72200012 3.6748926e-39
0.022722859 -0.07367716 0.72300011 4.3166635e-39
0.024099981 -0.07367716 0.72300011 4.9602294e-39
0.025477137 -0.07367716 0.72300011 4.8676765e-39
0.026928544 -0.073880948 0.72500002 4.6850831e-39
0.028309513 -0.073880963 0.72500008 4.8676793e-39
0.0297314 -0.073982857 0.72600007 4.9598749e-39
0.03111425 -0.073982887 0.72600007 4.8676821e-39
0.032497127 -0.073982872 0.72600001 4.6847243e-39
0.033973314 -0.074186675 0.7280001 5.0513447e-39
0.035359971 -0.074186675 0.7280001 5.4194013e-39
0.036797155 -0.074288569 0.72900009 6.337036e-39
0.038185701 -0.074288584 0.72900009 7.2568259e-39
0.039682839 -0.074492402 0.73100007 7.3472279e-39
0.041131396 -0.074594297 0.73200005 7.3533347e-39
0.042641882 -0.0747981 0.73400009 7.0728144e-39
0.044040006 -0.074798115 0.73400009 6.8001567e-39
0.045438088 -0.074798115 0.73400009 6.3384485e-39
0.047027588 -0.075103827 0.73700005 5.7939151e-39
0.048562847 -0.075307615 0.73900008 6.9964086e-39
0.050038066 -0.075409539 0.74000007 8.1931343e-39
0.051586628 -0.075613342 0.7420001 7.3676854e-39
0.052999947 -0.075613327 0.74200004 6.5433113e-39
0.054413274 -0.075613327 0.7420001 6.819887e-39
0.055901866 -0.075715251 0.74300003 7.0964879e-39
0.057317145 -0.075715236 0.74300009 7.0968635e-39
-0.027671438 -0.074500017 0.74500012 5.1553462e-39
-0.026252411 -0.074500017 0.74500012 5.1578573e-39
-0.024833364 -0.074500017 0.74500012 3.3100253e-39
-0.023351476 -0.074300013 0.74300009 1.5615664e-39
-0.021936234 -0.074300013 0.74300003 5.1639586e-39
-0.020493366 -0.074199997 0.7420001 8.8581975e-39
-0.01908005 -0.074199982 0.74200004 1.0226774e-38
-0.017619064 -0.074000008 0.74000007 1.1612189e-38
-0.016187597 -0.073900022 0.73900008 1.0682345e-38
-0.014740043 -0.073700003 0.73700005 9.8500828e-39
-0.013318117 -0.073600002 0.73600012 8.9220379e-39
-0.011883827 -0.073400028 0.73400009 7.9086525e-39
-0.010457175 -0.073199995 0.73200011 8.5694698e-39
-0.0090504969 -0.073100023 0.73100007 9.2330995e-39
-0.0076371538 -0.07289999 0.72900009 7.2700892e-39
-0.0062485482 -0.072900005 0.72900009 5.4219278e-39
-0.0048600039 -0.07290002 0.72900009 8.3850855e-39
-0.0034667177 -0.072800018 0.7280001 1.1429614e-38
-0.0020743103 -0.072600029 0.72600001 1.1795127e-38
-0.00069050468 -0.072499998 0.72500008 1.2152797e-38
0.0006904474 -0.072499998 0.72500002 1.1879815e-38
0.0020714144 -0.072499998 0.72500002 1.1499543e-38
0.0034523441 -0.072499998 0.72500002 1.0030877e-38
0.0048333094 -0.072499998 0.72500008 8.6328968e-39
0.0062142615 -0.072500013 0.72500002 6.6125159e-39
0.0075952285 -0.072499998 0.72500008 4.5921405e-39
0.0089761559 -0.072499998 0.72500002 7.1721496e-39
0.010357124 -0.072500013 0.72500008 9.7356472e-39
0.011738074 -0.072499983 0.72500002 1.0306026e-38
0.013119042 -0.072500013 0.72500008 1.0928786e-38
0.014459974 -0.072299995 0.72300005 7.7253038e-39
0.015837133 -0.072300009 0.72300011 4.5921349e-39
0.017214254 -0.072299995 0.72300011 5.0513124e-39
0.018591434 -0.072300009 0.72300011 5.6023254e-39
0.019940913 -0.072199993 0.72200006 7.7206403e-39
0.021345677 -0.072299995 0.72300011 9.9185937e-39
0.022722855 -0.072300009 0.72300011 1.066691e-38
0.024166668 -0.072499998 0.72500008 1.1387962e-38
0.025547594 -0.072500013 0.72500002 9.4698195e-39
0.026928565 -0.072499998 0.72500008 7.5308708e-39
0.02834856 -0.072600029 0.72600007 7.8063773e-39
0.02973141 -0.072600029 0.72600007 8.1737193e-39
0.031199986 -0.072800018 0.7280001 8.179459e-39
0.032497134 -0.072600015 0.72600007 8.1737193e-39
0.033973306 -0.072800018 0.7280001 5.8778319e-39
0.035359967 -0.072800018 0.7280001 3.5819445e-39
0.036746625 -0.072800018 0.7280001 3.67378e-39
0.038185719 -0.072900005 0.72900009 3.7656155e-39
0.039574265 -0.07290002 0.72900009 7.3522221e-39
0.041075192 -0.073100008 0.73100007 1.0939564e-38
0.042641897 -0.073400013 0.73400009 1.131374e-38
0.04403998 -0.073400013 0.73400009 1.1760703e-38
0.045438066 -0.073400013 0.73400009 9.5645248e-39
0.047155254 -0.073900007 0.73900008 7.3554815e-39
0.048562858 -0.073900007 0.73900008 8.008764e-39
0.050038088 -0.074000008 0.74000007 8.5647937e-39
0.051586628 -0.074199997 0.7420001 7.8286678e-39
0.052999962 -0.074199997 0.7420001 7.0021357e-39
0.054413278 -0.074199997 0.74200004 7.0957508e-39
0.055826634 -0.074199997 0.7420001 7.1879731e-39
0.057317115 -0.074300013 0.74300009 7.1879997e-39
0.058732353 -0.074300013 0.74300003 7.2787464e-39
-0.026252398 -0.073080964 0.74500012 5.4269067e-39
-0.024766684 -0.072884791 0.74300009 4.1329575e-39
-0.023351444 -0.072884761 0.74300009 2.7661898e-39
-0.021906719 -0.072786681 0.7420001 8.8574703e-39
-0.020493388 -0.072786681 0.7420001 1.4917925e-38
-0.019080071 -0.072786666 0.74200004 1.5288166e-38
-0.017619105 -0.072590493 0.74000001 1.5558621e-38
-0.016187629 -0.072492369 0.73900008 1.4270026e-38
-0.014740056 -0.07229621 0.73700011 1.2971059e-38
-0.013318121 -0.072198085 0.73600012 1.3244776e-38
-0.011883812 -0.072001912 0.73400009 1.3438528e-38
-0.010457157 -0.071805723 0.73200005 1.4102938e-38
-0.0090504941 -0.071707614 0.73100007 1.4642119e-38
-0.0076371501 -0.07151144 0.72900009 1.1394521e-38
-0.0062485659 -0.07151144 0.72900009 8.1060632e-39
-0.0048599825 -0.07151144 0.72900009 1.5310171e-38
-0.0034667046 -0.071413346 0.72800004 2.2479434e-38
-0.002074301 -0.071217142 0.72600007 2.2679602e-38
-0.00069050095 -0.071119048 0.72500002 2.2848211e-38
0.00069046603 -0.071119048 0.72500002 2.2305812e-38
0.0020713939 -0.071119048 0.72500002 2.1736853e-38
0.0034523627 -0.071119048 0.72500008 1.8888151e-38
0.004833289 -0.071119063 0.72500002 1.5923177e-38
0.0062228316 -0.071217172 0.72600007 1.203088e-38
0.0076056854 -0.071217157 0.72600007 8.1949896e-39
0.008988536 -0.071217172 0.72600007 1.3442204e-38
0.01037141 -0.071217142 0.72600007 1.8601468e-38
0.011738093 -0.071119048 0.72500008 1.9825079e-38
0.013119022 -0.071119048 0.72500002 2.0895906e-38
0.014459972 -0.070922859 0.72300005 1.4370216e-38
0.015880916 -0.071119048 0.72500002 7.82437e-39
0.017214272 -0.070922874 0.72300011 8.3573903e-39
0.018591434 -0.070922874 0.72300011 8.9220785e-39
0.019968551 -0.070922874 0.72300011 1.2513752e-38
0.021345695 -0.070922874 0.72300005 1.6105399e-38
0.022722855 -0.070922874 0.72300011 1.6952745e-38
0.024166651 -0.071119048 0.72500002 1.7760617e-38
0.025547577 -0.071119033 0.72500002 1.4093304e-38
0.026965715 -0.071217172 0.72600007 1.0398649e-38
0.028348567 -0.071217157 0.72600007 1.0836949e-38
0.029813316 -0.071413361 0.7280001 1.1313026e-38
0.031199981 -0.071413361 0.7280001 1.1502116e-38
0.032497145 -0.071217157 0.72600007 1.1683596e-38
0.033973299 -0.071413346 0.7280001 6.7043514e-39
0.035359956 -0.071413346 0.7280001 1.745952e-39
0.036746643 -0.071413346 0.7280001 1.0105506e-39
0.038185704 -0.071511455 0.72900009 1.8622696e-40
0.039682806 -0.071707614 0.73100007 7.356255e-39
0.041131411 -0.071805708 0.73200005 1.4544539e-38
0.042641897 -0.072001927 0.73400009 1.5664866e-38
0.04403998 -0.072001927 0.73400009 1.6659261e-38
0.045561906 -0.072198115 0.73600012 1.2803953e-38
0.047155228 -0.072492369 0.73900008 8.9317881e-39
0.048628539 -0.072590478 0.74000007 8.9339321e-39
0.050038047 -0.072590478 0.74000001 8.9353684e-39
0.051586609 -0.072786652 0.7420001 8.1960238e-39
0.052999966 -0.072786681 0.7420001 7.4627579e-39
0.054413278 -0.072786681 0.74200004 7.3726993e-39
0.055826612 -0.072786666 0.7420001 7.1883304e-39
0.057317104 -0.072884761 0.74300003 7.3716623e-39
-0.026322875 -0.071854301 0.7470001 5.3311265e-39
-0.024833357 -0.071661927 0.74500012 4.5957223e-39
-0.02335145 -0.071469523 0.74300003 3.8599663e-39
-0.021936232 -0.071469538 0.74300003 6.6351244e-39
-0.020520991 -0.071469538 0.74300003 9.4024324e-39
-0.019080028 -0.071373336 0.7420001 9.0286795e-39
-0.017619083 -0.071180962 0.74000001 8.6655947e-39
-0.016187597 -0.07108476 0.73900008 8.3782024e-39
-0.014740047 -0.070892386 0.73700005 8.0908689e-39
-0.013318102 -0.070796199 0.73600012 9.660333e-39
-0.011883836 -0.070603825 0.73400009 1.1242744e-38
-0.010457166 -0.070411436 0.73200005 1.2906945e-38
-0.0090505304 -0.070315264 0.73100007 1.4562533e-38
-0.0076581384 -0.070315219 0.73100007 9.2963794e-39
-0.0062485826 -0.070122875 0.72900009 4.155084e-39
-0.0048599993 -0.07012289 0.72900009 1.0982537e-38
-0.003466673 -0.070026688 0.7280001 1.7906457e-38
-0.0020742917 -0.069834299 0.72600007 2.0107666e-38
-0.00069048232 -0.069738097 0.72500008 2.2315658e-38
0.00069044554 -0.069738097 0.72500002 2.2129471e-38
0.0020714125 -0.069738097 0.72500008 2.1948311e-38
0.0034523404 -0.069738083 0.72500002 2.0284509e-38
0.0048333299 -0.069738097 0.72500002 1.8629934e-38
0.0062142597 -0.069738083 0.72500002 1.2717204e-38
0.0076056928 -0.069834284 0.72600007 6.8476902e-39
0.0089885686 -0.069834299 0.72600007 1.1254065e-38
0.01037142 -0.069834299 0.72600007 1.5790909e-38
0.011738073 -0.069738097 0.72500002 1.8356517e-38
0.013119039 -0.069738097 0.72500008 2.0918607e-38
0.01445997 -0.069545709 0.72300011 1.4649422e-38
0.015837131 -0.069545723 0.72300011 8.2940068e-39
0.017214272 -0.069545709 0.72300011 9.2057924e-39
0.01859143 -0.069545723 0.72300011 1.004101e-38
0.019968551 -0.069545709 0.72300011 1.1884264e-38
0.021345692 -0.069545709 0.72300005 1.3832936e-38
0.022785701 -0.069738083 0.72500002 1.5851202e-38
0.024166629 -0.069738097 0.72500002 1.7863349e-38
0.025582835 -0.069834299 0.72600007 1.4649481e-38
0.026965687 -0.069834299 0.72600007 1.1429357e-38
0.028348537 -0.069834314 0.72600007 1.2791323e-38
0.029731413 -0.069834284 0.72600007 1.4187586e-38
0.031114265 -0.069834299 0.72600007 1.5850029e-38
0.032497115 -0.069834299 0.72600007 1.7507296e-38
0.033973314 -0.070026688 0.7280001 1.1968032e-38
0.035359971 -0.070026688 0.7280001 6.4320735e-39
0.036746632 -0.070026703 0.7280001 5.7024117e-39
0.038185712 -0.07012286 0.72900009 4.8677283e-39
0.039682835 -0.070315249 0.73100007 8.3758594e-39
0.041131403 -0.070411436 0.73200005 1.1818965e-38
0.042641908 -0.070603825 0.73400009 1.4199503e-38
0.044039994 -0.070603825 0.73400009 1.648893e-38
0.045561925 -0.070796184 0.73600012 1.3077022e-38
0.047155254 -0.071084745 0.73900008 9.6647135e-39
0.048562858 -0.071084775 0.73900008 9.2126644e-39
0.050038047 -0.071180962 0.74000007 8.7610301e-39
0.051586613 -0.071373336 0.74200004 8.0170289e-39
0.053071383 -0.071469538 0.74300003 7.3712909e-39
0.0544133 -0.071373321 0.7420001 7.0950474e-39
0.0559019 -0.071469538 0.74300009 6.8206283e-39
-0.026322879 -0.070431434 0.7470001 5.1489059e-39
-0.024833344 -0.070242874 0.74500012 5.0592115e-39
-0.023414318 -0.070242889 0.74500012 4.9720424e-39
-0.021936199 -0.070054315 0.74300009 4.4206735e-39
-0.02052098 -0.070054315 0.74300009 3.7785607e-39
-0.019080048 -0.069959991 0.7420001 2.7576279e-39
-0.017666731 -0.069960006 0.74200004 1.6634702e-39
-0.016187631 -0.069677152 0.73900008 2.4856625e-39
-0.014740059 -0.069488578 0.73700005 3.2203534e-39
-0.013318107 -0.069394298 0.73600012 6.1540755e-39
-0.011883799 -0.069205739 0.73400009 9.0286585e-39
-0.010457171 -0.069017135 0.73200011 1.1719928e-38
-0.0090505034 -0.06892287 0.73100007 1.4363763e-38
-0.0076371455 -0.068734281 0.72900009 7.2561757e-39
-0.0062486012 -0.068734296 0.72900009 1.1276529e-40
-0.0048533431 -0.068640016 0.7280001 6.6492579e-39
-0.0034666823 -0.068640016 0.7280001 1.3184372e-38
-0.0020743196 -0.068451442 0.72600007 1.7436154e-38
-0.00069050281 -0.068357147 0.72500002 2.1662033e-38
0.00069046416 -0.068357147 0.72500008 2.1948314e-38
0.0020713939 -0.068357147 0.72500002 2.2122293e-38
0.0034523814 -0.068357147 0.72500008 2.1763198e-38
0.0048333113 -0.068357147 0.72500002 2.1280956e-38
0.0062142764 -0.068357147 0.72500008 1.3359682e-38
0.0076056891 -0.068451442 0.72600001 5.3574429e-39
0.0089761969 -0.068357147 0.72500008 9.1191137e-39
0.010357123 -0.068357132 0.72500002 1.2821993e-38
0.011738054 -0.068357162 0.72500002 1.689114e-38
0.01311902 -0.068357147 0.72500008 2.0910321e-38
0.014459969 -0.068168573 0.72300011 1.4830829e-38
0.01583715 -0.068168588 0.72300011 8.7502877e-39
0.017214272 -0.068168588 0.72300011 9.9469938e-39
0.018591389 -0.068168603 0.72300005 1.1144485e-38
0.019968569 -0.068168573 0.72300011 1.1332144e-38
0.021345694 -0.068168603 0.72300005 1.1434052e-38
0.022785679 -0.068357147 0.72500002 1.4663389e-38
0.024166645 -0.068357162 0.72500008 1.7861874e-38
0.025582846 -0.068451442 0.72600007 1.5211227e-38
0.026965719 -0.068451457 0.72600007 1.2427728e-38
0.028348571 -0.068451442 0.72600007 1.4712041e-38
0.029813301 -0.068640031 0.7280001 1.7043166e-38
0.031114273 -0.068451442 0.72600007 2.0202248e-38
0.032452378 -0.068357147 0.72500008 2.3214821e-38
0.033973303 -0.068640001 0.7280001 1.7228592e-38
0.035505697 -0.068922855 0.73100007 1.1145548e-38
0.036898054 -0.068922855 0.73100007 1.0407619e-38
0.038185731 -0.068734281 0.72900009 9.5699927e-39
0.039682835 -0.06892284 0.73100007 9.2758461e-39
0.041243821 -0.069205739 0.73400009 9.0380458e-39
0.042641908 -0.069205709 0.73400009 1.2733027e-38
0.044039972 -0.069205724 0.73400009 1.6300962e-38
0.045438092 -0.069205739 0.73400009 1.3350369e-38
0.047219016 -0.069771446 0.74000007 1.031652e-38
0.048628524 -0.069771446 0.74000001 9.3991912e-39
0.050240919 -0.0700543 0.74300003 8.4768986e-39
0.051656194 -0.0700543 0.74300009 7.9230242e-39
0.053214259 -0.070242859 0.74500012 7.278361e-39
0.054633286 -0.070242874 0.74500012 6.8155766e-39
-0.026322845 -0.069008581 0.7470001 5.0574445e-39
-0.024833389 -0.068823822 0.74500012 6.6301078e-39
-0.023414303 -0.068823822 0.74500012 8.2009984e-39
-0.021936227 -0.068639077 0.74300009 5.801796e-39
-0.020520987 -0.068639062 0.74300003 3.4929873e-39
-0.019080045 -0.068546675 0.7420001 2.205847e-39
-0.017666711 -0.068546675 0.7420001 9.187165e-40
-0.016209578 -0.068361916 0.74000007 3.1299431e-39
-0.014740012 -0.068084784 0.73700011 5.334718e-39
-0.013336234 -0.068084754 0.73700005 6.713691e-39
-0.01185143 -0.067622848 0.73200011 8.1921043e-39
-0.010457153 -0.067622863 0.73200005 1.1241048e-38
-0.0090505006 -0.067530476 0.73100007 1.4272972e-38
-0.0076371399 -0.067345731 0.72900009 8.3803492e-39
-0.0062485565 -0.067345746 0.72900009 2.4106832e-39
-0.0048533506 -0.067253359 0.7280001 5.2500502e-39
-0.0034666897 -0.067253344 0.7280001 8.1738636e-39
-0.0020743103 -0.067068584 0.72600007 9.9533207e-39
-0.00069048419 -0.066976197 0.72500008 1.1723336e-38
0.00069044554 -0.066976197 0.72500002 1.4293324e-38
0.0020714367 -0.066976182 0.72500008 1.6951523e-38
0.0034523646 -0.066976212 0.72500002 1.6491618e-38
0.0048333318 -0.066976197 0.72500008 1.6034128e-38
0.0062142597 -0.066976212 0.72500008 1.3353573e-38
0.0075951894 -0.066976182 0.72500002 1.0745172e-38
0.0089761764 -0.066976182 0.72500002 9.9358129e-39
0.010357106 -0.066976197 0.72500002 9.1187536e-39
0.011738072 -0.066976197 0.72500008 1.3823303e-38
0.013082847 -0.066791438 0.72300011 1.8510727e-38
0.014459968 -0.066791438 0.72300011 1.5100483e-38
0.015837148 -0.066791438 0.72300011 1.1663528e-38
0.017214268 -0.066791423 0.72300011 9.7504673e-39
0.018591393 -0.066791423 0.72300011 7.9316912e-39
0.019968571 -0.066791452 0.72300011 1.0043903e-38
0.021345694 -0.066791423 0.72300011 1.2152193e-38
0.022785701 -0.066976197 0.72500008 1.2524217e-38
0.024166629 -0.066976182 0.72500002 1.2872225e-38
0.025582816 -0.067068599 0.72600007 9.7534423e-39
0.026965691 -0.067068554 0.72600007 6.7045279e-39
0.028348541 -0.067068569 0.72600007 1.1132314e-38
0.029731393 -0.067068569 0.72600007 1.567288e-38
0.031114247 -0.067068584 0.72600007 1.9457954e-38
0.03245236 -0.066976182 0.72500002 2.3318945e-38
0.033879973 -0.067068584 0.72600007 1.9259841e-38
0.035505701 -0.067530505 0.73100007 1.5197881e-38
0.03689805 -0.067530461 0.73100007 1.2900882e-38
0.038185716 -0.067345716 0.72900009 1.0514894e-38
0.039682835 -0.067530476 0.73100007 7.8247007e-39
0.041243799 -0.067807637 0.73400009 5.0790497e-39
0.042641886 -0.067807622 0.73400009 9.6849006e-39
0.044040006 -0.067807652 0.73400009 1.4366685e-38
0.045561884 -0.067992367 0.73600012 1.2434519e-38
0.047218997 -0.068361916 0.74000001 1.0596321e-38
0.048759986 -0.06854666 0.7420001 8.6573186e-39
0.05024093 -0.068639077 0.74300009 6.722323e-39
0.0517952 -0.068823837 0.74500012 7.0021399e-39
0.053214252 -0.068823837 0.74500012 7.1865087e-39
0.054779999 -0.069008581 0.7470001 7.1868464e-39
0.056202855 -0.069008566 0.7470001 7.0957676e-39
0.057702817 -0.069100954 0.74800009 7.0050462e-39
-0.026322849 -0.067585714 0.7470001 4.973148e-39
-0.024833376 -0.067404784 0.74500012 8.2027948e-39
-0.023414351 -0.067404784 0.74500006 1.1321977e-38
-0.021936195 -0.067223839 0.74300009 7.27548e-39
-0.020520953 -0.067223839 0.74300009 3.1324766e-39
-0.019080063 -0.067133315 0.7420001 1.6534215e-39
-0.017619103 -0.06695237 0.74000001 9.6157101e-41
-0.016187631 -0.06686192 0.73900008 3.7803319e-39
-0.014740024 -0.066680975 0.73700011 7.3604953e-39
-0.013336208 -0.06668099 0.73700011 7.3572808e-39
-0.011932431 -0.06668096 0.73700005 7.2737199e-39
-0.010414286 -0.065957151 0.72900009 1.0778559e-38
-0.0090257023 -0.065957151 0.72900009 1.4177522e-38
-0.0076371576 -0.065957151 0.72900009 9.4895806e-39
-0.0062400182 -0.065866672 0.7280001 4.7033742e-39
-0.0048533599 -0.065866686 0.7280001 3.9496788e-39
-0.0034666767 -0.065866672 0.7280001 3.1271601e-39
-0.0020742787 -0.065685727 0.72600007 2.4800629e-39
-0.00069050281 -0.065595232 0.72500008 1.767682e-39
0.00069142529 -0.065685727 0.72600007 6.7333176e-39
0.0020714144 -0.065595232 0.72500002 1.1698515e-38
0.0034523441 -0.065595232 0.72500002 1.1217436e-38
0.0048333094 -0.065595232 0.72500008 1.068753e-38
0.0061971457 -0.065414302 0.72300011 1.3458321e-38
0.0075952304 -0.065595232 0.72500008 1.6100719e-38
0.0089761578 -0.065595232 0.72500002 1.0760603e-38
0.010328567 -0.065414287 0.72300011 5.3516737e-39
0.011705687 -0.065414287 0.72300005 1.0680323e-38
0.013082845 -0.065414302 0.72300011 1.602757e-38
0.01445999 -0.065414302 0.72300011 1.539654e-38
0.015837148 -0.065414302 0.72300011 1.462848e-38
0.017214267 -0.065414302 0.72300011 9.6431615e-39
0.018591389 -0.065414317 0.72300011 4.6112304e-39
0.019968571 -0.065414287 0.72300011 8.7599791e-39
0.02134569 -0.065414287 0.72300011 1.2798967e-38
0.022785679 -0.065595232 0.72500002 1.0408394e-38
0.024199974 -0.065685727 0.72600007 7.9155539e-39
0.02558285 -0.065685727 0.72600007 4.4085761e-39
0.026928563 -0.065595247 0.72500008 9.1919434e-40
0.028309491 -0.065595247 0.72500002 7.6235513e-39
0.029731402 -0.065685727 0.72600007 1.4283498e-38
0.031114254 -0.065685727 0.72600007 1.8821183e-38
0.032452378 -0.065595232 0.72500008 2.3318947e-38
0.033833303 -0.065595232 0.72500002 2.1293522e-38
0.035408571 -0.065957151 0.72900009 1.9254801e-38
0.036797151 -0.065957151 0.72900009 1.5391208e-38
0.038290448 -0.066138096 0.73100007 1.1412798e-38
0.03968282 -0.066138081 0.73100007 6.2451907e-39
0.041131407 -0.066228576 0.73200005 1.1225634e-39
0.0426419 -0.066409551 0.73400009 6.7446905e-39
0.043919958 -0.066228561 0.73200005 1.2344114e-38
0.045561898 -0.066590481 0.73600012 1.1608323e-38
0.047155224 -0.066861905 0.73900008 1.0772076e-38
0.048628543 -0.066952385 0.74000007 7.9111412e-39
0.05017326 -0.06713333 0.7420001 4.9770856e-39
0.051656164 -0.06722381 0.74300003 6.084508e-39
0.053214271 -0.067404784 0.74500012 7.095755e-39
0.054779995 -0.067585714 0.7470001 7.4652298e-39
0.056202829 -0.067585744 0.7470001 7.8311649e-39
0.057702806 -0.067676194 0.74800003 7.4638523e-39
0.059127562 -0.067676179 0.74800009 7.0968649e-39
-0.026322875 -0.066162877 0.7470001 3.1263978e-39
-0.024833385 -0.065985717 0.74500012 7.1825641e-39
-0.023414336 -0.065985717 0.74500012 1.1230509e-38
-0.021936223 -0.065808602 0.74300009 9.5764008e-39
-0.020520981 -0.065808572 0.74300009 7.9140377e-39
-0.01908006 -0.065719984 0.74200004 6.4421614e-39
-0.017619081 -0.065542869 0.74000001 4.8683883e-39
-0.016187601 -0.065454297 0.73900008 5.9797273e-39
-0.014740014 -0.065277152 0.73700011 7.0925377e-39
-0.013336222 -0.065277152 0.73700011 7.2719249e-39
-0.011851444 -0.064834304 0.73200011 7.4509043e-39
-0.010442863 -0.064745717 0.73100007 9.666765e-39
-0.0090505341 -0.064745717 0.73100007 1.1975596e-38
-0.0076371371 -0.064568602 0.72900009 1.0131741e-38
-0.0062485919 -0.064568587 0.72900009 8.1974587e-39
-0.0048533431 -0.064480029 0.7280001 7.9180089e-39
-0.0034666841 -0.064480014 0.7280001 7.6396004e-39
-0.0020743066 -0.064302869 0.72600007 4.6918626e-39
-0.0006905233 -0.064214282 0.72500002 1.8371639e-39
0.00069139549 -0.064302869 0.72600007 6.7274966e-39
0.0020713957 -0.064214267 0.72500002 1.1708469e-38
0.0034523627 -0.064214297 0.72500008 1.1142362e-38
0.0048332908 -0.064214282 0.72500002 1.058022e-38
0.0062142801 -0.064214282 0.72500002 1.3813824e-38
0.007595208 -0.064214282 0.72500002 1.704027e-38
0.0089761764 -0.064214282 0.72500008 1.4456686e-38
0.010328565 -0.064037152 0.72300011 1.1877703e-38
0.011705685 -0.064037152 0.72300011 1.1787604e-38
0.013082843 -0.064037152 0.72300011 1.1624476e-38
0.014459986 -0.064037152 0.72300011 1.3462716e-38
0.015880918 -0.064214282 0.72500002 1.529001e-38
0.017214267 -0.064037137 0.72300011 9.2937099e-39
0.018591411 -0.064037137 0.72300005 3.4058559e-39
0.019968567 -0.064037167 0.72300011 6.6330337e-39
0.021404728 -0.064214267 0.72500002 9.8652337e-39
0.022785695 -0.064214297 0.72500008 9.7701892e-39
0.024166649 -0.064214267 0.72500002 9.7586551e-39
0.025547616 -0.064214297 0.72500008 5.1492464e-39
0.026928542 -0.064214282 0.72500008 5.5143617e-40
0.028309513 -0.064214282 0.72500008 5.4306187e-39
0.029731413 -0.064302854 0.72600007 1.0332767e-38
0.03111429 -0.064302869 0.72600007 1.5772654e-38
0.03245236 -0.064214267 0.72500008 2.1209245e-38
0.033833291 -0.064214282 0.72500002 2.0189729e-38
0.035408549 -0.064568572 0.72900009 1.9167646e-38
0.036797136 -0.064568587 0.72900009 1.2891566e-38
0.038290437 -0.064745717 0.73100007 6.6125971e-39
0.039737124 -0.064834289 0.73200011 4.411338e-39
0.041131403 -0.064834289 0.73200011 2.3081488e-39
0.042641897 -0.065011449 0.73400009 5.9949006e-39
0.044039957 -0.065011434 0.73400009 9.7694549e-39
0.045561895 -0.065188564 0.73600012 9.3034321e-39
0.04715525 -0.065454297 0.73900008 8.9310356e-39
0.048628524 -0.065542854 0.74000001 6.8112536e-39
0.050173264 -0.065720014 0.74200004 4.70014e-39
0.051656172 -0.065808572 0.74300009 5.806496e-39
0.053071409 -0.065808602 0.74300003 6.9117323e-39
0.054633304 -0.065985732 0.74500012 7.0957424e-39
0.05627805 -0.066251434 0.74800009 7.3709084e-39
0.057702828 -0.066251434 0.74800009 7.0035846e-39
-0.026252417 -0.064566679 0.74500012 1.2003705e-39
-0.02483337 -0.064566679 0.74500012 6.1706262e-39
-0.023414321 -0.064566679 0.74500006 1.1141225e-38
-0.021936228 -0.064393334 0.74300003 1.1976716e-38
-0.020520987 -0.064393334 0.74300003 1.2706749e-38
-0.019080041 -0.064306669 0.7420001 1.1240622e-38
-0.017619083 -0.064133339 0.74000007 9.6618016e-39
-0.016187631 -0.064046673 0.73900008 8.2688058e-39
-0.014740027 -0.063873328 0.73700011 6.8098495e-39
-0.013318114 -0.063786678 0.73600012 7.1861668e-39
-0.011883835 -0.063613348 0.73400009 7.5466873e-39
-0.010457148 -0.063440003 0.73200005 8.645479e-39
-0.0090505071 -0.063353322 0.73100007 9.7579124e-39
-0.0076581151 -0.063353337 0.73100007 1.0772412e-38
-0.0062485696 -0.063180007 0.72900009 1.1692224e-38
-0.0048533524 -0.063093357 0.7280001 1.1885603e-38
-0.0034666953 -0.063093342 0.7280001 1.2054548e-38
-0.0020742973 -0.062920012 0.72600007 6.9946079e-39
-0.00069144345 -0.062920012 0.72600007 1.9372363e-39
0.00069140666 -0.062920012 0.72600007 6.813881e-39
0.002074281 -0.062920012 0.72600007 1.1603687e-38
0.003457133 -0.062920012 0.72600007 1.106309e-38
0.0048333318 -0.062833332 0.72500002 1.0408042e-38
0.0062142615 -0.062833332 0.72500002 1.4176523e-38
0.0076056891 -0.062920026 0.72600007 1.7863211e-38
0.0089761559 -0.062833346 0.72500002 1.8147322e-38
0.010357147 -0.062833346 0.72500008 1.8405208e-38
0.011705682 -0.062660001 0.72300011 1.2784545e-38
0.013082866 -0.062660001 0.72300011 7.2009435e-39
0.014459985 -0.062660016 0.72300011 1.1539523e-38
0.015880937 -0.062833317 0.72500008 1.5832397e-38
0.017261887 -0.062833346 0.72500002 9.0196327e-39
0.018642858 -0.062833332 0.72500008 2.2112574e-39
0.020023784 -0.062833346 0.72500002 4.5006932e-39
0.021404712 -0.062833332 0.72500002 6.8181214e-39
0.022785705 -0.062833332 0.72500002 9.23205e-39
0.024166632 -0.062833332 0.72500002 1.1498486e-38
0.025547598 -0.062833332 0.72500002 5.7859964e-39
0.026928529 -0.062833317 0.72500002 9.2236268e-41
0.028309517 -0.062833332 0.72500002 3.2146852e-39
0.029690444 -0.062833332 0.72500002 6.2725735e-39
0.031114258 -0.062920012 0.72600007 1.27273e-38
0.032452341 -0.062833346 0.72500002 1.9078697e-38
0.033833329 -0.062833332 0.72500002 1.9087703e-38
0.035408594 -0.063180007 0.72900009 1.8969227e-38
0.036797144 -0.063180022 0.72900009 1.0395069e-38
0.038290437 -0.063353337 0.73100007 1.7495954e-39
0.039737143 -0.063440017 0.73200011 2.5717863e-39
0.041131422 -0.063440003 0.73200011 3.4065832e-39
0.042525694 -0.063440003 0.73200005 5.2490581e-39
0.043919973 -0.063440003 0.73200005 7.0911392e-39
0.045438081 -0.063613348 0.73400009 7.0882595e-39
0.047155224 -0.064046673 0.73900008 7.0871665e-39
0.048562847 -0.064046673 0.73900008 5.70316e-39
0.050240926 -0.064393334 0.74300009 4.3320988e-39
0.051656168 -0.064393349 0.74300003 5.5299217e-39
0.053214237 -0.064566679 0.74500012 6.7262775e-39
0.054780006 -0.064739995 0.7470001 6.8180976e-39
0.056428544 -0.065000005 0.75000012 6.8195381e-39
0.057857133 -0.065000005 0.75000012 6.5436785e-39
-0.026252402 -0.063147642 0.74500012 3.4004833e-39
-0.024833355 -0.063147627 0.74500012 7.1844502e-39
-0.023414329 -0.063147642 0.74500012 1.1054454e-38
-0.021936197 -0.062978111 0.74300009 1.1884558e-38
-0.02052098 -0.062978111 0.74300009 1.2715763e-38
-0.019080039 -0.062893339 0.7420001 1.1976796e-38
-0.017619062 -0.062723823 0.74000007 1.1238463e-38
-0.016187623 -0.06263905 0.73900008 7.3594262e-39
-0.014740041 -0.062469535 0.73700011 3.4980249e-39
-0.013318118 -0.062384762 0.73600012 4.9727668e-39
-0.011916187 -0.062384762 0.73600012 6.4446641e-39
-0.010457156 -0.062045731 0.73200011 7.5434783e-39
-0.0090628788 -0.062045701 0.73200005 8.7394711e-39
-0.0076581123 -0.061960973 0.73100007 8.3753353e-39
-0.0062657599 -0.061960973 0.73100007 8.0159289e-39
-0.0048599816 -0.061791442 0.72900009 7.5532061e-39
-0.0034667028 -0.061706685 0.7280001 7.0961768e-39
-0.0020743252 -0.061537154 0.72600007 4.1427273e-39
-0.000691436 -0.061537154 0.72600007 1.1024519e-39
0.00069144019 -0.061537154 0.72600007 3.6838707e-39
0.0020742903 -0.061537139 0.72600007 6.267512e-39
0.0034571423 -0.061537154 0.72600007 8.7546542e-39
0.0048333113 -0.061452396 0.72500002 1.1230988e-38
0.0062228483 -0.061537169 0.72600007 1.279901e-38
0.0076057208 -0.061537169 0.72600007 1.4282712e-38
0.0089761745 -0.061452381 0.72500008 1.6213752e-38
0.010357125 -0.061452366 0.72500002 1.8137603e-38
0.011705682 -0.061282866 0.72300011 1.417609e-38
0.013082864 -0.061282851 0.72300011 1.0304336e-38
0.014459983 -0.061282866 0.72300011 1.0777906e-38
0.015880939 -0.061452381 0.72500002 1.1316657e-38
0.017261866 -0.061452366 0.72500002 6.4389062e-39
0.018642835 -0.061452381 0.72500008 1.561572e-39
0.020023767 -0.061452381 0.72500002 4.7758059e-39
0.021404754 -0.061452381 0.72500002 7.8982268e-39
0.022785682 -0.061452381 0.72500002 1.0127404e-38
0.024166647 -0.061452381 0.72500008 1.2217724e-38
0.025547579 -0.061452366 0.72500002 6.2458913e-39
0.026928566 -0.061452381 0.72500002 1.8405074e-40
0.028309494 -0.061452366 0.72500002 1.6555893e-39
0.029690465 -0.061452396 0.72500002 3.2229304e-39
0.031114265 -0.061537154 0.72600007 9.1248352e-39
0.032586623 -0.061706685 0.7280001 1.5116818e-38
0.034019992 -0.061791427 0.72900009 1.5116535e-38
0.035408575 -0.061791442 0.72900009 1.5104205e-38
0.036797121 -0.061791427 0.72900009 8.2816977e-39
0.038185704 -0.061791442 0.72900009 1.5615944e-39
0.039682854 -0.061960973 0.73100007 2.2981015e-39
0.041131411 -0.062045716 0.73200011 3.0378007e-39
0.04252569 -0.062045716 0.73200005 5.060327e-39
0.043919966 -0.062045701 0.73200005 7.1757818e-39
0.045438092 -0.062215261 0.73400009 8.0094843e-39
0.04715525 -0.06263905 0.73900008 8.8299039e-39
0.048628546 -0.062723823 0.74000001 7.4555973e-39
0.050240956 -0.062978126 0.74300009 5.9862335e-39
0.051795203 -0.063147642 0.74500012 6.5422716e-39
0.053214252 -0.063147627 0.74500006 7.0947069e-39
0.054853283 -0.0634019 0.74800009 7.0035748e-39
0.056428552 -0.063571446 0.75000012 7.0039279e-39
0.057857115 -0.063571416 0.75000012 6.8195325e-39
-0.026252426 -0.061728589 0.74500006 5.524884e-39
-0.024833364 -0.061728589 0.74500012 8.2957696e-39
-0.023414314 -0.061728604 0.74500012 1.0960794e-38
-0.021995287 -0.061728589 0.74500012 1.1882739e-38
-0.020520985 -0.061562859 0.74300003 1.2712165e-38
-0.019080058 -0.061479993 0.7420001 1.2712201e-38
-0.017619101 -0.061314292 0.74000001 1.2701368e-38
-0.016209554 -0.061314292 0.74000007 6.4328063e-39
-0.014780007 -0.061231427 0.73900008 9.6871763e-41
-0.013336214 -0.061065726 0.73700011 2.7622521e-39
-0.011916205 -0.060982846 0.73600006 5.3361684e-39
-0.010485739 -0.06081716 0.73400009 6.5278886e-39
-0.0090628862 -0.060651444 0.73200011 7.6302593e-39
-0.0076581468 -0.060568579 0.73100007 5.973619e-39
-0.0062657553 -0.060568564 0.73100007 4.3241885e-39
-0.0048599984 -0.060402863 0.72900009 3.2146501e-39
-0.0034666879 -0.060320027 0.7280001 2.1187198e-39
-0.0020800286 -0.060320012 0.7280001 1.1942636e-39
-0.00069143972 -0.060154296 0.72600007 2.7589885e-40
0.00069141039 -0.060154296 0.72600007 5.5139693e-40
0.0020799509 -0.060319997 0.7280001 8.3952632e-40
0.0034571143 -0.060154296 0.72600007 6.4573431e-39
0.0048399647 -0.060154311 0.72600007 1.2059668e-38
0.0062228409 -0.060154282 0.72600007 1.1413234e-38
0.0076266513 -0.060320027 0.7280001 1.0694319e-38
0.0089885443 -0.060154282 0.72600007 1.428665e-38
0.010357106 -0.060071416 0.72500002 1.7863922e-38
0.011738075 -0.060071431 0.72500002 1.5661657e-38
0.013119002 -0.060071416 0.72500002 1.3353594e-38
0.014459983 -0.05990573 0.72300011 1.0135068e-38
0.01588092 -0.060071431 0.72500002 6.8163655e-39
0.017261889 -0.060071446 0.72500008 3.857472e-39
0.018642817 -0.060071416 0.72500002 9.1872631e-40
0.020023804 -0.060071416 0.72500002 4.9594797e-39
0.021404732 -0.060071416 0.72500002 9.0203516e-39
0.022785703 -0.060071416 0.72500008 1.1069095e-38
0.024166631 -0.060071446 0.72500002 1.2968573e-38
0.025547598 -0.060071431 0.72500008 6.6125439e-39
0.026928546 -0.060071431 0.72500002 2.7591146e-40
0.028309517 -0.060071431 0.72500008 1.8409418e-40
0.029731425 -0.060154311 0.72600007 1.0194306e-40
0.031199958 -0.060320012 0.7280001 5.6160161e-39
0.032631431 -0.060402863 0.72900009 1.1050148e-38
0.034020014 -0.060402878 0.72900009 1.1156386e-38
0.035408556 -0.060402878 0.72900009 1.1135139e-38
0.036797144 -0.060402893 0.72900009 6.2491213e-39
0.038185686 -0.060402878 0.72900009 1.2871501e-39
0.03968282 -0.060568579 0.73100007 1.9292965e-39
0.041131403 -0.060651429 0.73200011 2.575382e-39
0.042525679 -0.060651414 0.73200011 4.8709205e-39
0.044040009 -0.060817145 0.73400009 7.1833376e-39
0.045438092 -0.06081716 0.73400009 8.944383e-39
0.047027595 -0.061065711 0.73700011 1.0589868e-38
0.048759971 -0.061480008 0.7420001 9.1194024e-39
0.05051145 -0.06189429 0.74700016 7.6468002e-39
0.051795192 -0.061728589 0.74500012 7.5578276e-39
0.053357139 -0.06189429 0.7470001 7.3723629e-39
0.054853309 -0.061977141 0.74800009 7.2805288e-39
0.056428559 -0.062142856 0.75000012 7.0961236e-39
0.057857126 -0.062142856 0.75000012 7.0957494e-39
-0.026252434 -0.060309537 0.74500012 6.9942394e-39
-0.02483335 -0.060309537 0.74500012 8.6580557e-39
-0.023414323 -0.060309552 0.74500012 1.0313611e-38
-0.021936193 -0.060147621 0.74300009 1.0686699e-38
-0.020520976 -0.060147636 0.74300009 1.1058756e-38
-0.019080054 -0.060066648 0.7420001 1.0594965e-38
-0.017666699 -0.060066678 0.7420001 1.0227902e-38
-0.016209556 -0.059904777 0.74000007 6.1673289e-39
-0.014740042 -0.059661917 0.73700011 2.1129381e-39
-0.013336228 -0.059661902 0.73700011 2.5753456e-39
-0.01191621 -0.059580959 0.73600012 3.1295927e-39
-0.010485724 -0.059419088 0.73400009 5.3314978e-39
-0.0090628695 -0.059257157 0.73200005 7.5348267e-39
-0.0076581235 -0.059176199 0.73100007 7.9039553e-39
-0.006265732 -0.059176184 0.73100007 8.2655562e-39
-0.0048733405 -0.059176199 0.73100007 8.272012e-39
-0.0034714339 -0.059014313 0.72900009 8.2659135e-39
-0.0020800361 -0.05893334 0.7280001 7.5401979e-39
-0.00069337687 -0.05893334 0.7280001 6.8880223e-39
0.0006914197 -0.058771439 0.72600007 4.224793e-39
0.0020742717 -0.058771439 0.72600007 1.561649e-39
0.0034571236 -0.058771439 0.72600007 5.1591017e-39
0.0048399982 -0.058771439 0.72600007 8.6675046e-39
0.0062228502 -0.058771439 0.72600007 1.0231218e-38
0.0076057022 -0.058771454 0.72600007 1.1886394e-38
0.0089885537 -0.058771439 0.72600007 1.2714333e-38
0.010357127 -0.058690481 0.72500008 1.3635576e-38
0.011738053 -0.058690481 0.72500002 1.3361162e-38
0.013119044 -0.058690466 0.72500002 1.3181076e-38
0.014499973 -0.058690466 0.72500002 9.7698865e-39
0.015880939 -0.058690481 0.72500008 6.4558451e-39
0.017261868 -0.058690466 0.72500002 3.4973075e-39
0.018642835 -0.058690481 0.72500008 5.5138852e-40
0.020023784 -0.058690481 0.72500002 4.2326907e-39
0.021404754 -0.058690466 0.72500008 7.9294576e-39
0.022785682 -0.058690481 0.72500002 1.0600248e-38
0.024166647 -0.058690481 0.72500008 1.3250559e-38
0.025547601 -0.058690466 0.72500002 8.4568138e-39
0.026928566 -0.058690481 0.72500008 3.6738514e-39
0.028309494 -0.058690466 0.72500002 5.2465511e-39
0.029731397 -0.058771439 0.72600007 6.8134508e-39
0.031199947 -0.05893334 0.7280001 9.2032827e-39
0.032586645 -0.05893337 0.7280001 1.1576328e-38
0.033973329 -0.058933355 0.7280001 9.9355172e-39
0.035408579 -0.059014313 0.72900009 8.3574239e-39
0.036797125 -0.059014298 0.72900009 4.5013784e-39
0.038290434 -0.059176199 0.73100007 7.3504831e-40
0.039737105 -0.059257142 0.73200005 2.1168855e-39
0.041131422 -0.059257142 0.73200011 3.4937257e-39
0.042641897 -0.059419058 0.73400009 5.0632038e-39
0.044159997 -0.059580944 0.73600012 6.7313572e-39
0.045561891 -0.059580959 0.73600012 8.5734943e-39
0.047219016 -0.059904777 0.74000001 1.041447e-38
0.048825685 -0.060147621 0.74300009 8.7527821e-39
0.050376184 -0.060309552 0.74500012 7.0972166e-39
0.051795207 -0.060309552 0.74500012 7.0979172e-39
0.053428557 -0.060552396 0.74800009 7.0975725e-39
0.054853272 -0.060552381 0.74800009 7.0968691e-39
0.056579024 -0.060876213 0.75200009 7.0964851e-39
0.058011398 -0.060876213 0.75200009 7.0042643e-39
-0.024833396 -0.058890499 0.74500012 9.0282451e-39
-0.023414308 -0.058890514 0.74500012 9.6725313e-39
-0.021936221 -0.058732413 0.74300009 9.4913757e-39
-0.020520981 -0.058732398 0.74300003 9.3045125e-39
-0.01908005 -0.058653332 0.74200004 8.5641266e-39
-0.017619081 -0.058495246 0.74000007 7.7411651e-39
-0.016187632 -0.05841621 0.73900008 5.8961749e-39
-0.014740033 -0.058258109 0.73700005 4.0519092e-39
-0.013318084 -0.058179073 0.73600012 2.4799213e-39
-0.011916214 -0.058179058 0.73600012 9.2087309e-40
-0.010457151 -0.057862855 0.73200011 4.1340435e-39
-0.0090628751 -0.057862855 0.73200011 7.3568912e-39
-0.0076581198 -0.05778382 0.73100007 9.8414677e-39
-0.0062657283 -0.05778382 0.73100007 1.2234937e-38
-0.0048733749 -0.05778382 0.73100007 1.3341991e-38
-0.0034714302 -0.057625733 0.72900009 1.4357236e-38
-0.0020800435 -0.057546698 0.7280001 1.3904907e-38
-0.00069338619 -0.057546683 0.7280001 1.3432776e-38
0.0006913899 -0.057388596 0.72600007 7.8982128e-39
0.0020799956 -0.057546698 0.7280001 2.2998769e-39
0.0034571181 -0.057388566 0.72600007 3.765701e-39
0.0048400075 -0.057388596 0.72600007 5.2562691e-39
0.0062228595 -0.057388581 0.72600007 9.1413761e-39
0.0076266346 -0.057546698 0.7280001 1.2986608e-38
0.008988563 -0.057388596 0.72600007 1.1231669e-38
0.010371437 -0.057388596 0.72600007 9.3981935e-39
0.011754287 -0.057388581 0.72600007 1.1149531e-38
0.013119023 -0.057309501 0.72500002 1.2889729e-38
0.014499989 -0.057309516 0.72500008 9.4903695e-39
0.015902843 -0.057388581 0.72600007 6.0762684e-39
0.01728572 -0.057388596 0.72600007 3.1238558e-39
0.018642839 -0.057309531 0.72500002 9.2561369e-41
0.020023804 -0.057309531 0.72500008 3.3982763e-39
0.021404732 -0.057309531 0.72500002 6.7255726e-39
0.022785697 -0.057309531 0.72500008 1.0151522e-38
0.024166651 -0.057309501 0.72500002 1.3527537e-38
0.025547618 -0.057309516 0.72500008 1.029032e-38
0.026928544 -0.057309516 0.72500002 6.992143e-39
0.028309511 -0.057309531 0.72500008 1.0315091e-38
0.029813278 -0.057546683 0.7280001 1.3531088e-38
0.031199981 -0.057546683 0.7280001 1.2899681e-38
0.03258666 -0.057546683 0.7280001 1.2149946e-38
0.034020003 -0.057625733 0.72900009 8.8352723e-39
0.035408583 -0.057625733 0.72900009 5.51518e-39
0.036797129 -0.057625733 0.72900009 2.8472619e-39
0.038290434 -0.05778379 0.73100007 1.879926e-40
0.039737102 -0.057862855 0.73200005 2.3088326e-39
0.041131414 -0.05786287 0.73200011 4.3281541e-39
0.042641874 -0.058020972 0.73400009 5.3397977e-39
0.044160012 -0.058179058 0.73600012 6.2646379e-39
0.045623776 -0.058258109 0.73700011 8.2954501e-39
0.047219016 -0.058495246 0.74000007 1.022217e-38
0.048825715 -0.058732398 0.74300009 8.3796863e-39
0.05037614 -0.058890499 0.74500006 6.545119e-39
0.051656172 -0.058732368 0.74300009 6.638381e-39
0.053214248 -0.058890499 0.74500012 6.729869e-39
0.054486632 -0.058732383 0.74300003 6.9131939e-39
-0.02490003 -0.057625733 0.7470001 9.0214068e-39
-0.023414332 -0.057471432 0.74500006 9.4891952e-39
-0.021995269 -0.057471447 0.74500012 9.5742148e-39
-0.02057622 -0.057471447 0.74500012 9.5735212e-39
-0.019105731 -0.05731716 0.74300009 9.5746198e-39
-0.017666716 -0.057240002 0.7420001 9.5828931e-39
-0.016209574 -0.05708573 0.74000007 9.1194318e-39
-0.014780001 -0.057008572 0.73900008 8.5658615e-39
-0.013336229 -0.0568543 0.73700011 7.5448614e-39
-0.011916194 -0.056777142 0.73600012 6.6128774e-39
-0.010485711 -0.056622885 0.73400009 8.3695914e-39
-0.0090876268 -0.05662287 0.73400009 1.0120563e-38
-0.0076686046 -0.056468569 0.73200011 1.1876196e-38
-0.006274329 -0.056468584 0.73200005 1.3725476e-38
-0.0048733721 -0.056391425 0.73100007 1.4923656e-38
-0.0034809818 -0.05639144 0.73100007 1.6221973e-38
-0.0020828617 -0.056237154 0.72900009 1.6217374e-38
-0.0006914509 -0.056005724 0.72600007 1.6131917e-38
0.00069139921 -0.056005724 0.72600007 1.1606788e-38
0.0020799863 -0.056160025 0.7280001 7.0864014e-39
0.0034571274 -0.056005724 0.72600007 5.4226005e-39
0.0048399796 -0.056005724 0.72600007 3.8578812e-39
0.0062228297 -0.056005724 0.72600007 7.8305553e-39
0.0076266271 -0.05616001 0.7280001 1.1697665e-38
0.0090133101 -0.056160025 0.7280001 1.0495527e-38
0.010371407 -0.056005724 0.72600007 9.3820155e-39
0.011754259 -0.056005724 0.72600007 7.9144342e-39
0.013137111 -0.056005724 0.72600007 6.5332948e-39
0.014519962 -0.056005724 0.72600007 4.9702767e-39
0.01590284 -0.056005739 0.72600007 3.4901286e-39
0.01728569 -0.056005724 0.72600007 2.9398135e-39
0.018642856 -0.055928566 0.72500008 2.2966063e-39
0.020023782 -0.05592858 0.72500002 3.9532325e-39
0.021404749 -0.055928566 0.72500008 5.5145144e-39
0.022785703 -0.05592858 0.72500002 6.4498083e-39
0.02416667 -0.055928595 0.72500008 7.4685817e-39
0.025547598 -0.055928566 0.72500002 7.6418228e-39
0.026928527 -0.055928566 0.72500002 7.9133847e-39
0.028309517 -0.055928566 0.72500002 9.2037465e-39
0.029731404 -0.056005724 0.72600001 1.0595955e-38
0.031242857 -0.056237154 0.72900009 1.19774e-38
0.032631442 -0.056237154 0.72900009 1.3451788e-38
0.034019984 -0.056237154 0.72900009 1.0492603e-38
0.035408568 -0.056237154 0.72900009 7.6227259e-39
0.036898065 -0.05639144 0.73100007 5.6952371e-39
0.03829046 -0.056391425 0.73100007 3.768512e-39
0.039845709 -0.056622885 0.73400009 4.8827614e-39
0.041243792 -0.056622855 0.73400009 6.0787865e-39
0.042758077 -0.056777142 0.73600012 5.8893856e-39
0.044219971 -0.0568543 0.73700005 5.7014196e-39
0.045747608 -0.057008587 0.73900008 6.6287527e-39
0.047346599 -0.057239987 0.74200004 7.4617027e-39
0.048825689 -0.057317145 0.74300009 7.1865283e-39
0.050376151 -0.057471447 0.74500012 6.8202598e-39
0.051795177 -0.057471447 0.74500006 6.8206157e-39
0.053214259 -0.057471432 0.74500012 6.8206269e-39
0.054633312 -0.057471432 0.74500012 6.9121135e-39
-0.024933379 -0.056278102 0.74800009 9.0034828e-39
-0.023477139 -0.056202866 0.7470001 9.2861667e-39
-0.021995254 -0.056052394 0.74500012 9.5591635e-39
-0.020576227 -0.056052394 0.74500012 9.839709e-39
-0.019105736 -0.055901922 0.74300003 1.067019e-38
-0.017666735 -0.055826657 0.7420001 1.1409535e-38
-0.016209554 -0.055676199 0.74000007 1.224825e-38
-0.014780007 -0.055600949 0.73900008 1.3069367e-38
-0.013336243 -0.055450492 0.73700011 1.2703798e-38
-0.011932426 -0.055450507 0.73700011 1.2236375e-38
-0.010514305 -0.055375241 0.73600012 1.2519063e-38
-0.009087651 -0.055224769 0.73400009 1.2798179e-38
-0.0076685878 -0.055074282 0.73200005 1.4001032e-38
-0.0062743123 -0.055074282 0.73200005 1.5109191e-38
-0.0048733461 -0.054999061 0.73100007 1.6588637e-38
-0.0034809948 -0.054999061 0.73100007 1.8061597e-38
-0.0020828804 -0.054848574 0.72900009 1.842715e-38
-0.00069334148 -0.054773338 0.7280001 1.8799141e-38
0.0006933196 -0.054773353 0.7280001 1.5310094e-38
0.0020799788 -0.054773353 0.7280001 1.1782981e-38
0.0034571367 -0.054622881 0.72600007 7.1635288e-39
0.0048399889 -0.054622881 0.72600007 2.4889233e-39
0.006222839 -0.054622881 0.72600007 6.4407545e-39
0.007626642 -0.054773353 0.7280001 1.0406901e-38
0.0089885667 -0.054622866 0.72600007 9.8540962e-39
0.010371419 -0.054622866 0.72600007 9.2937561e-39
0.011754269 -0.054622866 0.72600007 4.6840447e-39
0.013137121 -0.054622866 0.72600007 9.5470464e-41
0.014519997 -0.054622866 0.72600007 5.5139273e-40
0.015946642 -0.054773368 0.7280001 9.1908364e-40
0.017285699 -0.054622866 0.72600007 2.7561425e-39
0.018642835 -0.0545476 0.72500002 4.5056986e-39
0.020023765 -0.054547615 0.72500002 4.4192638e-39
0.021404754 -0.054547615 0.72500002 4.3274479e-39
0.022785682 -0.054547615 0.72500002 2.847339e-39
0.024166647 -0.054547615 0.72500008 1.3011953e-39
0.025547579 -0.054547615 0.72500002 5.0782818e-39
0.026928544 -0.054547615 0.72500008 8.7420243e-39
0.028309494 -0.0545476 0.72500002 8.1741607e-39
0.029690463 -0.05454763 0.72500008 7.6425025e-39
0.03124284 -0.054848574 0.72900009 1.1145509e-38
0.032631423 -0.054848589 0.72900009 1.4636686e-38
0.034020007 -0.054848604 0.72900009 1.2243935e-38
0.035408549 -0.054848589 0.72900009 9.7478693e-39
0.036898073 -0.054999061 0.73100007 8.5418054e-39
0.038342834 -0.055074282 0.73200005 7.2711766e-39
0.039954275 -0.055375226 0.73600006 7.55888e-39
0.041356206 -0.055375241 0.73600012 7.7346743e-39
0.04281614 -0.055450477 0.73700005 6.4371532e-39
0.044339973 -0.055600964 0.73900008 5.1500199e-39
0.045747597 -0.055600964 0.73900008 4.9645538e-39
0.047346648 -0.055826657 0.7420001 4.70124e-39
0.048825681 -0.055901907 0.74300003 5.9004783e-39
0.05037614 -0.056052394 0.74500012 7.0954047e-39
0.051795192 -0.056052394 0.74500012 7.0028405e-39
0.053214278 -0.056052394 0.74500012 6.8195423e-39
0.054633301 -0.056052409 0.74500012 6.9110317e-39
-0.02642859 -0.055 0.75000012 9.6452578e-39
-0.025000002 -0.055000015 0.75000012 9.4623141e-39
-0.023477167 -0.054780014 0.7470001 9.2764949e-39
-0.02205427 -0.054780014 0.7470001 9.3708444e-39
-0.020576213 -0.054633357 0.74500012 9.5552426e-39
-0.019105727 -0.054486685 0.74300009 1.0108416e-38
-0.017690485 -0.054486685 0.74300009 1.0749086e-38
-0.016253376 -0.054413341 0.74200004 1.1403387e-38
-0.014780001 -0.05419334 0.73900008 1.2054851e-38
-0.013336233 -0.054046668 0.73700005 1.2051268e-38
-0.011932416 -0.054046683 0.73700005 1.2058812e-38
-0.010514286 -0.053973339 0.73600012 1.2423654e-38
-0.0090876138 -0.053826682 0.73400009 1.2806469e-38
-0.0076685925 -0.05368001 0.73200005 1.3632676e-38
-0.0062743169 -0.053679995 0.73200005 1.4468936e-38
-0.0048800022 -0.053679995 0.73200011 1.5944816e-38
-0.0034809893 -0.053606652 0.73100007 1.7427044e-38
-0.0020886005 -0.053606667 0.73100007 1.7884013e-38
-0.00069334893 -0.053386696 0.7280001 1.8347184e-38
0.0006942919 -0.053460024 0.72900009 1.4840264e-38
0.0020828734 -0.053460009 0.72900009 1.1418923e-38
0.0034666306 -0.053386681 0.7280001 9.3851586e-39
0.0048533143 -0.053386681 0.7280001 7.4630704e-39
0.0062228334 -0.053240009 0.72600007 1.0868158e-38
0.0076266346 -0.053386681 0.7280001 1.4369773e-38
0.0090132933 -0.053386681 0.7280001 1.4461637e-38
0.010399954 -0.053386681 0.7280001 1.4632401e-38
0.011754241 -0.053240009 0.72600007 1.1409556e-38
0.013137114 -0.053240009 0.72600001 8.0819188e-39
0.014519966 -0.053240009 0.72600007 4.3216507e-39
0.015946655 -0.053386681 0.7280001 6.4320861e-40
0.017333314 -0.053386681 0.7280001 1.9314167e-39
0.01866856 -0.053240024 0.72600007 3.2236086e-39
0.020051436 -0.053240024 0.72600007 6.9124904e-39
0.021434288 -0.053240009 0.72600007 1.0497267e-38
0.022817139 -0.053240009 0.72600007 7.5495249e-39
0.024199992 -0.053240009 0.72600007 4.5953761e-39
0.025547596 -0.053166665 0.72500008 6.259547e-39
0.026928548 -0.053166665 0.72500002 8.0169939e-39
0.028309515 -0.053166665 0.72500008 7.6371131e-39
0.029690443 -0.053166665 0.72500002 7.3576619e-39
0.03124286 -0.053460024 0.72900009 1.0030936e-38
0.032631405 -0.053460009 0.72900009 1.2705633e-38
0.034113292 -0.053606667 0.73100007 1.2241781e-38
0.035505682 -0.053606682 0.73100007 1.1684678e-38
0.03694855 -0.053680025 0.73200011 1.2060638e-38
0.038447596 -0.053826697 0.73400009 1.2430107e-38
0.039954267 -0.053973339 0.73600012 1.0684849e-38
0.041412335 -0.054046683 0.73700005 8.9356893e-39
0.04293238 -0.054193355 0.73900008 8.3742913e-39
0.044399962 -0.054266684 0.74000007 7.81358e-39
0.04580947 -0.054266684 0.74000001 6.623652e-39
0.047346625 -0.054413341 0.7420001 5.5284602e-39
0.048825692 -0.054486685 0.74300009 6.3593012e-39
0.050376154 -0.054633357 0.74500012 7.1883136e-39
0.051795185 -0.054633357 0.74500012 7.0035468e-39
0.05342856 -0.054853342 0.74800009 6.7273397e-39
0.054853313 -0.054853342 0.74800009 6.9121023e-39
0.056278035 -0.054853328 0.74800009 7.0961096e-39
-0.027931452 -0.053714328 0.75200009 8.9296091e-39
-0.026428582 -0.05357144 0.75000012 1.057763e-38
-0.025000017 -0.053571425 0.75000012 9.9236636e-39
-0.02350861 -0.053428568 0.74800009 9.185737e-39
-0.022054298 -0.053357147 0.7470001 9.1842867e-39
-0.020576198 -0.053214304 0.74500012 9.1850182e-39
-0.019157171 -0.053214304 0.74500012 9.6431321e-39
-0.017690513 -0.053071432 0.74300009 1.0103373e-38
-0.016253395 -0.052999981 0.7420001 1.0561462e-38
-0.014780007 -0.052785702 0.73900008 1.1026735e-38
-0.013336245 -0.05264286 0.73700005 1.1387976e-38
-0.01193243 -0.05264286 0.73700005 1.1763221e-38
-0.01051429 -0.052571423 0.73600012 1.2218464e-38
-0.009087638 -0.052428581 0.73400009 1.269201e-38
-0.0076895519 -0.052428581 0.73400009 1.3253447e-38
-0.0062743234 -0.052285708 0.73200005 1.380952e-38
-0.0048733796 -0.052214287 0.73100007 1.5294712e-38
-0.0034809874 -0.052214287 0.73100007 1.6679783e-38
-0.0020885968 -0.052214302 0.73100007 1.7242281e-38
-0.00069335825 -0.052000009 0.7280001 1.778358e-38
0.00069427327 -0.052071445 0.72900009 1.4468149e-38
0.0020828566 -0.052071445 0.72900009 1.1044709e-38
0.0034666455 -0.052000023 0.7280001 1.1678176e-38
0.0048399926 -0.051857166 0.72600007 1.2335792e-38
0.0062228427 -0.051857151 0.72600007 1.5291088e-38
0.0076056947 -0.051857151 0.72600007 1.8242765e-38
0.0090132859 -0.052000023 0.7280001 1.9174061e-38
0.010371396 -0.051857151 0.72600007 1.9988738e-38
