# .PCD v0.7 - Point Cloud Data file format
VERSION 0.7
FIELDS x y z rgb
SIZE 4 4 4 4
TYPE F F F F
COUNT 1 1 1 1
WIDTH 971
HEIGHT 1
VIEWPOINT 0 0 0 1 0 0 0
POINTS 971
DATA ascii
0.013372383 0.037301928 0.73900002 1.6115357e-38
0.014740002 0.037200965 0.73700005 1.7040187e-38
0.01614381 0.037200972 0.73700005 1.7953898e-38
0.017595239 0.037301935 0.73900002 1.5654445e-38
0.018951429 0.03720098 0.73700005 1.3262776e-38
0.020410478 0.037301928 0.73900002 1.5575884e-38
0.021759052 0.037200987 0.73700005 1.777347e-38
0.023225715 0.037301913 0.73900002 1.8148336e-38
0.024633335 0.037301913 0.73900002 1.8509928e-38
0.026040955 0.037301928 0.73900002 1.8979497e-38
0.027485715 0.03735242 0.74000001 1.9347935e-38
0.028973337 0.037453368 0.74199998 1.687342e-38
0.030386671 0.037453368 0.74200004 1.4276928e-38
0.031842861 0.037503816 0.74300009 1.4466351e-38
0.03321334 0.037453361 0.74200004 1.455066e-38
0.034626674 0.037453368 0.74200004 1.1875601e-38
0.036185719 0.037604783 0.74500006 9.1201773e-39
0.037705719 0.037705738 0.7470001 1.1978557e-38
0.039128579 0.037705738 0.74700004 1.4832293e-38
0.04060572 0.03775622 0.74800003 1.3458726e-38
0.042030483 0.037756212 0.74800009 1.2063568e-38
0.043571435 0.037857171 0.75000006 1.0664824e-38
0.045300007 0.038109563 0.75500005 9.2188497e-39
0.046738103 0.038109567 0.75500005 9.9636553e-39
0.048176199 0.038109567 0.75500005 1.069762e-38
0.049680006 0.038160022 0.75600004 1.0604707e-38
0.051255245 0.038260985 0.75800002 1.0420675e-38
0.052907627 0.038412403 0.76100004 9.7778249e-39
0.054357149 0.038412403 0.76100004 9.1353421e-39
0.055806674 0.038412396 0.7610001 1.0603642e-38
-0.034690477 0.040595252 0.77500004 2.3938228e-39
-0.033085715 0.040438123 0.77199996 3.0388334e-39
-0.031615239 0.040438119 0.77200001 5.5270098e-39
-0.029988576 0.040228598 0.76800001 8.0109389e-39
-0.028488573 0.040176209 0.76700002 9.7659223e-39
-0.026886668 0.03996668 0.76300001 1.1515404e-38
-0.025333337 0.039809525 0.76000011 1.0223194e-38
-0.023822861 0.03970477 0.75800008 9.0321856e-39
-0.02237905 0.039704792 0.75800008 7.4645081e-39
-0.020852385 0.039547656 0.75500005 5.8043072e-39
-0.019362858 0.039442878 0.75300002 6.2602673e-39
-0.017904762 0.039390508 0.75200009 6.7269823e-39
-0.016428575 0.039285738 0.75000012 6.9099401e-39
-0.014960001 0.039180975 0.74800009 7.1811249e-39
-0.013517145 0.039128602 0.74700004 3.7717139e-39
-0.012061907 0.039023828 0.74500006 3.6778339e-40
-0.01064286 0.039023824 0.74500006 6.9093487e-39
-0.0091990484 0.038919061 0.74300003 1.3468142e-38
-0.0077838111 0.038919058 0.74300009 1.687224e-38
-0.0063685724 0.038919058 0.74300009 2.0260078e-38
-0.0049333335 0.038761932 0.74000001 1.8983678e-38
-0.0035238101 0.038761932 0.74000001 1.7691113e-38
-0.0021114289 0.038709532 0.73900002 1.6033717e-38
-0.00070380955 0.03870954 0.73900002 1.4384971e-38
0.00070380967 0.03870954 0.73900002 9.9467206e-39
0.0021057143 0.038604785 0.73700005 5.510637e-39
0.0035095238 0.038604781 0.73700005 6.7192065e-39
0.0049133338 0.038604785 0.73700005 7.8273533e-39
0.0063171433 0.038604788 0.73700005 1.1794596e-38
0.0077209533 0.038604777 0.73700005 1.5758218e-38
0.0091247633 0.038604781 0.73700005 1.5390503e-38
0.010528573 0.038604774 0.73700005 1.5012318e-38
0.011964764 0.038709551 0.73900002 1.473063e-38
0.013372383 0.038709559 0.73900002 1.4465558e-38
0.014740002 0.038604777 0.73700005 1.5757384e-38
0.01614381 0.038604781 0.73700005 1.6949138e-38
0.017595239 0.038709536 0.73900002 1.2154365e-38
0.018951429 0.038604788 0.73700005 7.2659119e-39
0.020410478 0.03870954 0.73900002 8.2922383e-39
0.021818096 0.038709547 0.73900002 9.4075191e-39
0.023225715 0.03870954 0.73899996 9.8616562e-39
0.024633335 0.038709532 0.73900002 1.0327626e-38
0.026040955 0.03870954 0.73900002 1.1064078e-38
0.027485715 0.038761936 0.74000001 1.1816737e-38
0.028973339 0.038866706 0.74199998 9.4918283e-39
0.030386673 0.038866691 0.74200004 7.1636774e-39
0.031842858 0.038919061 0.74300009 9.3917854e-39
0.033258099 0.038919065 0.74300009 1.1510085e-38
0.03476667 0.03902382 0.74500012 9.0172365e-39
0.036185715 0.039023817 0.74500012 6.4332323e-39
0.037705716 0.039128587 0.7470001 1.0685592e-38
0.039180957 0.039180968 0.74800003 1.4835793e-38
0.040605716 0.039180972 0.74800003 1.2715353e-38
0.04203048 0.039180979 0.74800003 1.05931e-38
0.043571431 0.039285738 0.75000006 9.9448793e-39
0.045300007 0.039547641 0.75500005 9.3153628e-39
0.046738107 0.039547648 0.75500005 1.0515021e-38
0.048176203 0.039547648 0.755 1.1801437e-38
0.049680006 0.03960003 0.75600004 1.1340825e-38
0.051255245 0.039704785 0.75800008 1.0879856e-38
0.052838102 0.039809525 0.76000011 1.005298e-38
0.05428572 0.039809547 0.76000005 9.3168537e-39
0.055806674 0.039861936 0.76100004 9.9622049e-39
-0.034690477 0.042071443 0.7750001 1.9357327e-39
-0.033085715 0.041908599 0.77200001 2.2151978e-39
-0.031533334 0.041800037 0.77000004 4.7937804e-39
-0.029949527 0.041637171 0.76700002 7.3716497e-39
-0.028340003 0.041420013 0.76300001 9.8616309e-39
-0.026886668 0.04142002 0.76300001 1.2246457e-38
-0.025333336 0.041257147 0.76000011 9.4798864e-39
-0.023885716 0.041257162 0.76000011 6.7269781e-39
-0.022379048 0.041148592 0.75800008 5.8997468e-39
-0.020880003 0.041040022 0.75600004 4.9702613e-39
-0.019414289 0.040985752 0.75500005 5.0516852e-39
-0.017904764 0.040822886 0.75200003 5.1560805e-39
-0.016384766 0.040605735 0.74800003 6.2713838e-39
-0.014960002 0.040605739 0.74800003 7.2726101e-39
-0.013517145 0.040551458 0.74700004 3.6741695e-39
-0.012061905 0.040442877 0.74500012 9.4762809e-41
-0.010642858 0.04044288 0.74500012 5.8879577e-39
-0.0091990484 0.040334292 0.74300003 1.1611264e-38
-0.0077838106 0.040334295 0.74300003 1.5582879e-38
-0.0063600009 0.040280025 0.74199998 1.9536484e-38
-0.0049466672 0.040280029 0.74199998 1.945686e-38
-0.0035333338 0.040280022 0.74200004 1.9347375e-38
-0.0021142859 0.040171463 0.74000001 1.5659534e-38
-0.00070380955 0.040117152 0.73900002 1.187523e-38
0.00070380967 0.040117156 0.73900002 6.6197634e-39
0.0021114287 0.040117159 0.73900002 1.287925e-39
0.0035190478 0.040117167 0.73900002 1.9289826e-39
0.0049266675 0.040117167 0.73900002 2.4940184e-39
0.0063342866 0.040117171 0.73899996 8.3894604e-39
0.0077419057 0.040117156 0.73900002 1.4280237e-38
0.0091495244 0.040117159 0.73900002 1.4393988e-38
0.010557144 0.040117163 0.73900002 1.4457744e-38
0.011964763 0.040117167 0.73900002 1.3606015e-38
0.013372383 0.040117171 0.73900002 1.2804316e-38
0.014780002 0.040117178 0.73900002 1.4391055e-38
0.016143812 0.04000859 0.73699999 1.5928907e-38
0.017595239 0.040117163 0.73900002 8.6555726e-39
0.019002859 0.040117167 0.73900002 1.294392e-39
0.020410478 0.040117171 0.73900002 1.1024786e-39
0.021818096 0.040117174 0.73900002 9.2883107e-40
0.023225717 0.040117178 0.73900002 1.5623315e-39
0.024633337 0.040117182 0.73899996 2.1255287e-39
0.026040956 0.040117152 0.73900002 3.1321207e-39
0.027485717 0.040171456 0.74000001 4.1505802e-39
0.028973337 0.040280018 0.74200004 2.1126396e-39
0.030427624 0.040334299 0.74300003 9.693342e-41
0.031842858 0.040334288 0.74300009 4.3346506e-39
0.033347625 0.04044288 0.74500012 8.4665276e-39
0.034766674 0.04044288 0.74500006 6.1580818e-39
0.036282863 0.040551439 0.7470001 3.7768034e-39
0.037705719 0.040551446 0.7470001 9.3105969e-39
0.039180957 0.04060572 0.74800009 1.4824307e-38
0.04060572 0.040605724 0.74800003 1.1973454e-38
0.042030483 0.040605731 0.74800003 9.0275697e-39
0.043571435 0.040714305 0.75000012 9.2058863e-39
0.045180008 0.040877167 0.75300002 9.404327e-39
0.046614293 0.040877171 0.75300002 1.1163612e-38
0.048176199 0.040985744 0.75500005 1.281307e-38
0.049680006 0.041040026 0.75600004 1.2076958e-38
0.05139048 0.04125715 0.76000011 1.1249355e-38
0.052838098 0.041257143 0.76000011 1.0421394e-38
0.054285716 0.041257165 0.76000005 9.5026701e-39
0.055806674 0.041311458 0.76100004 9.3182733e-39
-0.034600958 0.043435268 0.773 5.1571595e-39
-0.033085715 0.043379076 0.77200001 5.4287382e-39
-0.031533338 0.043266688 0.77000004 6.4464788e-39
-0.029949527 0.043098118 0.76700002 7.4623824e-39
-0.028414289 0.042985745 0.76500005 9.3055214e-39
-0.02688667 0.042873345 0.76300007 1.1148691e-38
-0.02536667 0.042760972 0.7610001 9.7625521e-39
-0.023885716 0.04270478 0.76000011 8.4646849e-39
-0.02237905 0.042592406 0.75800008 6.0730426e-39
-0.020880001 0.042480033 0.75600004 3.76744e-39
-0.019414287 0.042423852 0.75500005 4.687199e-39
-0.017904762 0.042255268 0.75200003 5.6052009e-39
-0.016428575 0.042142883 0.75000006 6.6333321e-39
-0.014960001 0.042030491 0.74800003 7.6471366e-39
-0.013517145 0.041974306 0.74700004 3.8639698e-39
-0.012061906 0.041861922 0.74500006 9.222786e-41
-0.010642859 0.041861925 0.74500006 3.4072432e-39
-0.0091990484 0.041749537 0.74300003 6.6384371e-39
-0.0077838111 0.041749541 0.74300003 1.1986151e-38
-0.0063685724 0.04174953 0.74300009 1.7427823e-38
-0.0049466672 0.041693352 0.74200004 1.7978537e-38
-0.0035333338 0.041693352 0.74200004 1.8521208e-38
-0.0021142859 0.041580979 0.74000001 1.2341234e-38
-0.000704762 0.041580986 0.74000001 6.2452341e-39
0.000704762 0.041580979 0.74000001 4.3184221e-39
0.0021142859 0.041580986 0.74000001 2.3880858e-39
0.0035190478 0.041524779 0.73900002 2.5728358e-39
0.0049266675 0.041524783 0.73900002 2.8498221e-39
0.0063342866 0.041524787 0.73900002 5.5267281e-39
0.0077419057 0.041524787 0.73899996 8.2011553e-39
0.0091495253 0.041524783 0.73900002 1.0234528e-38
0.010557145 0.041524779 0.73900002 1.224762e-38
0.011964764 0.041524779 0.73900002 1.131839e-38
0.013336192 0.041412406 0.73700005 1.0407312e-38
0.014780002 0.04152479 0.73900002 1.1605581e-38
0.016143812 0.041412402 0.73700005 1.2883631e-38
0.017547622 0.041412391 0.73700005 7.1768019e-39
0.019002859 0.041524779 0.73900002 1.5615874e-39
0.020410478 0.041524772 0.73900002 1.0105968e-39
0.021818096 0.041524775 0.73900002 5.5139693e-40
0.023257144 0.041580986 0.74000001 1.3782513e-39
0.024666671 0.041580979 0.74000001 2.204412e-39
0.026076194 0.041580986 0.74000001 3.0334426e-39
0.027485717 0.041580979 0.74000001 3.9492865e-39
0.028973337 0.041693352 0.74200004 3.490109e-39
0.030427622 0.041749541 0.74300003 3.122767e-39
0.031928577 0.041861925 0.74500006 5.707434e-39
0.033347625 0.041861933 0.74500006 8.281709e-39
0.034860007 0.041974302 0.74700004 5.0567158e-39
0.036282863 0.041974299 0.7470001 1.9293161e-39
0.037705719 0.041974302 0.7470001 6.4482963e-39
0.039180961 0.042030498 0.74800003 1.0962546e-38
0.04060572 0.042030495 0.74800009 9.4863212e-39
0.042030483 0.042030491 0.74800009 8.0112584e-39
0.043571435 0.042142875 0.75000006 8.6573803e-39
0.045180008 0.042311456 0.75300002 9.3103377e-39
0.046738103 0.042423841 0.755 1.0790173e-38
0.048176199 0.042423826 0.75500005 1.2260989e-38
0.049680006 0.042480025 0.75599998 1.180254e-38
0.05139048 0.042704768 0.76000011 1.1343347e-38
0.052838098 0.042704772 0.76000011 1.0790882e-38
0.054285716 0.042704783 0.76000005 1.0239142e-38
-0.034600955 0.044907656 0.773 8.3904988e-39
-0.033085715 0.044849548 0.77200001 8.5648105e-39
-0.031615239 0.044849552 0.77199996 8.008743e-39
-0.029871434 0.044442873 0.76500005 7.4591608e-39
-0.02841429 0.044442873 0.76500005 8.7487996e-39
-0.02688667 0.044326682 0.76300001 1.0040612e-38
-0.02536667 0.04421049 0.7610001 1.0140715e-38
-0.023885718 0.044152383 0.76000011 1.0125277e-38
-0.02237905 0.044036206 0.75800008 6.3442247e-39
-0.020880001 0.043920022 0.75600004 2.5760798e-39
-0.019414289 0.043861933 0.755 4.3238059e-39
-0.017904762 0.043687645 0.75200003 5.9836986e-39
-0.016428575 0.043571457 0.75000012 7.0093524e-39
-0.014960002 0.043455258 0.74800003 7.9197914e-39
-0.013517145 0.043397166 0.74700004 4.0415115e-39
-0.012061906 0.043280963 0.74500012 9.2569777e-41
-0.010642859 0.043280967 0.74500012 9.187165e-40
-0.0091990484 0.043164764 0.74300003 1.6674359e-39
-0.0078047635 0.04328097 0.74500006 8.4787329e-39
-0.0063685724 0.04316476 0.74300009 1.5205407e-38
-0.0049466672 0.043106701 0.74200004 1.6415854e-38
-0.0035380956 0.043164767 0.74300009 1.7590603e-38
-0.0021142859 0.042990502 0.74000001 9.1229855e-39
-0.00070476194 0.042990506 0.74000001 5.5929745e-40
0.000704762 0.042990506 0.74000001 2.0207439e-39
0.0021142859 0.042990502 0.74000001 3.4915537e-39
0.0035238101 0.042990506 0.74000001 3.3086086e-39
0.0049266675 0.042932395 0.73900002 3.1253272e-39
0.0063342866 0.042932402 0.73900002 2.6658218e-39
0.0077419057 0.042932402 0.73900002 2.1309882e-39
0.0091495244 0.042932406 0.73900002 6.0950191e-39
0.010557144 0.042932402 0.73900002 9.9427241e-39
0.011932382 0.042816199 0.73700005 9.0121148e-39
0.013336192 0.042816203 0.73700005 8.0069928e-39
0.014740002 0.042816211 0.73700005 8.923243e-39
0.01614381 0.042816211 0.73700005 9.7500553e-39
0.01754762 0.042816214 0.73700005 5.7895851e-39
0.019002859 0.042932414 0.73899996 1.7463234e-39
0.020410478 0.042932406 0.73900002 1.0105744e-39
0.021818096 0.042932406 0.73900002 1.8404234e-40
0.023225715 0.042932406 0.73900002 1.2860571e-39
0.024633335 0.04293241 0.73900002 2.3038103e-39
0.026076192 0.042990521 0.74000001 3.030989e-39
0.027485715 0.042990524 0.73999995 3.6834952e-39
0.02889524 0.042990502 0.74000001 4.9594769e-39
0.030304763 0.042990502 0.74000001 6.1669912e-39
0.032014292 0.043397155 0.74700004 7.0907482e-39
0.033347622 0.043280963 0.74500012 8.0083703e-39
0.034860007 0.043397162 0.74700004 4.0411332e-39
0.036282863 0.043397155 0.7470001 9.4750197e-41
0.037705719 0.043397162 0.7470001 3.5909899e-39
0.039180957 0.043455254 0.74800003 7.0889784e-39
0.040605716 0.043455258 0.74800003 7.0896846e-39
0.04203048 0.043455243 0.74800009 7.0000211e-39
0.043455239 0.043455247 0.74800009 8.1024254e-39
0.045300007 0.043861948 0.75500005 9.2192225e-39
0.046738103 0.043861941 0.75500005 1.0425344e-38
0.048176199 0.043861941 0.75500005 1.161957e-38
0.049811434 0.04403621 0.75800008 1.1529175e-38
0.051390484 0.044152386 0.76000011 1.1344421e-38
0.052838102 0.04415239 0.76000011 1.1159666e-38
0.05428572 0.04415239 0.76000005 1.0974912e-38
-0.033085715 0.046320036 0.77200001 9.03335e-39
-0.031615239 0.046320029 0.77200001 7.7339386e-39
-0.029871432 0.045900017 0.76500005 6.5354332e-39
-0.028414289 0.045900021 0.76500005 6.9067395e-39
-0.026957147 0.045900021 0.76500005 7.2773409e-39
-0.025433335 0.045780011 0.76300007 7.0036575e-39
-0.023917146 0.045660023 0.7610001 6.7349151e-39
-0.02237905 0.045480017 0.75800008 4.0508274e-39
-0.020880003 0.045360029 0.75600004 1.3782639e-39
-0.019414289 0.045300029 0.75500005 3.4043761e-39
-0.017857146 0.045000024 0.75000012 5.4345143e-39
-0.016384764 0.044880021 0.74800003 6.7349893e-39
-0.014960002 0.044880006 0.74800009 8.0213309e-39
-0.013517145 0.044820026 0.74700004 5.5190995e-39
-0.012061907 0.044700023 0.74500012 3.0312902e-39
-0.01064286 0.044700027 0.74500006 4.4174323e-39
-0.0091990484 0.044580009 0.74300009 5.6952371e-39
-0.007804763 0.044700023 0.74500012 8.470391e-39
-0.0063685728 0.044580016 0.74300003 1.1335334e-38
-0.0049466672 0.044520028 0.74200004 1.2255588e-38
-0.0035238101 0.044400029 0.74000001 1.3261369e-38
-0.0021114289 0.044340026 0.73900002 7.0889125e-39
-0.00070380955 0.044340029 0.73900002 9.187179e-40
0.000704762 0.044400033 0.74000001 2.1132996e-39
0.0021114287 0.044340037 0.73899996 3.3096848e-39
0.0035190478 0.044340029 0.73900002 2.7579656e-39
0.0049266675 0.044340022 0.73900002 2.1151353e-39
0.0063342866 0.044340029 0.73900002 1.8410806e-39
0.0077419057 0.044340029 0.73900002 1.571311e-39
0.0091247633 0.044220015 0.73700011 5.4348548e-39
0.010528573 0.044220019 0.73700005 9.3855734e-39
0.011932382 0.044220023 0.73700005 1.0307872e-38
0.013336192 0.044220027 0.73700005 1.1216174e-38
0.014780002 0.044340018 0.73900002 1.076452e-38
0.01614381 0.044220034 0.73700005 1.0393215e-38
0.017595239 0.044340026 0.73900002 5.9743323e-39
0.019028572 0.044400029 0.74000001 1.561565e-39
0.020438097 0.044400033 0.74000001 1.0105506e-39
0.021847621 0.044400036 0.73999995 5.5137311e-40
0.023257144 0.044400029 0.74000001 5.5284265e-39
0.024633335 0.044340026 0.73900002 1.0499798e-38
0.026076192 0.044400036 0.74000001 1.0778949e-38
0.027560005 0.044520028 0.74200004 1.1059061e-38
0.02889524 0.04440004 0.74000001 9.8454123e-39
0.030304763 0.04440004 0.74000001 8.6688121e-39
0.032014292 0.044820014 0.74700004 1.0048898e-38
0.033437148 0.044820018 0.74700004 1.1518224e-38
0.034860007 0.044820022 0.74700004 9.392692e-39
0.036282863 0.044820014 0.7470001 7.2561182e-39
0.037705719 0.044820018 0.7470001 6.4403972e-39
0.039180961 0.044880006 0.74800003 5.7017854e-39
0.04060572 0.04488001 0.74800003 5.4334717e-39
0.042030483 0.04488001 0.74800003 5.1644168e-39
0.043455243 0.044879999 0.74800009 7.0972614e-39
0.045360006 0.045360029 0.75599998 9.1302596e-39
0.046800006 0.045360025 0.75600004 1.060758e-38
0.048240006 0.045360021 0.75600004 1.2079459e-38
0.049680006 0.045360029 0.75600004 1.1804311e-38
0.051458102 0.045660011 0.7610001 1.1528449e-38
0.052907627 0.045660015 0.7610001 1.1436256e-38
0.054357149 0.045660015 0.76100004 1.1251146e-38
-0.028414289 0.047357164 0.76500005 5.0656953e-39
-0.026957147 0.047357168 0.76500005 4.5129055e-39
-0.025433337 0.047233347 0.76300007 3.861823e-39
-0.023917146 0.047109552 0.76100004 3.2243317e-39
-0.022438096 0.04704763 0.76000005 1.7456143e-39
-0.020880001 0.046800021 0.75600004 1.847598e-40
-0.019414287 0.046738129 0.75500005 2.5721156e-39
-0.017857146 0.046428595 0.75000006 4.8852936e-39
-0.016384766 0.046304788 0.74800003 6.5667452e-39
-0.014960002 0.046304788 0.74800003 8.107798e-39
-0.01353524 0.046304781 0.74800009 7.0745884e-39
-0.012094287 0.046242882 0.74700004 5.9819119e-39
-0.010642858 0.046119064 0.74500012 7.9320037e-39
-0.0091990484 0.04599525 0.74300009 9.7568418e-39
-0.0077838106 0.045995254 0.74300009 8.5557721e-39
-0.0063685728 0.045995258 0.74300003 7.3698574e-39
-0.0049466672 0.045933358 0.74200004 8.1924855e-39
-0.0035238101 0.045809563 0.74000001 8.9249708e-39
-0.0021114289 0.045747638 0.73900002 5.1442437e-39
-0.00070380955 0.045747645 0.73900002 1.2864284e-39
0.000704762 0.045809548 0.74000001 2.204419e-39
0.0021114287 0.045747649 0.73900002 3.124932e-39
0.0035190478 0.045747641 0.73899996 2.1147472e-39
0.0049266675 0.04574763 0.73900002 1.1042218e-39
0.0063342866 0.045747634 0.73900002 1.0116941e-39
0.0077419057 0.04574763 0.73900002 9.2236127e-40
0.0091495244 0.045747634 0.73900002 4.8709219e-39
0.010557144 0.045747641 0.73900002 8.8428519e-39
0.011932382 0.045623831 0.73700005 1.1709527e-38
0.013372383 0.045747638 0.73900002 1.4454879e-38
0.014780002 0.045747641 0.73900002 1.2709259e-38
0.016187619 0.045747641 0.73900002 1.0951786e-38
0.017595239 0.045747638 0.73900002 6.1533398e-39
0.019028574 0.045809545 0.74000001 1.2860571e-39
0.020438099 0.045809548 0.74000001 1.1023861e-39
0.021847622 0.045809548 0.74000001 9.3098066e-40
0.023225717 0.045747641 0.73900002 9.7763143e-39
0.024633337 0.045747649 0.73900002 1.860471e-38
0.026076194 0.045809548 0.74000001 1.8525063e-38
0.027485717 0.045809548 0.74000001 1.8409889e-38
0.028895242 0.045809556 0.74000001 1.4694118e-38
0.030304765 0.045809556 0.74000001 1.1057349e-38
0.031842858 0.045995243 0.74300003 1.3009991e-38
0.033437148 0.046242874 0.74700004 1.4933849e-38
0.034860007 0.046242874 0.74700004 1.46637e-38
0.036282863 0.046242867 0.7470001 1.4365187e-38
0.037705719 0.046242874 0.7470001 9.3045027e-39
0.039180961 0.04630477 0.74800009 4.2384808e-39
0.040714294 0.046428606 0.75000006 3.777867e-39
0.042142864 0.046428598 0.75000012 3.3248146e-39
0.043571435 0.046428595 0.75000006 6.1749716e-39
0.045360006 0.04680004 0.75600004 8.9451607e-39
0.046800006 0.046800032 0.75600004 1.0794485e-38
0.048240006 0.046800029 0.75600004 1.2538641e-38
0.049680006 0.046800036 0.75600004 1.2171299e-38
0.051120006 0.046800029 0.75600004 1.171248e-38
-0.029793337 0.048686687 0.76300001 9.0196117e-39
-0.028414289 0.048814308 0.76500005 8.6544235e-39
-0.02688667 0.048686676 0.76300001 8.1830533e-39
-0.025433337 0.048686683 0.76300001 5.0567046e-39
-0.023917146 0.04855907 0.76100004 1.932151e-39
-0.022438096 0.048495248 0.76000005 1.4708253e-39
-0.020880001 0.048240017 0.75600004 1.1034735e-39
-0.019414287 0.048176222 0.75500005 3.0359538e-39
-0.017857144 0.047857169 0.75000006 4.9674433e-39
-0.016428573 0.047857173 0.75000006 5.9906224e-39
-0.015000002 0.047857162 0.75000012 7.0029162e-39
-0.01353524 0.047729544 0.74800003 6.6279904e-39
-0.012094287 0.047665741 0.74700004 6.3489414e-39
-0.010642859 0.047538113 0.74500006 8.9347295e-39
-0.0092238123 0.047538113 0.74500006 1.1426417e-38
-0.007804763 0.047538105 0.74500012 1.1419176e-38
-0.0063685724 0.047410484 0.74300003 1.1313354e-38
-0.0049533336 0.047410492 0.74300003 1.0029096e-38
-0.0035333335 0.047346696 0.74199998 8.7337258e-39
-0.0021142862 0.047219079 0.74000001 4.6865194e-39
-0.00070476194 0.047219086 0.74000001 7.3506652e-40
0.000704762 0.047219083 0.74000001 2.0218243e-39
0.0021142859 0.04721909 0.73999995 3.3093149e-39
0.0035238101 0.047219083 0.74000001 3.4972906e-39
0.0049266675 0.047155272 0.73899996 3.6752527e-39
0.0063342866 0.047155265 0.73900002 3.0317176e-39
0.0077419057 0.047155265 0.73900002 2.3881405e-39
0.0091495253 0.047155257 0.73900002 5.8029031e-39
0.010557145 0.047155254 0.73900002 9.221714e-39
0.011964764 0.047155257 0.73900002 1.2077315e-38
0.013372383 0.047155261 0.73900002 1.4837715e-38
0.014780002 0.047155265 0.73899996 1.4094734e-38
0.016187619 0.047155257 0.73900002 1.3265636e-38
0.017595239 0.047155261 0.73900002 9.7568054e-39
0.019028572 0.047219079 0.74000001 6.2451739e-39
0.020438097 0.047219075 0.74000001 3.4004259e-39
0.021847621 0.047219079 0.74000001 5.5940255e-40
0.023225715 0.047155268 0.73899996 8.9506482e-39
0.024633335 0.047155261 0.73900002 1.7342761e-38
0.026076194 0.047219086 0.74000001 1.7428424e-38
0.027485717 0.04721909 0.74000001 1.7605653e-38
0.028856192 0.04715525 0.73900002 1.3988929e-38
0.030304765 0.047219064 0.74000001 1.0428231e-38
0.031842858 0.047410488 0.74300003 1.2176771e-38
0.033437148 0.04766573 0.74700004 1.3931327e-38
0.034860007 0.047665734 0.74700004 1.3836975e-38
0.036282863 0.047665723 0.7470001 1.3655326e-38
0.037756193 0.047729548 0.74800003 9.0264697e-39
0.039180957 0.047729533 0.74800003 4.506779e-39
0.040714294 0.047857165 0.75000012 4.7901552e-39
0.042142864 0.047857169 0.75000006 5.0689506e-39
0.043571435 0.047857169 0.75000006 6.8210585e-39
0.045360003 0.048240032 0.75600004 8.6703801e-39
0.046738103 0.048176225 0.75500005 1.0422484e-38
0.048176199 0.048176229 0.75500005 1.2170944e-38
0.051120002 0.048240032 0.75599998 1.171284e-38
-0.029793335 0.05014002 0.76300001 1.2525223e-38
-0.028340003 0.050140012 0.76300007 1.2257979e-38
-0.026886668 0.050140016 0.76300001 1.1874092e-38
-0.025366671 0.050008599 0.7610001 6.2502017e-39
-0.023917148 0.050008602 0.7610001 5.5390666e-40
-0.022438098 0.049942873 0.76000005 1.2860963e-39
-0.020935241 0.049811453 0.75800008 1.9332342e-39
-0.019440001 0.049680024 0.75600004 3.5012395e-39
-0.017857146 0.049285743 0.75000006 4.9706621e-39
-0.016428575 0.049285736 0.75000012 5.4252307e-39
-0.014960002 0.049154308 0.74800003 5.8025724e-39
-0.01353524 0.049154311 0.74800003 6.2685209e-39
-0.012094287 0.049088594 0.74700004 6.7234132e-39
-0.010642859 0.048957162 0.74500012 9.9391115e-39
-0.0092238104 0.048957165 0.74500012 1.3074452e-38
-0.0078047635 0.048957173 0.74500012 1.4198023e-38
-0.0063685724 0.04882573 0.74300003 1.527491e-38
-0.0049533336 0.048825733 0.74300003 1.187697e-38
-0.0035333335 0.048760027 0.74199998 8.4618192e-39
-0.0021142862 0.048628595 0.74000001 4.3166481e-39
-0.00070476194 0.048628595 0.74000001 9.2571178e-41
0.000704762 0.048628598 0.74000001 1.7463248e-39
0.0021142859 0.048628602 0.74000001 3.4058209e-39
0.0035238101 0.048628606 0.74000001 4.7984215e-39
0.0049333335 0.048628606 0.74000001 6.1677297e-39
0.0063428576 0.048628598 0.74000001 4.9599043e-39
0.0077419057 0.048562881 0.73900002 3.7746524e-39
0.0091495244 0.048562869 0.73900002 6.7313263e-39
0.010557144 0.048562873 0.73900002 9.5818449e-39
0.011964763 0.048562873 0.73900002 1.2447432e-38
0.013372383 0.048562877 0.73900002 1.5197134e-38
0.014780002 0.048562881 0.73900002 1.5382618e-38
0.01614381 0.048431445 0.73700005 1.5567678e-38
0.017595239 0.048562877 0.73900002 1.3363579e-38
0.019028572 0.048628606 0.74000001 1.1133301e-38
0.020438097 0.048628613 0.74000001 5.6941609e-39
0.021847621 0.048628606 0.74000001 1.9667084e-40
0.023257144 0.048628602 0.73999995 8.1229474e-39
0.024633335 0.048562888 0.73899996 1.5946187e-38
0.026146671 0.048760027 0.74200004 1.6423664e-38
0.027485715 0.048628598 0.74000001 1.675616e-38
0.02889524 0.048628602 0.74000001 1.322762e-38
0.030386671 0.048760019 0.74200004 9.6754909e-39
0.031928577 0.048957154 0.74500006 1.1336821e-38
0.033437148 0.04908859 0.74700004 1.2901997e-38
0.034860007 0.049088586 0.74700004 1.2913503e-38
0.036282863 0.049088579 0.7470001 1.2893686e-38
0.037705719 0.049088586 0.7470001 8.8234229e-39
0.039180961 0.049154304 0.74800003 4.695845e-39
0.040714294 0.049285736 0.75000006 5.8075554e-39
0.042142864 0.04928574 0.75000006 6.8174235e-39
0.043687623 0.049417168 0.75200003 7.5539376e-39
0.045360006 0.049680024 0.75600004 8.3001585e-39
0.046800006 0.049680017 0.75600004 1.0054417e-38
0.048240006 0.049680017 0.75600004 1.1711402e-38
-0.029871432 0.051728591 0.76500005 1.2726911e-38
-0.028414289 0.051728595 0.76500005 1.2815177e-38
-0.026886668 0.051593348 0.76300001 1.299876e-38
-0.02536667 0.051458128 0.76100004 9.3033676e-39
-0.023885716 0.051390484 0.76000011 5.6045058e-39
-0.022379048 0.05125526 0.75800008 3.3082877e-39
-0.020935239 0.05125526 0.75800008 1.1074462e-39
-0.019440003 0.051120017 0.75600004 4.9803016e-39
-0.017857146 0.050714299 0.75000006 8.8356352e-39
-0.016384764 0.05057906 0.74800009 6.3525245e-39
-0.014960002 0.05057906 0.74800009 3.8704144e-39
-0.013517145 0.05051145 0.74700004 5.5287937e-39
-0.012061905 0.05037621 0.74500012 7.1832633e-39
-0.010642858 0.05037621 0.74500012 8.4668037e-39
-0.0091990484 0.050240956 0.74300009 9.7544036e-39
-0.0077838101 0.050240956 0.74300009 1.1873903e-38
-0.0063685724 0.05024096 0.74300009 1.3976733e-38
-0.0049533341 0.050240964 0.74300003 1.2147138e-38
-0.0035333335 0.050173346 0.74200004 1.038966e-38
-0.0021142862 0.050038133 0.74000001 7.1664001e-39
-0.00070476194 0.050038137 0.74000001 3.9492977e-39
0.000704762 0.050038137 0.74000001 4.9609315e-39
0.0021142859 0.050038129 0.74000001 5.9736345e-39
0.0035238101 0.050038122 0.74000001 7.7396755e-39
0.004933334 0.050038118 0.74000001 9.5835825e-39
0.0063428581 0.050038125 0.74000001 5.7993368e-39
0.0077419057 0.049970508 0.73899996 2.0287144e-39
0.0091495253 0.049970485 0.73900002 4.1445308e-39
0.010557145 0.049970489 0.73900002 6.2531318e-39
0.011932382 0.049835257 0.73700005 8.0137611e-39
0.013336192 0.049835265 0.73700005 9.7633845e-39
0.014740002 0.049835268 0.73700005 1.0226233e-38
0.01614381 0.049835254 0.73700011 1.0707627e-38
0.017595239 0.0499705 0.73899996 1.1248929e-38
0.019002859 0.049970493 0.73900002 1.1883091e-38
0.020410478 0.049970496 0.73900002 6.5335947e-39
0.021847621 0.050038133 0.74000001 1.2875228e-39
0.023257144 0.050038129 0.74000001 5.2551341e-39
0.024666669 0.050038133 0.74000001 9.3131963e-39
0.026146671 0.050173357 0.74199998 1.2715494e-38
0.027485715 0.050038137 0.73999995 1.6094284e-38
0.02889524 0.050038133 0.74000001 1.454122e-38
0.030386673 0.050173353 0.74200004 1.2984321e-38
0.031842858 0.05024096 0.74300009 1.1870815e-38
0.033258099 0.050240964 0.74300003 1.0763467e-38
0.034860004 0.050511446 0.74700004 1.2805071e-38
0.03628286 0.050511435 0.7470001 1.4805322e-38
0.037705716 0.050511438 0.7470001 1.0123105e-38
0.039128575 0.050511442 0.7470001 5.3394264e-39
0.040605716 0.05057906 0.74800003 5.3433907e-39
0.04203048 0.050579064 0.74800003 5.4409799e-39
0.043571435 0.050714299 0.75000012 6.6370064e-39
0.045360006 0.051120032 0.75600004 7.839895e-39
0.046800006 0.051120035 0.75599998 9.9625735e-39
0.048240006 0.051120024 0.75600004 1.2081609e-38
-0.029871432 0.053185739 0.76500005 1.2901248e-38
-0.028414289 0.053185735 0.76500005 1.3460191e-38
-0.02688667 0.053046677 0.76300007 1.4012236e-38
-0.02536667 0.052907642 0.76100004 1.2360589e-38
-0.023885716 0.052838106 0.76000011 1.0676661e-38
-0.02237905 0.05269907 0.75800002 5.4186824e-39
-0.020935241 0.052699063 0.75800008 1.9735327e-40
-0.019440001 0.052560028 0.75600004 6.4773424e-39
-0.017857146 0.052142873 0.75000006 1.2707797e-38
-0.016428575 0.052142877 0.75000006 7.369849e-39
-0.014960002 0.052003827 0.74800003 1.9461583e-39
-0.013517146 0.05193432 0.74700004 4.7923272e-39
-0.012061905 0.051795255 0.74500006 7.5477565e-39
-0.010642858 0.051795248 0.74500012 6.9902933e-39
-0.0091990484 0.051656198 0.74300009 6.4418293e-39
-0.0077838106 0.051656201 0.74300009 9.5657103e-39
-0.0063685724 0.051656201 0.74300009 1.2604158e-38
-0.0049533341 0.051656209 0.74300003 1.2436616e-38
-0.0035333335 0.05158668 0.74200004 1.2233893e-38
-0.0021142862 0.051447649 0.74000001 1.0010431e-38
-0.00070476194 0.051447649 0.74000001 7.8150009e-39
0.000704762 0.051447649 0.74000001 8.1744648e-39
0.0021142859 0.051447656 0.74000001 8.4722281e-39
0.0035238101 0.051447656 0.73999995 1.0694233e-38
0.0049266675 0.051378123 0.73900002 1.2887152e-38
0.0063342866 0.051378123 0.73900002 6.6243905e-39
0.0077419057 0.051378123 0.73900002 2.8272458e-40
0.0091247624 0.051239066 0.73700005 1.6563166e-39
0.010557144 0.051378105 0.73900002 2.9466686e-39
0.011932382 0.051239066 0.73700005 3.5905863e-39
0.013372383 0.051378112 0.73900002 4.239927e-39
0.014740002 0.051239062 0.73700005 4.9595806e-39
0.016187619 0.051378112 0.73900002 5.7179339e-39
0.017595239 0.05137812 0.73900002 9.2245362e-39
0.019028574 0.051447645 0.74000001 1.2608425e-38
0.020438099 0.051447652 0.74000001 7.4537672e-39
0.02190667 0.051586695 0.74200004 2.300579e-39
0.023320002 0.051586695 0.74200004 2.4806668e-39
0.024733337 0.051586702 0.74200004 2.6002102e-39
0.026146671 0.051586706 0.74199998 9.0302153e-39
0.027485717 0.051447652 0.74000001 1.5476596e-38
0.028973337 0.051586684 0.74200004 1.5858607e-38
0.030386671 0.051586688 0.74200004 1.6205798e-38
0.031842858 0.051656187 0.74300009 1.2398152e-38
0.033437148 0.051934317 0.74700004 8.6663528e-39
0.034860007 0.051934313 0.74700004 1.2738059e-38
0.036282863 0.051934317 0.74700004 1.6765139e-38
0.037756193 0.052003834 0.74800003 1.1431814e-38
0.039180957 0.052003823 0.74800009 5.9865895e-39
0.040605716 0.052003831 0.74800003 4.968839e-39
0.04203048 0.052003831 0.74800003 3.9658428e-39
0.043571435 0.052142873 0.75000006 5.6210552e-39
0.045300007 0.05249051 0.75500005 7.2870729e-39
0.046738103 0.052490506 0.75500005 9.8739568e-39
0.048176199 0.052490506 0.75500005 1.2355679e-38
0.049614292 0.05249051 0.75500005 1.1989064e-38
0.051255245 0.052699067 0.75800008 1.1621369e-38
0.052699056 0.052699067 0.75800008 1.152882e-38
-0.029871432 0.054642882 0.76500005 1.01451e-38
-0.028414289 0.054642882 0.76500005 1.208016e-38
-0.02688667 0.054500014 0.76300001 1.4106282e-38
-0.02536667 0.05435716 0.7610001 1.2539699e-38
-0.023822861 0.054142877 0.75800002 1.096512e-38
-0.02237905 0.05414287 0.75800008 5.5194582e-39
-0.020935241 0.054142877 0.75800008 1.8409138e-40
-0.019440001 0.05400002 0.75600004 6.2718392e-39
-0.017904762 0.05371432 0.75200003 1.2352297e-38
-0.016428573 0.053571451 0.75000012 9.5864145e-39
-0.014960002 0.05342859 0.74800003 6.8127068e-39
-0.013517145 0.053357176 0.74700004 6.5350591e-39
-0.012061906 0.053214293 0.74500012 6.3578621e-39
-0.010642859 0.053214297 0.74500012 6.5350927e-39
-0.0091990493 0.053071428 0.74300009 6.6197227e-39
-0.0077838101 0.053071428 0.74300009 9.3822888e-39
-0.0063685724 0.053071432 0.74300009 1.2049854e-38
-0.0049533341 0.053071436 0.74300009 1.2610942e-38
-0.0035333338 0.053000029 0.74200004 1.3068654e-38
-0.0021142862 0.052857183 0.74000001 1.2791323e-38
-0.00070476194 0.052857175 0.74000001 1.2523009e-38
0.00070666673 0.053000037 0.74199998 1.270598e-38
0.0021142859 0.052857183 0.74000001 1.2995507e-38
0.0035238101 0.052857168 0.74000001 1.2439144e-38
0.004933334 0.052857172 0.74000001 1.188091e-38
0.0063342866 0.052785739 0.73900002 8.9310076e-39
0.0077419057 0.052785739 0.73900002 6.0658105e-39
0.0091247633 0.052642886 0.73700005 6.8995018e-39
0.010557145 0.05278575 0.73900002 7.7249591e-39
0.011932382 0.052642878 0.73700005 8.379301e-39
0.013372383 0.052785739 0.73900002 9.0239291e-39
0.014780002 0.052785732 0.73900002 8.3717396e-39
0.016187619 0.052785732 0.73900002 7.714553e-39
0.017619049 0.052857172 0.74000001 7.0857063e-39
0.019028572 0.052857175 0.74000001 6.4443054e-39
0.020493336 0.053000022 0.74200004 4.8752211e-39
0.02190667 0.053000029 0.74200004 3.3064618e-39
0.023320002 0.053000029 0.74200004 7.1872052e-39
0.024666671 0.052857172 0.74000001 1.106591e-38
0.026146671 0.053000025 0.74200004 1.4384633e-38
0.027485717 0.052857164 0.74000001 1.7708321e-38
0.028973337 0.053000014 0.74200004 1.7334194e-38
0.030386671 0.053000018 0.74200004 1.696996e-38
0.031928577 0.053214293 0.74500012 1.5016181e-38
0.033437148 0.053357169 0.74700004 1.3092071e-38
0.034860007 0.053357173 0.74700004 1.5493913e-38
0.036282863 0.053357173 0.74700004 1.7890904e-38
0.037756197 0.053428601 0.74800003 1.2072204e-38
0.039180961 0.053428587 0.74800003 6.2466789e-39
0.040714294 0.053571455 0.75000006 6.165894e-39
0.042142864 0.053571463 0.75000006 6.076955e-39
0.043571435 0.053571463 0.75000006 6.4493459e-39
0.045300007 0.05392861 0.75500005 6.915052e-39
0.046738103 0.053928599 0.75500005 9.6845362e-39
0.048176199 0.053928602 0.75500005 1.2447153e-38
0.049680006 0.054000031 0.75600004 1.1988711e-38
0.051255245 0.054142877 0.75800002 1.1438054e-38
0.052699056 0.05414287 0.75800008 1.0884167e-38
-0.029949527 0.05624669 0.76700002 7.28561e-39
-0.028414289 0.056100026 0.76500005 1.0792606e-38
-0.026886668 0.05595335 0.76300001 1.4188737e-38
-0.02536667 0.055806678 0.7610001 1.2726914e-38
-0.023885716 0.055733349 0.76000011 1.1135495e-38
-0.02237905 0.055586684 0.75800002 5.6941609e-39
-0.020880003 0.055440038 0.75600004 1.8694302e-40
-0.019440003 0.055440024 0.75600004 6.0734237e-39
-0.017904762 0.055146702 0.75200003 1.1977816e-38
-0.016428575 0.055000026 0.75000006 1.1810303e-38
-0.015000001 0.055000026 0.75000006 1.1597167e-38
-0.01353524 0.054853365 0.74800003 8.3606343e-39
-0.012094288 0.054780036 0.74700004 5.1550169e-39
-0.010642859 0.05463336 0.74500006 5.9887278e-39
-0.0092238104 0.054633349 0.74500012 6.8123536e-39
-0.0078047635 0.054633357 0.74500012 9.2022065e-39
-0.0063685724 0.054486673 0.74300009 1.1501007e-38
-0.0049533341 0.054486681 0.74300009 1.2704957e-38
-0.0035380959 0.054486666 0.74300003 1.390061e-38
-0.0021142862 0.054266695 0.74000001 1.5563335e-38
-0.00070476194 0.054266699 0.74000001 1.7129187e-38
0.00070666673 0.054413356 0.74200004 1.7314995e-38
0.0021200003 0.05441336 0.74200004 1.749941e-38
0.0035333338 0.054413363 0.74200004 1.4185466e-38
0.0049333335 0.054266699 0.74000001 1.0873628e-38
0.0063342866 0.054193355 0.73900002 1.1336373e-38
0.0077419057 0.054193355 0.73900002 1.1781194e-38
0.0091495244 0.054193348 0.73900002 1.2150324e-38
0.010557144 0.054193348 0.73900002 1.2519813e-38
0.011964763 0.054193351 0.73899996 1.3178081e-38
0.013372383 0.054193344 0.73900002 1.3812326e-38
0.014780002 0.054193348 0.73900002 1.1789441e-38
0.016187619 0.054193344 0.73900002 9.753616e-39
0.017595239 0.054193351 0.73900002 4.9594979e-39
0.019002859 0.054193355 0.73900002 1.879996e-40
0.020410478 0.054193355 0.73900002 2.2962714e-39
0.02190667 0.054413363 0.74200004 4.3328541e-39
0.023320002 0.05441336 0.74199998 1.1895352e-38
0.024666669 0.054266702 0.74000001 1.9443127e-38
0.026076192 0.054266702 0.74000001 1.9642627e-38
0.027485715 0.054266702 0.74000001 1.9817335e-38
0.02889524 0.05426671 0.73999995 1.870814e-38
0.030386671 0.054413367 0.74199998 1.7608569e-38
0.031928573 0.054633357 0.74500006 1.7605286e-38
0.033437144 0.054780029 0.74700004 1.7513158e-38
0.034860004 0.054780025 0.74700004 1.8253647e-38
0.036282863 0.054780029 0.74700004 1.8985753e-38
0.037756193 0.054853354 0.74800003 1.2719348e-38
0.039180957 0.054853357 0.74800003 6.446874e-39
0.040605716 0.054853357 0.74800003 7.3712895e-39
0.042142861 0.055000033 0.75000006 8.1974559e-39
0.043571431 0.055000022 0.75000012 7.3677148e-39
0.045180008 0.055220023 0.75300002 6.4566018e-39
0.046738103 0.055366699 0.75500005 9.5023072e-39
0.048176199 0.055366699 0.75500005 1.2538267e-38
0.049614295 0.055366702 0.75500005 1.189686e-38
0.051120006 0.055440024 0.75600004 1.1252212e-38
0.052560005 0.055440027 0.75600004 1.0239505e-38
-0.031533334 0.05793336 0.77000004 8.1989132e-39
-0.029988578 0.057782885 0.76800001 7.3673687e-39
-0.028488575 0.057707652 0.76700002 8.2893068e-39
-0.02688667 0.057406675 0.76300007 9.2112715e-39
-0.025333336 0.057180967 0.76000011 9.5768408e-39
-0.023822861 0.057030495 0.75800002 9.9211651e-39
-0.02237905 0.057030484 0.75800008 5.0538235e-39
-0.020880001 0.056880031 0.75600004 2.7589044e-40
-0.019440001 0.056880016 0.75600004 3.9629645e-39
-0.017904764 0.056579065 0.75200009 7.6651699e-39
-0.016428575 0.0564286 0.75000006 9.3186544e-39
-0.015000002 0.0564286 0.75000006 1.1047635e-38
-0.01353524 0.056278117 0.74800003 7.7231514e-39
-0.012094287 0.056202892 0.74700004 4.4131429e-39
-0.010642858 0.056052394 0.74500012 5.3422752e-39
-0.0092238113 0.056052402 0.74500012 6.3563977e-39
-0.007804763 0.056052405 0.74500006 7.1789571e-39
-0.0063685724 0.055901919 0.74300009 8.0062501e-39
-0.0049533341 0.055901922 0.74300009 1.0032786e-38
-0.0035380959 0.055901907 0.74300009 1.2152565e-38
-0.0021200001 0.055826697 0.74199998 1.4647218e-38
-0.00070666673 0.055826697 0.74199998 1.7054623e-38
0.00070666679 0.055826686 0.74200004 1.6957718e-38
0.0021200003 0.055826694 0.74200004 1.6868416e-38
0.0035333338 0.055826694 0.74200004 1.3632671e-38
0.004933334 0.055676222 0.74000001 1.0499149e-38
0.0063428581 0.055676214 0.74000001 1.1512932e-38
0.0077419057 0.055600975 0.73900002 1.2613155e-38
0.0091495253 0.055600975 0.73900002 1.2521667e-38
0.010557145 0.055600982 0.73900002 1.2434111e-38
0.011964764 0.055600982 0.73900002 1.280358e-38
0.013336192 0.055450499 0.73700005 1.3176331e-38
0.014740002 0.055450492 0.73700011 1.2622834e-38
0.016187619 0.055600978 0.73900002 1.2071414e-38
0.017595239 0.055600978 0.73900002 7.2736779e-39
0.019002859 0.055600982 0.73900002 2.4799283e-39
0.020410478 0.055600971 0.73900002 3.7699203e-39
0.02190667 0.05582669 0.74199998 5.1594338e-39
0.023320002 0.055826694 0.74199998 1.2083112e-38
0.024733337 0.055826686 0.74200004 1.9097766e-38
0.026146671 0.055826694 0.74200004 1.9546539e-38
0.027560003 0.05582669 0.74200004 2.0088205e-38
0.028973339 0.055826694 0.74200004 1.990559e-38
0.030427624 0.055901915 0.74300003 1.9813406e-38
0.032014292 0.056202877 0.7470001 1.80689e-38
0.033437148 0.056202881 0.74700004 1.6326181e-38
0.034860007 0.056202885 0.74700004 1.7426057e-38
0.036282863 0.056202888 0.74700004 1.8537695e-38
0.037756197 0.056278106 0.74800003 1.2254421e-38
0.039180961 0.05627811 0.74800003 5.9697823e-39
0.04060572 0.05627811 0.74800003 7.1858781e-39
0.042142864 0.056428593 0.75000012 8.3004471e-39
0.043571435 0.056428593 0.75000006 7.095451e-39
0.045300007 0.056804791 0.75500005 5.8987827e-39
0.046800002 0.05688002 0.75600004 8.5800118e-39
0.048240002 0.056880023 0.75599998 1.1347269e-38
0.049680002 0.056880016 0.75600004 1.0607559e-38
0.051120006 0.056880016 0.75600004 9.8728679e-39
0.052560005 0.05688002 0.75600004 1.0603597e-38
-0.033128578 0.059631459 0.77300006 9.7669466e-39
-0.031615242 0.059554305 0.77200001 8.5770438e-39
-0.030066671 0.059400033 0.77000004 7.367003e-39
-0.028488573 0.059168592 0.76700002 5.7860342e-39
-0.026957149 0.059014302 0.76500005 4.1491495e-39
-0.025333336 0.058628589 0.76000011 6.4479179e-39
-0.023822861 0.058474306 0.75800008 8.6487118e-39
-0.022320002 0.058320034 0.75600004 4.5074755e-39
-0.020880001 0.058320038 0.75600004 2.7985051e-40
-0.019414287 0.058242884 0.75500005 1.7456662e-39
-0.017904762 0.058011472 0.75200003 3.2398189e-39
-0.016428575 0.057857167 0.75000006 6.8422433e-39
-0.015000001 0.05785716 0.75000012 1.0396135e-38
-0.013535239 0.057702869 0.74800009 6.9798578e-39
-0.012094288 0.057625748 0.74700004 3.5934533e-39
-0.010642858 0.057471443 0.74500006 4.702682e-39
-0.0092238113 0.057471447 0.74500006 5.8036149e-39
-0.0078047626 0.057471443 0.74500012 5.1507065e-39
-0.0063685724 0.057317145 0.74300009 4.4239301e-39
-0.0049533341 0.057317153 0.74300009 7.4509309e-39
-0.0035380959 0.057317153 0.74300009 1.0402983e-38
-0.0021142862 0.057085749 0.74000001 1.3726325e-38
-0.000704762 0.057085752 0.74000001 1.6951678e-38
0.000704762 0.057085752 0.74000001 1.6592578e-38
0.0021142859 0.057085745 0.74000001 1.6205479e-38
0.0035238101 0.057085749 0.74000001 1.3160891e-38
0.0049333335 0.057085752 0.74000001 1.0039223e-38
0.0063342866 0.057008598 0.73900002 1.1785911e-38
0.0077419057 0.057008591 0.73900002 1.344002e-38
0.0091495244 0.057008594 0.73900002 1.2888284e-38
0.010557144 0.057008594 0.73900002 1.2337243e-38
0.011964763 0.057008598 0.73900002 1.2425821e-38
0.013372382 0.057008602 0.73900002 1.243554e-38
0.014780002 0.057008591 0.73900002 1.336254e-38
0.016187619 0.057008591 0.73899996 1.4275849e-38
0.017595239 0.057008583 0.73900002 9.4914121e-39
0.019002859 0.057008587 0.73900002 4.6936912e-39
0.020438099 0.057085741 0.74000001 5.3282538e-39
0.02190667 0.057240024 0.74199998 5.8991162e-39
0.023320002 0.057240017 0.74200004 1.2271399e-38
0.024733337 0.057240017 0.74200004 1.8621361e-38
0.026146671 0.05724002 0.74200004 1.9448996e-38
0.027560003 0.057240024 0.74200004 2.0279425e-38
0.029012382 0.057317156 0.74300003 2.1195951e-38
0.030509528 0.057471439 0.74500012 2.2023891e-38
0.032014292 0.057625733 0.7470001 1.8622016e-38
0.033437148 0.057625741 0.74700004 1.5117918e-38
0.034860007 0.057625737 0.74700004 1.6586929e-38
0.036282863 0.057625741 0.74700004 1.8058396e-38
0.037705719 0.057625737 0.7470001 1.1790929e-38
0.039180961 0.057702877 0.74800009 5.526738e-39
0.04060572 0.057702877 0.74800003 7.0093734e-39
0.042142864 0.057857167 0.75000006 8.3854583e-39
0.043571435 0.057857167 0.75000006 6.8152753e-39
0.045300007 0.058242884 0.75500005 5.2591446e-39
0.046800006 0.058320031 0.75600004 7.6634196e-39
0.048176199 0.058242891 0.75500005 1.0051515e-38
0.049680006 0.058320019 0.75600004 9.2217812e-39
0.051120006 0.058320027 0.75600004 8.3988351e-39
0.052560005 0.058320027 0.75600004 1.0876946e-38
-0.034690477 0.061261911 0.7750001 5.0689436e-39
-0.033128578 0.061103843 0.77300006 8.2064578e-39
-0.031615239 0.061024792 0.77200001 7.8359279e-39
-0.030066671 0.060866687 0.77000004 7.3695085e-39
-0.028488573 0.060629554 0.76700002 6.8126885e-39
-0.026886668 0.060313348 0.76300001 6.2631119e-39
-0.025333337 0.060076207 0.76000011 8.5676089e-39
-0.023822861 0.059918106 0.75800002 1.0871749e-38
-0.022320004 0.059760027 0.75600004 8.0144449e-39
-0.020880001 0.05976003 0.75600004 5.0596151e-39
-0.019414289 0.059680983 0.75500005 3.4033952e-39
-0.017904762 0.059443835 0.75200003 1.6653157e-39
-0.016428575 0.059285745 0.75000006 3.8722151e-39
-0.015000002 0.059285749 0.75000006 6.0618896e-39
-0.01353524 0.059127651 0.74800003 7.1757257e-39
-0.012094287 0.059048604 0.74700004 8.2885557e-39
-0.01067143 0.059048597 0.7470001 8.7510038e-39
-0.0092485733 0.059048582 0.7470001 9.1172514e-39
-0.007804763 0.058890503 0.74500006 9.2126546e-39
-0.0063685724 0.058732376 0.74300009 9.3019565e-39
-0.0049533341 0.058732379 0.74300009 9.1107283e-39
-0.0035380956 0.058732383 0.74300009 9.0160818e-39
-0.0021142862 0.058495261 0.74000001 1.215756e-38
-0.000704762 0.058495268 0.74000001 1.5289681e-38
0.000704762 0.058495265 0.74000001 1.2612489e-38
0.0021142859 0.058495268 0.74000001 9.9344788e-39
0.0035238098 0.058495276 0.73999995 1.0860294e-38
0.004933334 0.058495265 0.74000001 1.1782272e-38
0.0063342866 0.058416218 0.73900002 1.2707478e-38
0.0077419057 0.058416218 0.73900002 1.3717309e-38
0.0091495253 0.058416206 0.73900002 1.2796442e-38
0.010557145 0.058416214 0.73900002 1.1967379e-38
0.011964764 0.058416214 0.73900002 1.205703e-38
0.013372383 0.058416218 0.73900002 1.2246481e-38
0.014780002 0.058416221 0.73900002 1.3175997e-38
0.016209524 0.058495257 0.74000001 1.4096866e-38
0.017619049 0.058495261 0.74000001 8.7492452e-39
0.019028572 0.058495265 0.74000001 3.4029973e-39
0.020493336 0.058653366 0.74199998 3.2189073e-39
0.02190667 0.058653362 0.74200004 3.1336243e-39
0.023320002 0.058653358 0.74200004 9.5930553e-39
0.024733337 0.058653366 0.74200004 1.6136413e-38
0.026146671 0.05865337 0.74200004 1.7892486e-38
0.027560003 0.058653355 0.74199998 1.9741343e-38
0.029012382 0.058732402 0.74300009 1.8813968e-38
0.030509528 0.058890503 0.74500006 1.7994225e-38
0.032014292 0.059048593 0.7470001 1.4556453e-38
0.033437148 0.059048593 0.74700004 1.1139884e-38
0.034860007 0.059048597 0.74700004 1.4379594e-38
0.03633143 0.059127636 0.74800003 1.7694968e-38
0.037705719 0.059048589 0.7470001 1.2066424e-38
0.039180957 0.059127625 0.74800009 6.5207756e-39
0.040605716 0.059127633 0.74800009 7.2705222e-39
0.042142861 0.059285756 0.75000006 8.018468e-39
0.043571435 0.059285752 0.75000006 6.5415555e-39
0.045300011 0.059680983 0.75500005 5.1586813e-39
0.046738107 0.059680987 0.75500005 8.664611e-39
0.048176203 0.059680972 0.75500005 1.224838e-38
0.049680006 0.059760042 0.75599998 1.2440691e-38
0.051255245 0.059918121 0.75800008 1.2623268e-38
0.052699056 0.059918124 0.75800002 1.4011544e-38
-0.034690477 0.062738106 0.7750001 4.9720928e-39
-0.033128574 0.062576219 0.77300006 6.6330519e-39
-0.031615239 0.06249528 0.77200001 7.0068805e-39
-0.029988578 0.062171448 0.76800001 7.3709588e-39
-0.028488575 0.062090494 0.76700008 7.8322551e-39
-0.026816195 0.061604794 0.76100004 8.2921458e-39
-0.025333336 0.061523814 0.76000011 1.0687398e-38
-0.023822859 0.061361924 0.75800008 1.3080877e-38
-0.022320004 0.061200019 0.75600004 1.1526865e-38
-0.020880003 0.061200026 0.75600004 9.8487096e-39
-0.019414289 0.061119076 0.75500005 4.95954e-39
-0.017904762 0.06087622 0.75200003 9.5470464e-41
-0.016428575 0.060714319 0.75000006 9.1910185e-40
-0.014960001 0.0605524 0.74800003 1.6602318e-39
-0.013535239 0.060552403 0.74800003 7.372674e-39
-0.012094288 0.060471464 0.74700004 1.2980401e-38
-0.010671431 0.060471449 0.7470001 1.2711016e-38
-0.0092485733 0.060471453 0.7470001 1.2437346e-38
-0.0078047635 0.06030954 0.74500012 1.3372248e-38
-0.0063685724 0.060147632 0.74300003 1.4181484e-38
-0.0049533341 0.060147624 0.74300009 1.0857764e-38
-0.0035380956 0.060147624 0.74300009 7.5499341e-39
-0.0021142862 0.059904803 0.74000001 1.0597408e-38
-0.000704762 0.059904795 0.74000001 1.352215e-38
0.000704762 0.059904791 0.74000001 8.6329837e-39
0.0021142859 0.059904795 0.74000001 3.683526e-39
0.0035238098 0.059904803 0.74000001 8.5636936e-39
0.0049333335 0.059904799 0.74000001 1.3439994e-38
0.0063342866 0.05982383 0.73900002 1.3728108e-38
0.0077419057 0.059823833 0.73900002 1.3994259e-38
0.0091619054 0.059904799 0.74000001 1.2795707e-38
0.01057143 0.059904788 0.74000001 1.1506055e-38
0.011980954 0.059904788 0.74000001 1.1771508e-38
0.013390477 0.059904795 0.74000001 1.1969205e-38
0.014800001 0.059904795 0.74000001 1.2998086e-38
0.016209524 0.059904795 0.73999995 1.3898468e-38
0.017619049 0.059904791 0.74000001 8.005534e-39
0.019080002 0.060066696 0.74199998 2.0257941e-39
0.020493336 0.060066689 0.74200004 1.1942216e-39
0.02190667 0.060066693 0.74200004 3.7889429e-40
0.023320002 0.060066693 0.74200004 7.0137202e-39
0.024733337 0.060066696 0.74200004 1.3552053e-38
0.026146671 0.0600667 0.74199998 1.6334814e-38
0.027560003 0.060066685 0.74199998 1.9080886e-38
0.029090481 0.060309537 0.74500012 1.6507314e-38
0.030509528 0.06030954 0.74500012 1.381459e-38
0.032014292 0.060471445 0.7470001 1.047005e-38
0.033437148 0.060471453 0.74700004 7.1930864e-39
0.034860007 0.060471449 0.74700004 1.2279611e-38
0.036331434 0.060552388 0.74800003 1.7227904e-38
0.037756197 0.060552392 0.74800003 1.2442352e-38
0.039180961 0.060552392 0.74800003 7.5438524e-39
0.04060572 0.060552396 0.74800003 7.6256364e-39
0.042142864 0.060714312 0.75000012 7.6392556e-39
