# .PCD v0.7 - Point Cloud Data file format
VERSION 0.7
FIELDS x y z rgb
SIZE 4 4 4 4
TYPE F F F F
COUNT 1 1 1 1
WIDTH 940
HEIGHT 1
VIEWPOINT 0 0 0 1 0 0 0
POINTS 940
DATA ascii
0.019858068 -0.011640951 0.7190001 1.3134291e-38
0.021257104 -0.011657141 0.72000003 1.3505936e-38
0.022628538 -0.011657149 0.72000003 1.2331085e-38
0.024099974 -0.011705689 0.72300005 1.1232324e-38
0.025477109 -0.011705704 0.72300005 6.8077546e-39
0.026854251 -0.011705689 0.72299999 2.4828669e-39
0.028309504 -0.011738092 0.72500008 3.6824568e-39
0.029690441 -0.011738092 0.72500002 4.8849194e-39
0.031071402 -0.011738092 0.72500002 6.4457543e-39
0.032452337 -0.011738092 0.72500002 8.0084067e-39
0.033879969 -0.011754282 0.72600001 8.5608672e-39
0.035262842 -0.011754297 0.72600007 9.02146e-39
0.036797106 -0.011802852 0.72899997 8.1952783e-39
0.038185678 -0.01180286 0.72900003 7.2783596e-39
0.040279981 -0.012013339 0.74200004 6.8177486e-39
0.041693304 -0.012013339 0.74200004 6.3582096e-39
0.043106642 -0.012013331 0.74200004 6.0830577e-39
0.043919954 -0.011851415 0.73199999 5.8068351e-39
-0.033079091 -0.010557137 0.73900002 7.4617251e-39
-0.031585742 -0.010528564 0.73700005 7.7296632e-39
-0.030181937 -0.010528557 0.73700005 8.0826209e-39
-0.02877813 -0.010528572 0.73700011 8.4506733e-39
-0.027337156 -0.010514289 0.73600006 9.0945924e-39
-0.025864787 -0.010485716 0.73400009 9.7439681e-39
-0.024400033 -0.010457143 0.73200005 1.068033e-38
-0.022974297 -0.010442868 0.73100001 1.1507569e-38
-0.021493368 -0.010399997 0.72800004 1.1691602e-38
-0.020106684 -0.010399997 0.7280001 1.1782352e-38
-0.018668601 -0.010371432 0.72600007 1.1781623e-38
-0.017285727 -0.010371447 0.72600007 1.1687271e-38
-0.015837176 -0.010328561 0.72300005 1.17791e-38
-0.014440028 -0.010314293 0.72200012 1.1865924e-38
-0.013064771 -0.010314286 0.72200012 1.1206224e-38
-0.011657191 -0.010285713 0.72000003 1.047115e-38
-0.01028577 -0.010285713 0.72000003 1.1020697e-38
-0.0089143207 -0.010285705 0.72000003 1.1484194e-38
-0.0075428993 -0.010285713 0.72000003 1.1755412e-38
-0.0061628944 -0.010271423 0.71900004 1.1948398e-38
-0.0047933455 -0.010271437 0.7190001 1.2030896e-38
-0.0034238291 -0.01027143 0.7190001 1.2037342e-38
-0.0020485776 -0.010242864 0.71700007 1.2490052e-38
-0.00068286946 -0.010242864 0.71700007 1.2863861e-38
0.00068283686 -0.010242857 0.71700007 1.2673743e-38
0.0020485432 -0.010242872 0.71700001 1.2401119e-38
0.0034142849 -0.010242872 0.71700007 1.2581934e-38
0.0047799912 -0.010242857 0.71700007 1.2680205e-38
0.0061456976 -0.010242864 0.71700001 1.2490058e-38
0.0075114076 -0.010242857 0.71700001 1.2217442e-38
0.0088771144 -0.010242857 0.71700001 1.2765608e-38
0.010242841 -0.010242864 0.71700007 1.3226936e-38
0.011608562 -0.010242864 0.71700007 1.3226576e-38
0.012974269 -0.010242857 0.71700001 1.3141897e-38
0.014379985 -0.010271423 0.7190001 1.3227616e-38
0.015749497 -0.010271423 0.7190001 1.3319783e-38
0.017119028 -0.010271423 0.7190001 1.3224694e-38
0.018488547 -0.01027143 0.71900004 1.3041016e-38
0.019885669 -0.010285713 0.71999997 1.3316517e-38
0.021257102 -0.010285705 0.71999997 1.351239e-38
0.022628522 -0.010285713 0.71999997 1.2708834e-38
0.024099976 -0.010328569 0.72300005 1.1873718e-38
0.0254771 -0.010328561 0.72299999 7.820054e-39
0.026854251 -0.010328554 0.72300005 3.6809939e-39
0.028309498 -0.010357141 0.72500008 4.1376546e-39
0.029690437 -0.010357134 0.72500002 4.6058102e-39
0.031071391 -0.010357134 0.72500002 6.7255698e-39
0.032497123 -0.010371424 0.72600007 8.7459746e-39
0.033879988 -0.010371439 0.72600007 9.6665057e-39
0.035408549 -0.010414287 0.72900003 1.0494431e-38
0.036797106 -0.010414287 0.72900003 9.0221649e-39
0.038185675 -0.01041428 0.72899997 7.4602356e-39
0.040279966 -0.010600001 0.74200004 6.9996147e-39
0.041693307 -0.010600001 0.74200004 6.4507528e-39
0.043106645 -0.010600008 0.74200004 6.0837695e-39
0.044879954 -0.01068572 0.74800003 5.6238746e-39
-0.033123836 -0.0091619119 0.74000007 7.4591888e-39
-0.031585746 -0.0091247559 0.73700005 7.825442e-39
-0.030140981 -0.0091123953 0.73600006 7.9958273e-39
-0.028778125 -0.0091247633 0.73700005 8.2666548e-39
-0.027262898 -0.0090876222 0.73400009 8.7272518e-39
-0.025794316 -0.0090628415 0.73200005 9.2801299e-39
-0.024400033 -0.009062849 0.73200005 1.0490563e-38
-0.022974314 -0.0090504885 0.73100001 1.1783072e-38
-0.021493357 -0.0090133473 0.72800004 1.1783066e-38
-0.020106692 -0.009013325 0.72800004 1.1872388e-38
-0.01866859 -0.0089885741 0.72600001 1.1870231e-38
-0.017285742 -0.008988589 0.72600007 1.1868429e-38
-0.01588098 -0.0089761838 0.72500002 1.1962409e-38
-0.014460025 -0.0089514181 0.72300005 1.2147884e-38
-0.013082911 -0.0089514107 0.72299999 1.186055e-38
-0.011689535 -0.0089390427 0.72200006 1.1572073e-38
-0.010314305 -0.008939065 0.72200012 1.2038367e-38
-0.0089143012 -0.0089142844 0.72000003 1.2582249e-38
-0.0075428816 -0.0089142993 0.72000003 1.2963265e-38
-0.0061714607 -0.0089142919 0.72000003 1.3333808e-38
-0.0047933511 -0.008901909 0.7190001 1.3240508e-38
-0.0034285919 -0.0089142919 0.72000003 1.3230797e-38
-0.0020485981 -0.0088771433 0.71700001 1.3416952e-38
-0.00068287132 -0.0088771507 0.71700007 1.359276e-38
0.000682835 -0.0088771507 0.71700007 1.3692876e-38
0.0020485432 -0.0088771433 0.71700001 1.3776832e-38
0.0034142644 -0.0088771433 0.71700001 1.4063112e-38
0.0047799931 -0.0088771433 0.71700007 1.4420753e-38
0.0061456994 -0.0088771507 0.71700007 1.4061286e-38
0.0075323493 -0.0089019015 0.71900004 1.3683928e-38
0.0089018876 -0.0089019164 0.7190001 1.3785117e-38
0.010242854 -0.0088771507 0.71700007 1.3965926e-38
0.011608561 -0.0088771582 0.71700007 1.4251484e-38
0.013010449 -0.0089019015 0.7190001 1.4626346e-38
0.014379977 -0.008901909 0.7190001 1.4161773e-38
0.015749495 -0.008901909 0.7190001 1.3694301e-38
0.017119024 -0.008901909 0.71900004 1.3227547e-38
0.018488539 -0.0089019015 0.71900004 1.2857332e-38
0.019885682 -0.0089142993 0.72000003 1.3226465e-38
0.021257119 -0.0089142919 0.72000003 1.359956e-38
0.02269141 -0.0089390427 0.72200006 1.3712213e-38
0.024099957 -0.0089514181 0.72299999 1.3896949e-38
0.025477104 -0.0089514107 0.72300005 8.9238288e-39
0.026928538 -0.0089761913 0.72500002 3.9564611e-39
0.028309498 -0.0089761913 0.72500008 4.4167148e-39
0.029690448 -0.0089761838 0.72500002 4.9702683e-39
0.031071406 -0.0089761838 0.72500002 6.537957e-39
0.032497123 -0.0089885741 0.72600001 8.1038576e-39
0.033879984 -0.0089885741 0.72600007 9.1194626e-39
0.035408534 -0.0090257153 0.72899997 1.0042445e-38
0.036797103 -0.0090257004 0.72899997 8.5651482e-39
0.038185678 -0.0090257153 0.72900003 7.1832927e-39
0.040334262 -0.0091990381 0.74300003 6.7258907e-39
0.041749503 -0.0091990456 0.74300003 6.268867e-39
0.043164745 -0.0091990605 0.74300009 6.08448e-39
0.044879977 -0.0092609525 0.74800003 5.991927e-39
0.046428546 -0.0092857182 0.75000006 6.2670748e-39
-0.034766693 -0.0078047514 0.74500012 6.9957079e-39
-0.033258129 -0.0077838004 0.74300003 7.4595784e-39
-0.031585746 -0.0077209622 0.73700011 7.8207967e-39
-0.030140994 -0.0077104792 0.73600006 7.9922469e-39
-0.02877813 -0.0077209473 0.73700005 8.0833453e-39
-0.027262893 -0.0076895207 0.73400003 8.4513852e-39
-0.025864799 -0.0076895282 0.73400003 8.7341378e-39
-0.024366682 -0.0076581091 0.73100007 1.0402674e-38
-0.022911467 -0.0076371431 0.72900003 1.196638e-38
-0.021493362 -0.0076266527 0.72800004 1.1968525e-38
-0.020051431 -0.007605724 0.72600007 1.1873104e-38
-0.018668603 -0.0076057091 0.72600001 1.1958125e-38
-0.017285727 -0.007605724 0.72600007 1.195956e-38
-0.015880985 -0.0075952336 0.72500002 1.2146101e-38
-0.014500012 -0.0075952485 0.72500008 1.2331923e-38
-0.013119088 -0.0075952336 0.72500002 1.2515592e-38
-0.011705761 -0.0075742826 0.72300005 1.2602387e-38
-0.010314329 -0.0075638145 0.72200006 1.3161633e-38
-0.0089390697 -0.0075638071 0.72200006 1.3617966e-38
-0.0075428826 -0.007542856 0.72000003 1.418192e-38
-0.0061714617 -0.007542856 0.72000003 1.4727545e-38
-0.0048000277 -0.0075428486 0.72000003 1.4550325e-38
-0.0034286068 -0.0075428635 0.72000003 1.4354787e-38
-0.0020543109 -0.0075323805 0.71900004 1.4354757e-38
-0.00068479544 -0.0075323731 0.71900004 1.4350478e-38
0.00068473676 -0.0075323731 0.71900004 1.4727888e-38
0.0020542503 -0.0075323656 0.71900004 1.5091654e-38
0.0034237807 -0.0075323731 0.71900004 1.5656311e-38
0.004793298 -0.0075323731 0.71900004 1.6102898e-38
0.0061628339 -0.007532388 0.7190001 1.5650503e-38
0.0075323642 -0.007532388 0.7190001 1.5083369e-38
0.0089018801 -0.007532388 0.7190001 1.4907972e-38
0.01027141 -0.0075323731 0.7190001 1.4718555e-38
0.011640926 -0.0075323805 0.7190001 1.5370009e-38
0.013010456 -0.0075323731 0.7190001 1.6011043e-38
0.014379974 -0.0075323805 0.71900004 1.5006212e-38
0.015749503 -0.0075323731 0.71900004 1.3972669e-38
0.01711902 -0.007532388 0.71900004 1.3317948e-38
0.018514246 -0.0075428635 0.72000003 1.2582185e-38
0.01988568 -0.007542856 0.72000003 1.3132836e-38
0.021316174 -0.0075638145 0.72200006 1.3703239e-38
0.022691406 -0.0075638145 0.72200012 1.4826448e-38
0.024099968 -0.00757429 0.72300005 1.5819043e-38
0.025477104 -0.0075742826 0.72300005 1.0021909e-38
0.026928548 -0.0075952411 0.72500002 4.1412237e-39
0.028309507 -0.0075952411 0.72500008 4.78624e-39
0.029690443 -0.0075952411 0.72500002 5.3376271e-39
0.031114265 -0.007605724 0.72600007 6.4439733e-39
0.032586642 -0.0076266676 0.72800004 7.4592056e-39
0.033973321 -0.0076266676 0.7280001 8.5723733e-39
0.035408534 -0.0076371431 0.72900003 9.5782281e-39
0.036797103 -0.0076371431 0.72900003 8.1960027e-39
0.038185671 -0.0076371357 0.72899997 6.817743e-39
0.040334273 -0.0077838078 0.74300009 6.4518262e-39
0.041749511 -0.0077838078 0.74300003 6.084124e-39
0.043397117 -0.007825695 0.74700004 6.176677e-39
0.044819959 -0.0078257024 0.74699998 6.2681482e-39
0.046242815 -0.0078256875 0.74699998 6.3596193e-39
-0.036525741 -0.0064457059 0.75200003 6.0708762e-39
-0.03486003 -0.0064028427 0.74700004 7.0882805e-39
-0.033347644 -0.0063857064 0.74500006 7.3656199e-39
-0.031671464 -0.0063342899 0.73900002 7.7304157e-39
-0.030181937 -0.0063171461 0.73700005 7.9032883e-39
-0.028778132 -0.0063171536 0.73700011 8.0826307e-39
-0.027262885 -0.0062914267 0.73400003 8.3602643e-39
-0.025794316 -0.0062742829 0.73200005 8.6383548e-39
-0.024366671 -0.0062657297 0.73100007 1.0307608e-38
-0.022880036 -0.0062399954 0.72800004 1.1966736e-38
-0.021493351 -0.0062400028 0.7280001 1.1968161e-38
-0.020051446 -0.0062228739 0.72600007 1.2060719e-38
-0.01866857 -0.0062228665 0.72600007 1.196315e-38
-0.017285742 -0.0062228665 0.72600007 1.195742e-38
-0.015902866 -0.0062228665 0.72600007 1.2237957e-38
-0.014500017 -0.0062142834 0.72500008 1.2425562e-38
-0.013119065 -0.0062142834 0.72500002 1.2608501e-38
-0.011705744 -0.0061971247 0.72300005 1.2884387e-38
-0.010328603 -0.0061971247 0.72299999 1.3255695e-38
-0.0089390725 -0.0061885715 0.72200012 1.3719544e-38
-0.007563829 -0.0061885864 0.72200012 1.4087971e-38
-0.0061714654 -0.0061714277 0.72000003 1.4456406e-38
-0.0048000445 -0.0061714202 0.72000003 1.4548257e-38
-0.0034286096 -0.0061714277 0.72000003 1.4731896e-38
-0.0020543165 -0.006162852 0.71900004 1.4452052e-38
-0.00068479916 -0.0061628595 0.71900004 1.4267683e-38
0.00068473117 -0.006162852 0.71900004 1.4357745e-38
0.0020542447 -0.0061628595 0.71900004 1.4459995e-38
0.0034237769 -0.006162852 0.71900004 1.4544308e-38
0.0047933129 -0.0061628595 0.7190001 1.4735102e-38
0.0061713909 -0.0061714202 0.72000003 1.4259369e-38
0.0075428118 -0.0061714277 0.72000003 1.3886306e-38
0.0089142462 -0.0061714202 0.72000003 1.388704e-38
0.010285667 -0.0061714277 0.72000003 1.3895633e-38
0.011640922 -0.006162852 0.71900004 1.41661e-38
0.013010451 -0.0061628446 0.71900004 1.4541306e-38
0.014379966 -0.006162852 0.71900004 1.4069185e-38
0.015749499 -0.0061628446 0.71900004 1.3596349e-38
0.017142812 -0.0061714202 0.72000003 1.3134275e-38
0.018514246 -0.0061714351 0.72000003 1.2765497e-38
0.019940943 -0.0061885715 0.72200012 1.332404e-38
0.021345679 -0.0061971247 0.72300005 1.3989154e-38
0.022722825 -0.0061971396 0.72300005 1.3714748e-38
0.024099972 -0.0061971322 0.72300005 1.3510246e-38
0.025547586 -0.006214276 0.72500002 8.639354e-39
0.026965689 -0.006222859 0.72600001 3.8610691e-39
0.02834855 -0.006222859 0.72600007 4.2305929e-39
0.029731408 -0.006222859 0.72600001 4.5993726e-39
0.031199969 -0.0062399954 0.72800004 4.6933619e-39
0.032586649 -0.0062399954 0.7280001 4.7873582e-39
0.034019962 -0.006248571 0.72900003 6.6312498e-39
0.03550569 -0.0062657222 0.73100001 8.3800465e-39
0.03689808 -0.0062657297 0.73100001 7.5524256e-39
0.038290445 -0.0062657222 0.73100001 6.8170228e-39
0.040334262 -0.00636857 0.74300003 6.4500381e-39
0.041749485 -0.0063685551 0.74300003 6.0819773e-39
0.043397121 -0.0064028427 0.74700004 6.0837681e-39
0.044819977 -0.0064028576 0.74700004 6.0844744e-39
0.046242818 -0.0064028352 0.74699998 6.2677754e-39
-0.036525745 -0.0050133318 0.75200003 5.9801113e-39
-0.034906689 -0.0049866661 0.74800003 7.0871861e-39
-0.033347655 -0.0049666539 0.74500006 7.3677429e-39
-0.031714328 -0.0049333423 0.74000001 7.6360397e-39
-0.030304778 -0.0049333498 0.74000001 7.8993156e-39
-0.028856222 -0.0049266741 0.73900002 8.0836943e-39
-0.027262885 -0.0048933327 0.73400009 8.3599098e-39
-0.025794316 -0.0048799887 0.73200005 8.5508185e-39
-0.024366682 -0.0048733279 0.73100001 1.0313694e-38
-0.022911455 -0.0048599988 0.72900003 1.1967087e-38
-0.021493357 -0.0048533306 0.72800004 1.2060711e-38
-0.020051461 -0.0048400015 0.72600007 1.215183e-38
-0.018720036 -0.004853338 0.7280001 1.2059995e-38
-0.017285731 -0.0048400015 0.72600001 1.1963866e-38
-0.015902882 -0.0048400164 0.72600007 1.2239384e-38
-0.014500021 -0.0048333257 0.72500008 1.2515965e-38
-0.013119071 -0.0048333257 0.72500002 1.279183e-38
-0.011738127 -0.0048333257 0.72500008 1.3069856e-38
-0.010328616 -0.0048199818 0.72300005 1.3440794e-38
-0.0089390669 -0.0048133284 0.72200006 1.3809582e-38
-0.0075638373 -0.0048133433 0.72200006 1.3993264e-38
-0.0061714663 -0.0047999993 0.71999997 1.4178017e-38
-0.0048000454 -0.0047999918 0.71999997 1.4637919e-38
-0.0034286114 -0.0047999918 0.71999997 1.5005604e-38
-0.0020543239 -0.0047933236 0.71900004 1.4544978e-38
-0.00068479171 -0.004793331 0.71900004 1.4078948e-38
0.00068472372 -0.0047933236 0.71900004 1.3883044e-38
0.0020542745 -0.0047933385 0.7190001 1.3700097e-38
0.0034285192 -0.0047999993 0.71999997 1.350854e-38
0.0047999551 -0.0047999918 0.71999997 1.3328788e-38
0.006171389 -0.0047999993 0.71999997 1.2949223e-38
0.0075428099 -0.0047999918 0.71999997 1.2586552e-38
0.0089142444 -0.0047999993 0.71999997 1.2857404e-38
0.010314248 -0.0048133358 0.72200006 1.3048241e-38
0.01165712 -0.0047999993 0.72000003 1.3041058e-38
0.013028541 -0.0047999918 0.72000003 1.2957116e-38
0.014399976 -0.0048000067 0.72000003 1.3132896e-38
0.015771411 -0.0047999918 0.72000003 1.3225784e-38
0.017190466 -0.0048133433 0.72200012 1.3041013e-38
0.018565688 -0.0048133284 0.72200006 1.2857335e-38
0.01994092 -0.0048133284 0.72200006 1.3500178e-38
0.021345677 -0.0048199967 0.72300005 1.4167454e-38
0.022722827 -0.0048199818 0.72300005 1.2717132e-38
0.024166645 -0.0048333406 0.72500002 1.1127197e-38
0.025547579 -0.0048333257 0.72500002 7.3471998e-39
0.026965706 -0.0048400089 0.72600007 3.5866388e-39
0.028348548 -0.0048400089 0.72600007 3.6749178e-39
0.029813297 -0.0048533306 0.72800004 3.7696106e-39
0.031199979 -0.004853338 0.7280001 2.9430799e-39
0.03263139 -0.0048599988 0.72899997 2.120159e-39
0.034019981 -0.0048600137 0.72900003 4.6937151e-39
0.035505701 -0.0048733354 0.73100001 7.1815061e-39
0.036898077 -0.0048733279 0.73100001 7.0003294e-39
0.038709484 -0.0049266666 0.73900002 6.7248229e-39
0.040334273 -0.0049533322 0.74300003 6.3574823e-39
0.0417495 -0.0049533322 0.74300003 5.9908606e-39
0.043397121 -0.0049799979 0.74700004 5.9919396e-39
0.044819977 -0.004979983 0.74700004 5.9004502e-39
-0.036428612 -0.0035714284 0.75000006 6.2545345e-39
-0.0349067 -0.0035618991 0.74800003 7.1782859e-39
-0.033347663 -0.0035476163 0.74500006 7.4566777e-39
-0.031842873 -0.0035381019 0.74300003 7.7303583e-39
-0.030386686 -0.003533341 0.74200004 7.9968642e-39
-0.028856218 -0.0035190433 0.73900002 8.2677128e-39
-0.027262878 -0.0034952387 0.73400003 8.5435836e-39
-0.025864784 -0.0034952387 0.73400009 8.8198636e-39
-0.024366699 -0.003480956 0.73100001 1.0491254e-38
-0.022911452 -0.0034714341 0.72900003 1.2057838e-38
-0.021493366 -0.0034666583 0.72800004 1.2059273e-38
-0.02005145 -0.0034571514 0.72600001 1.2150387e-38
-0.018720044 -0.0034666657 0.72800004 1.1965994e-38
-0.017285746 -0.0034571439 0.72600001 1.1874172e-38
-0.015902869 -0.0034571439 0.72600007 1.2148973e-38
-0.014520041 -0.0034571514 0.72600001 1.2515252e-38
-0.013137165 -0.0034571439 0.72600007 1.2792563e-38
-0.011738132 -0.0034523755 0.72500008 1.3070219e-38
-0.010357181 -0.0034523755 0.72500002 1.3347516e-38
-0.0089514647 -0.0034428537 0.72300005 1.3717742e-38
-0.007574324 -0.0034428388 0.72299999 1.3992903e-38
-0.0061885961 -0.0034381002 0.72200012 1.4267689e-38
-0.0048000286 -0.0034285709 0.72000003 1.4452432e-38
-0.0034286077 -0.0034285635 0.72000003 1.4638617e-38
-0.0020543276 -0.0034237951 0.71900004 1.4358808e-38
-0.00068477681 -0.0034238175 0.7190001 1.4079265e-38
0.00068473862 -0.00342381 0.7190001 1.3973705e-38
0.0020571169 -0.0034285709 0.72000003 1.3959357e-38
0.0034285379 -0.0034285858 0.72000003 1.4059086e-38
0.0048133195 -0.0034381002 0.72200012 1.4143028e-38
0.0061885421 -0.0034381002 0.72200006 1.3871466e-38
0.007563787 -0.0034381002 0.72200006 1.3500178e-38
0.0089142481 -0.0034285784 0.72000003 1.3967965e-38
0.010314261 -0.0034381002 0.72200012 1.4418533e-38
0.011657118 -0.0034285784 0.72000003 1.4058007e-38
0.013028539 -0.0034285709 0.72000003 1.3775717e-38
0.014399975 -0.0034285784 0.72000003 1.3968028e-38
0.015815211 -0.0034380928 0.72200006 1.4143069e-38
0.017190443 -0.0034381002 0.72200006 1.3408721e-38
0.018591397 -0.0034428537 0.72300005 1.2673668e-38
0.019968532 -0.0034428462 0.72300005 1.3415158e-38
0.021345679 -0.0034428537 0.72300005 1.4075628e-38
0.022722809 -0.0034428388 0.72299999 1.2329362e-38
0.024166636 -0.0034523681 0.72500002 1.0567225e-38
0.025547575 -0.0034523681 0.72500002 9.7503482e-39
0.026965706 -0.0034571514 0.72600007 8.9227834e-39
0.028426636 -0.0034666732 0.72800004 7.5431294e-39
0.029813306 -0.0034666732 0.7280001 6.1569621e-39
0.031242805 -0.0034714192 0.72899997 5.3357984e-39
0.032631394 -0.0034714416 0.72900003 4.5975412e-39
0.034113329 -0.0034809634 0.73100007 5.8897079e-39
0.035505708 -0.0034809709 0.73100007 7.1818508e-39
0.037200913 -0.003509514 0.73700005 6.9074093e-39
0.038709491 -0.0035190508 0.73900002 6.6326245e-39
0.040279962 -0.0035333261 0.74200004 6.265644e-39
0.041749511 -0.0035380945 0.74300009 5.8993853e-39
0.043397117 -0.0035571307 0.74700004 5.8079155e-39
0.044819977 -0.0035571232 0.74700004 5.8082616e-39
0.046242833 -0.0035571307 0.74700004 6.0837555e-39
-0.036428615 -0.0021428466 0.75000006 6.5300522e-39
-0.034906711 -0.0021371469 0.74800003 7.1783027e-39
-0.033347644 -0.0021285564 0.74500006 7.5506894e-39
-0.031842858 -0.0021228567 0.74300003 7.8214945e-39
-0.030386686 -0.0021199957 0.74200004 8.0897885e-39
-0.028856214 -0.0021114275 0.73900002 8.3609888e-39
-0.027337175 -0.0021028668 0.73600006 8.7268931e-39
-0.025864806 -0.0020971298 0.73400003 9.1011126e-39
-0.024400035 -0.0020914227 0.73200005 1.0681391e-38
-0.022911469 -0.0020828545 0.72900003 1.2151477e-38
-0.021493353 -0.0020800009 0.72800004 1.2152196e-38
-0.020106688 -0.002079986 0.72800004 1.205785e-38
-0.018720031 -0.0020800084 0.7280001 1.1962427e-38
-0.017333368 -0.0020799935 0.72800004 1.1780914e-38
-0.015902884 -0.0020742938 0.72600007 1.2150056e-38
-0.014520007 -0.0020742938 0.72600007 1.242557e-38
-0.013137179 -0.0020743012 0.72600007 1.2701444e-38
-0.011738108 -0.0020714253 0.72500002 1.297767e-38
-0.010357185 -0.0020714179 0.72500002 1.325318e-38
-0.0089514693 -0.0020656958 0.72299999 1.3531201e-38
-0.0075743212 -0.0020657033 0.72300005 1.3900341e-38
-0.0061886054 -0.0020628497 0.72200006 1.4267682e-38
-0.0048000435 -0.00205715 0.72000003 1.4265888e-38
-0.0034286077 -0.0020571426 0.72000003 1.4174413e-38
-0.0020542978 -0.0020542964 0.7190001 1.4080785e-38
-0.0006847824 -0.0020542815 0.7190001 1.3984238e-38
0.00068568112 -0.0020571426 0.72000003 1.4064906e-38
0.002057102 -0.0020571351 0.72000003 1.4161419e-38
0.0034380672 -0.0020628572 0.72200006 1.4625991e-38
0.0048133121 -0.0020628497 0.72200006 1.4989014e-38
0.0061885533 -0.0020628572 0.72200006 1.4709908e-38
0.0075637833 -0.0020628646 0.72200012 1.4440149e-38
0.0089390287 -0.0020628721 0.72200012 1.5095922e-38
0.010314272 -0.0020628721 0.72200012 1.5728715e-38
0.011689494 -0.0020628646 0.72200006 1.5180562e-38
0.013028539 -0.0020571426 0.72000003 1.4627416e-38
0.014439967 -0.0020628721 0.72200006 1.4912269e-38
0.015815211 -0.0020628572 0.72200012 1.5077603e-38
0.01721425 -0.0020657033 0.72300005 1.3776797e-38
0.018591397 -0.0020656958 0.72300005 1.2490729e-38
0.019968547 -0.0020657033 0.72300005 1.3226835e-38
0.021345675 -0.0020656884 0.72299999 1.3974099e-38
0.022785677 -0.0020714253 0.72500002 1.1956972e-38
0.024199985 -0.0020743012 0.72600007 9.9423429e-39
0.025582828 -0.0020742863 0.72600001 1.2163627e-38
0.027039964 -0.0020800009 0.72800004 1.4265082e-38
0.028426649 -0.0020800009 0.72800004 1.1417107e-38
0.029813301 -0.0020800009 0.72800004 8.5622839e-39
0.031242818 -0.0020828545 0.72900003 7.8297215e-39
0.032720927 -0.0020885766 0.73100001 6.9967561e-39
0.034113307 -0.0020885766 0.73100001 7.0860931e-39
0.035505705 -0.0020885766 0.73100007 7.0885888e-39
0.037200928 -0.0021057203 0.73700005 6.8148606e-39
0.038709495 -0.0021114275 0.73900002 6.5400785e-39
0.040171415 -0.002114296 0.74000007 6.1734624e-39
0.041749503 -0.0021228492 0.74300003 5.7146549e-39
0.043397117 -0.0021342784 0.74700004 5.7150248e-39
0.044699974 -0.0021285638 0.74500006 5.7157157e-39
0.046119008 -0.0021285564 0.74500006 5.8993614e-39
-0.036428597 -0.00071428716 0.75000006 6.4378692e-39
-0.0349067 -0.00071238726 0.74800003 7.1779622e-39
-0.033347651 -0.00070951879 0.74500006 7.4581588e-39
-0.031928603 -0.00070951134 0.74500006 7.8229477e-39
-0.030427635 -0.00070762634 0.74300009 8.0898011e-39
-0.028856209 -0.00070381165 0.73900002 8.4510349e-39
-0.027374323 -0.0007019043 0.73700005 8.9105613e-39
-0.025935259 -0.00070095062 0.73600006 9.369806e-39
-0.024400035 -0.00069712847 0.73200005 1.0675658e-38
-0.022974303 -0.0006961897 0.73100001 1.1877057e-38
-0.02149336 -0.00069333613 0.72800004 1.2152566e-38
-0.020106703 -0.00069333613 0.7280001 1.2425924e-38
-0.01872004 -0.00069333613 0.72800004 1.1964958e-38
-0.017333373 -0.00069332868 0.72800004 1.1596181e-38
-0.01594669 -0.00069333613 0.72800004 1.1966032e-38
-0.014520024 -0.00069143623 0.72600007 1.2427008e-38
-0.013137168 -0.00069142878 0.72600001 1.270216e-38
-0.011754292 -0.00069143623 0.72600007 1.3069869e-38
-0.01035719 -0.00069046766 0.72500002 1.3345382e-38
-0.0089762202 -0.00069046766 0.72500002 1.3712361e-38
-0.0075743212 -0.00068855286 0.72300005 1.4083644e-38
-0.0062143267 -0.00069046766 0.72500002 1.4453141e-38
-0.0048200455 -0.00068854541 0.72299999 1.4265525e-38
-0.0034381053 -0.00068762153 0.72200012 1.4079345e-38
-0.0020543034 -0.00068476796 0.7190001 1.3984639e-38
-0.00068575656 -0.00068570673 0.71999997 1.3987505e-38
0.00068566436 -0.00068570673 0.71999997 1.4170813e-38
0.0020628371 -0.00068762153 0.72200006 1.4454238e-38
0.0034380802 -0.00068762898 0.72200012 1.4635066e-38
0.0048133102 -0.00068762153 0.72200012 1.4823734e-38
0.0061885533 -0.00068762898 0.72200012 1.4537799e-38
0.0075637759 -0.00068761408 0.72200006 1.4362038e-38
0.0089390213 -0.00068762153 0.72200006 1.4632899e-38
0.010314264 -0.00068761408 0.72200006 1.5005962e-38
0.011689507 -0.00068762898 0.72200006 1.4631424e-38
0.013064737 -0.00068762153 0.72200012 1.4273776e-38
0.014439982 -0.00068762898 0.72200012 1.4353063e-38
0.015815202 -0.00068761408 0.72200006 1.4447707e-38
0.017214252 -0.00068856031 0.72300005 1.35996e-38
0.018591398 -0.00068856776 0.72300005 1.2765532e-38
0.019968528 -0.00068855286 0.72300005 1.3228999e-38
0.021345675 -0.00068856031 0.72300005 1.3698226e-38
0.022785686 -0.00069047511 0.72500002 1.2514772e-38
0.024199985 -0.00069143623 0.72600007 1.1234525e-38
0.02565329 -0.00069332868 0.72800004 1.2250883e-38
0.027039975 -0.00069334358 0.72800004 1.3168492e-38
0.028426629 -0.00069332868 0.72800004 1.0956879e-38
0.029854245 -0.0006942749 0.72899997 8.660955e-39
0.031242821 -0.00069429725 0.72900003 7.2801575e-39
0.032720938 -0.00069619715 0.73100001 5.9933956e-39
0.034113314 -0.0006962046 0.73100001 6.260661e-39
0.035651408 -0.00069904327 0.73400009 6.6287009e-39
0.037200924 -0.0007019043 0.73700011 6.5386394e-39
0.038604721 -0.00070189685 0.73700005 6.3556985e-39
0.040117126 -0.00070381165 0.73900002 6.0809207e-39
0.041693311 -0.00070667267 0.7420001 5.8057883e-39
0.043280929 -0.00070951879 0.74500006 5.8068799e-39
0.044699967 -0.00070951134 0.74500006 5.8079183e-39
0.045995209 -0.00070760399 0.74300003 5.8993558e-39
-0.036428601 0.00071430206 0.75000006 6.4360658e-39
-0.034906685 0.00071237981 0.74800003 7.0861057e-39
-0.033347651 0.00070953369 0.74500006 7.4642279e-39
-0.03192858 0.00070953369 0.74500012 7.8229407e-39
-0.030427646 0.00070761889 0.74300003 8.1791437e-39
-0.028895255 0.00070474297 0.74000001 8.4517649e-39
-0.027448609 0.0007038191 0.73900002 9.0942393e-39
-0.025970493 0.0007019043 0.73700011 9.6528543e-39
-0.024566708 0.0007019043 0.73700005 1.0682844e-38
-0.023005752 0.00069715083 0.73200005 1.1602641e-38
-0.021581914 0.0006961897 0.73100001 1.2154738e-38
-0.020134326 0.0006942898 0.72900003 1.2703952e-38
-0.018745758 0.00069428235 0.72899997 1.2058588e-38
-0.017357187 0.00069429725 0.72899997 1.1414659e-38
-0.015946697 0.00069335103 0.72800004 1.187455e-38
-0.014560011 0.00069333613 0.7280001 1.2334449e-38
-0.013137183 0.00069142133 0.72600001 1.2702514e-38
-0.011754307 0.00069142878 0.72600007 1.3069862e-38
-0.01037143 0.00069141388 0.72600007 1.3529405e-38
-0.0089762229 0.00069048256 0.72500002 1.3898186e-38
-0.0075952536 0.00069047511 0.72500008 1.4268045e-38
-0.0062143155 0.00069048256 0.72500002 1.4543187e-38
-0.0048200428 0.00068859011 0.72300005 1.4263371e-38
-0.0034381277 0.00068762153 0.72200006 1.3888842e-38
-0.0020571719 0.00068570673 0.72000003 1.3973849e-38
-0.00068861758 0.00068858266 0.72299999 1.3979232e-38
0.00068760337 0.00068760663 0.72200012 1.4359489e-38
0.0020628483 0.00068761408 0.72200012 1.4631783e-38
0.003438056 0.00068761408 0.72200006 1.4635743e-38
0.004813299 0.00068761408 0.72200006 1.4533473e-38
0.0061971028 0.00068859011 0.72299999 1.443838e-38
0.0075637889 0.00068761408 0.72200006 1.4252928e-38
0.0089390324 0.00068761408 0.72200012 1.4251505e-38
0.010314276 0.00068761408 0.72200012 1.4159643e-38
0.011689506 0.00068760663 0.72200012 1.3973077e-38
0.013064728 0.00068762153 0.72200006 1.3789421e-38
0.014439973 0.00068761408 0.72200006 1.3778318e-38
0.015837122 0.00068857521 0.72300005 1.3691822e-38
0.017214257 0.00068857521 0.72300005 1.3408385e-38
0.018591383 0.00068858266 0.72300005 1.3041397e-38
0.019968534 0.00068859011 0.72300005 1.3225423e-38
0.021404743 0.00069047511 0.72500008 1.342739e-38
0.022785682 0.00069047511 0.72500002 1.2985792e-38
0.024266632 0.00069333613 0.72800004 1.2522719e-38
0.025653303 0.00069332868 0.72800004 1.2345196e-38
0.027039966 0.00069335103 0.72800004 1.2056377e-38
0.028465681 0.00069428235 0.72900003 1.0396483e-38
0.029854249 0.00069428235 0.72900003 8.7527554e-39
0.031328555 0.0006961897 0.73100007 6.8206087e-39
0.032720935 0.00069618225 0.73100001 4.8870424e-39
0.03411331 0.0006961897 0.73100001 5.5176954e-39
0.03550569 0.00069618225 0.73100001 6.1673542e-39
0.037200917 0.0007019043 0.73700005 6.1720121e-39
0.038604736 0.0007019043 0.73700005 6.1730953e-39
0.040117115 0.00070380419 0.73900008 6.0809095e-39
0.041580934 0.00070475042 0.74000001 5.8983231e-39
0.043164734 0.00070763379 0.74300003 5.8983315e-39
0.044579998 0.00070761144 0.74300009 5.8064736e-39
-0.036525734 0.0021485686 0.75200003 6.4360545e-39
-0.034906697 0.0021371394 0.74800003 6.8069923e-39
-0.033347663 0.0021285787 0.74500006 7.1815159e-39
-0.031928614 0.0021285862 0.74500006 7.5502984e-39
-0.030386688 0.0021200031 0.74200004 7.9068826e-39
-0.028895261 0.0021142811 0.74000001 8.3585071e-39
-0.027448606 0.0021114349 0.73900002 9.0027695e-39
-0.025970515 0.0021057054 0.73700005 9.7393186e-39
-0.024533365 0.0021028593 0.73600006 1.0676398e-38
-0.023068609 0.0020971447 0.73400009 1.160445e-38
-0.021581931 0.0020885617 0.73100001 1.1971085e-38
-0.020134345 0.002082862 0.72899997 1.2432044e-38
-0.018745754 0.002082862 0.72900003 1.2059666e-38
-0.017404797 0.0020885617 0.73100001 1.1690522e-38
-0.015968615 0.002082862 0.72899997 1.2057855e-38
-0.014560019 0.0020800009 0.72800004 1.2425922e-38
-0.013173381 0.0020800084 0.72800004 1.2793269e-38
-0.011786697 0.0020800009 0.72800004 1.3069856e-38
-0.010371445 0.0020742714 0.72600007 1.3530114e-38
-0.008988589 0.0020742863 0.72600001 1.3990742e-38
-0.0075952583 0.0020714328 0.72500008 1.4451727e-38
-0.0062143211 0.0020714402 0.72500002 1.4820851e-38
-0.0048200279 0.0020657182 0.72300005 1.4166871e-38
-0.0034428793 0.0020657256 0.72300005 1.3422116e-38
-0.0020628734 0.0020628497 0.72200012 1.3324873e-38
-0.00068861572 0.0020657331 0.72300005 1.3228741e-38
0.00068853097 0.0020657182 0.72300005 1.3513581e-38
0.0020656795 0.0020657256 0.72300005 1.3791961e-38
0.003438069 0.0020628572 0.72200006 1.3880212e-38
0.0048199561 0.0020657256 0.72300005 1.3960174e-38
0.0061971047 0.0020657256 0.72300005 1.3965518e-38
0.0075638001 0.0020628572 0.72200012 1.3959428e-38
0.0089390082 0.0020628572 0.72200006 1.3688234e-38
0.010314251 0.0020628572 0.72200006 1.3500226e-38
0.011689496 0.0020628497 0.72200006 1.3689963e-38
0.013064739 0.0020628646 0.72200012 1.3867561e-38
0.014439982 0.0020628572 0.72200012 1.3780054e-38
0.015837101 0.0020657331 0.72299999 1.3683897e-38
0.017214248 0.0020657182 0.72300005 1.3224702e-38
0.018591398 0.0020657256 0.72300005 1.2765532e-38
0.019968545 0.0020657182 0.72300005 1.3140056e-38
0.021404739 0.0020714328 0.72500008 1.3616451e-38
0.022785677 0.0020714328 0.72500002 1.1598937e-38
0.024266645 0.0020799935 0.72800004 9.4849577e-39
0.025653297 0.0020800009 0.72800004 1.0028827e-38
0.027077105 0.002082862 0.72900003 1.0477909e-38
0.028465673 0.0020828545 0.72899997 1.1052906e-38
0.029854245 0.0020828694 0.72899997 1.1612535e-38
0.031328566 0.0020885542 0.73100007 1.0139946e-38
0.032720942 0.0020885691 0.73100001 8.7473394e-39
0.034159962 0.0020914301 0.73200005 7.2668438e-39
0.035505701 0.0020885766 0.73100001 5.7999954e-39
0.037200928 0.0021057129 0.73700005 5.9879782e-39
0.038709495 0.0021114349 0.73900002 6.1752407e-39
0.040171415 0.0021142885 0.74000001 5.8990209e-39
0.041693304 0.0021200031 0.74200004 5.624592e-39
0.043106645 0.0021199882 0.74200004 5.8068295e-39
0.04451998 0.0021199957 0.74200004 5.9883425e-39
-0.036428615 0.0035714284 0.75000006 6.4356888e-39
-0.034860022 0.003557153 0.74700004 6.5311214e-39
-0.033347644 0.0035476387 0.74500006 6.9038556e-39
-0.031928591 0.0035476238 0.74500006 7.2701144e-39
-0.03042764 0.003538087 0.74300003 7.7235466e-39
-0.028973358 0.0035333335 0.74200004 8.1769759e-39
-0.027485719 0.0035237968 0.74000007 9.002052e-39
-0.026040986 0.0035190508 0.73900002 9.7436234e-39
-0.024566686 0.003509514 0.73700011 1.0678552e-38
-0.023068601 0.0034952387 0.73400003 1.1507944e-38
-0.021611469 0.0034857318 0.73200005 1.1876006e-38
-0.020134313 0.0034714341 0.72900003 1.2151863e-38
-0.018745743 0.0034714267 0.72899997 1.2057865e-38
-0.017404787 0.003480956 0.73100001 1.1964586e-38
-0.015968613 0.0034714267 0.72900003 1.2239726e-38
-0.014580044 0.0034714341 0.72899997 1.2515599e-38
-0.013173369 0.0034666657 0.72800004 1.2791115e-38
-0.011786704 0.0034666657 0.72800004 1.3068777e-38
-0.010371433 0.0034571365 0.72600007 1.3622663e-38
-0.0089886049 0.0034571365 0.72600001 1.4082922e-38
-0.007595263 0.0034523755 0.72500008 1.4635734e-38
-0.0062143249 0.003452383 0.72500002 1.5090964e-38
-0.0048333551 0.003452383 0.72500002 1.4068936e-38
-0.003452417 0.0034523904 0.72500002 1.2961501e-38
-0.0020657494 0.0034428835 0.72300005 1.2674128e-38
-0.00068860082 0.0034428686 0.72300005 1.2400034e-38
0.00068854773 0.0034428686 0.72300005 1.2673724e-38
0.0020656758 0.003442876 0.72299999 1.2953219e-38
0.0034428244 0.003442876 0.72300005 1.3224823e-38
0.004819971 0.0034428686 0.72300005 1.3413487e-38
0.0061971066 0.0034428686 0.72300005 1.3503858e-38
0.0075742551 0.0034428686 0.72300005 1.3600714e-38
0.0089513836 0.0034428835 0.72300005 1.3225121e-38
0.010314264 0.0034380928 0.72200012 1.286495e-38
0.011689509 0.0034380853 0.72200012 1.3419189e-38
0.013064754 0.0034380853 0.72200012 1.3973077e-38
0.014459956 0.0034428835 0.72299999 1.3881965e-38
0.015837103 0.0034428686 0.72300005 1.3691448e-38
0.017261881 0.003452383 0.72500008 1.3041038e-38
0.01864282 0.0034523979 0.72500002 1.2398916e-38
0.019968547 0.0034428686 0.72300005 1.3136119e-38
0.021404749 0.003452383 0.72500008 1.3792587e-38
0.022817129 0.0034571439 0.72600007 1.0124896e-38
0.02426664 0.0034666732 0.72800004 6.4450313e-39
0.02565331 0.0034666583 0.7280001 7.7149566e-39
0.027077101 0.0034714267 0.72899997 8.9343315e-39
0.028465677 0.0034714267 0.72900003 1.1724237e-38
0.029854247 0.0034714192 0.72900003 1.4468541e-38
0.031328559 0.0034809411 0.73100007 1.3562385e-38
0.032765679 0.0034857169 0.73200005 1.2520558e-38
0.034253318 0.0034952387 0.73400009 8.9098494e-39
0.035651408 0.0034952387 0.73400009 5.3390298e-39
0.037301868 0.0035190508 0.73900002 5.8039498e-39
0.038761891 0.0035238042 0.74000001 6.1738071e-39
0.040171407 0.0035238042 0.74000001 5.806468e-39
0.041693307 0.0035333335 0.74200004 5.3483751e-39
0.043164734 0.0035380945 0.74300003 5.8079197e-39
0.044579983 0.003538087 0.74300009 6.1741715e-39
-0.036428601 0.0050000101 0.75000006 6.4346056e-39
-0.034860022 0.0049799979 0.74700004 6.6208003e-39
-0.033347651 0.0049666688 0.74500006 6.9946121e-39
-0.031928603 0.0049666837 0.74500006 7.3615785e-39
-0.030427627 0.0049533322 0.74300009 7.7206529e-39
-0.028973356 0.0049466714 0.74200004 8.1744536e-39
-0.027485725 0.0049333125 0.74000001 9.002052e-39
-0.026040982 0.0049266666 0.73900002 9.8304366e-39
-0.024633359 0.0049266815 0.73900002 1.0672453e-38
-0.023131443 0.0049066544 0.73600006 1.1505784e-38
-0.021611469 0.0048800036 0.73200005 1.1874914e-38
-0.020189533 0.0048733205 0.73100001 1.2241535e-38
-0.018745741 0.0048600063 0.72900003 1.2056423e-38
-0.017357172 0.0048599988 0.72899997 1.1962068e-38
-0.015968632 0.0048600063 0.72899997 1.2238282e-38
-0.014560013 0.004853338 0.72800004 1.2605637e-38
-0.013173377 0.004853338 0.72800004 1.2791113e-38
-0.011754324 0.0048400015 0.72600001 1.3066263e-38
-0.010371448 0.004839994 0.72600007 1.3619789e-38
-0.0089885918 0.0048400015 0.72600001 1.4081833e-38
-0.007605745 0.004839994 0.72600007 1.4450965e-38
-0.0062228688 0.004839994 0.72600007 1.4817958e-38
-0.0048333597 0.0048333257 0.72500002 1.4260855e-38
-0.0034524226 0.0048333406 0.72500002 1.3701563e-38
-0.0020657475 0.0048200116 0.72300005 1.3605393e-38
-0.00068859896 0.0048199967 0.72300005 1.3502742e-38
0.00068852911 0.004820019 0.72299999 1.3502689e-38
0.0020656777 0.0048200041 0.72300005 1.3500261e-38
0.0034428244 0.0048200041 0.72300005 1.4063912e-38
0.0048199729 0.0048199967 0.72300005 1.4618131e-38
0.0061971215 0.0048200041 0.72300005 1.4439817e-38
0.0075742495 0.004820019 0.72300005 1.4265465e-38
0.0089513985 0.004820019 0.72300005 1.40721e-38
0.010328547 0.0048200116 0.72300005 1.3978855e-38
0.011705696 0.0048200116 0.72300005 1.4072866e-38
0.013082824 0.0048200116 0.72299999 1.4172223e-38
0.014459957 0.0048200116 0.72300005 1.3978852e-38
0.015880922 0.0048333406 0.72500002 1.3791194e-38
0.017261876 0.0048333257 0.72500008 1.3320497e-38
0.01864283 0.0048333481 0.72500002 1.2857383e-38
0.020023786 0.0048333332 0.72500002 1.3505981e-38
0.021404743 0.0048333332 0.72500008 1.4159929e-38
0.022879967 0.0048533455 0.72800004 1.0396446e-38
0.024266653 0.0048533306 0.72800004 6.629033e-39
0.025688536 0.0048599914 0.72900003 7.6374228e-39
0.027077105 0.0048599988 0.72900003 8.758959e-39
0.028465671 0.0048599988 0.72899997 1.1247624e-38
0.029936172 0.0048733279 0.73100001 1.3812198e-38
0.031328551 0.0048733354 0.73100001 1.3175084e-38
0.032765679 0.0048800111 0.73200005 1.2525292e-38
0.03425331 0.0048933476 0.73400009 9.6624798e-39
0.035651401 0.0048933327 0.73400009 6.8109145e-39
0.037301872 0.0049266666 0.73900002 6.4478759e-39
0.038866628 0.0049466789 0.74200004 6.0826891e-39
0.040279973 0.004946664 0.74200004 5.8071854e-39
0.041693296 0.0049466789 0.74200004 5.6238886e-39
0.043164749 0.0049533397 0.74300003 5.7160968e-39
0.044579975 0.0049533322 0.74300003 5.9004643e-39
-0.036331445 0.0064114258 0.74800003 6.4335392e-39
-0.034766681 0.0063857138 0.74500006 6.7158728e-39
-0.033347629 0.0063857287 0.74500006 7.0914783e-39
-0.031842876 0.0063685775 0.74300003 7.3597989e-39
-0.03038669 0.0063600093 0.74200004 7.807127e-39
-0.028973363 0.0063599944 0.74200004 8.1744592e-39
-0.02748573 0.0063428432 0.74000001 9.0006101e-39
-0.026040979 0.0063342899 0.73900002 9.8333009e-39
-0.024566714 0.0063171387 0.73700005 1.067496e-38
-0.023131456 0.0063085854 0.73600006 1.1415021e-38
-0.021670522 0.0062914416 0.73400003 1.1876346e-38
-0.020189524 0.0062656999 0.73100007 1.2242249e-38
-0.01874576 0.006248571 0.72899997 1.2056422e-38
-0.017357171 0.006248571 0.72900003 1.1869514e-38
-0.0159686 0.006248571 0.72899997 1.2237206e-38
-0.014560021 0.0062400103 0.72800004 1.2608144e-38
-0.013137166 0.0062228516 0.72600007 1.2885095e-38
-0.01175429 0.0062228441 0.72600007 1.3066256e-38
-0.010371462 0.0062228516 0.72600007 1.3616912e-38
-0.0089885863 0.0062228441 0.72600007 1.4079311e-38
-0.007605731 0.006222859 0.72600001 1.4267999e-38
-0.0062228688 0.0062228516 0.72600007 1.4452048e-38
-0.0048333635 0.0062142983 0.72500002 1.4455297e-38
-0.0034524132 0.0062142909 0.72500002 1.4357322e-38
-0.0020657456 0.0061971471 0.72300005 1.4543463e-38
-0.00068861758 0.006197162 0.72300005 1.4617337e-38
0.00068853097 0.0061971545 0.72300005 1.4333914e-38
0.0020656777 0.0061971545 0.72300005 1.4064189e-38
0.0034428262 0.0061971471 0.72300005 1.5003394e-38
0.0048199543 0.006197162 0.72299999 1.5825252e-38
0.0061971028 0.0061971545 0.72300005 1.5371815e-38
0.0075742514 0.0061971545 0.72300005 1.4907966e-38
0.0089514004 0.0061971545 0.72300005 1.5003023e-38
0.010328549 0.0061971545 0.72300005 1.4993703e-38
0.011705677 0.0061971545 0.72299999 1.4629238e-38
0.013082824 0.006197162 0.72300005 1.4256502e-38
0.014459972 0.0061971471 0.72300005 1.406959e-38
0.01583712 0.0061971545 0.72300005 1.3876205e-38
0.017214246 0.0061971545 0.72299999 1.3592419e-38
0.01864282 0.0062142909 0.72500002 1.3317265e-38
0.02002378 0.006214276 0.72500002 1.3869709e-38
0.021434262 0.006222859 0.72600001 1.4432906e-38
0.022879981 0.0062400028 0.72800004 1.0671227e-38
0.024266629 0.0062399954 0.72800004 6.8094698e-39
0.025688533 0.0062485784 0.72899997 7.629888e-39
0.027077109 0.0062485635 0.72900003 8.4722869e-39
0.028465679 0.006248571 0.72900003 1.087804e-38
0.029936168 0.0062656999 0.73100001 1.3166739e-38
0.031328548 0.0062657073 0.73100001 1.289122e-38
0.032765675 0.0062742829 0.73200005 1.2518424e-38
0.034159973 0.0062742978 0.73200005 1.0403982e-38
0.035651397 0.0062914416 0.73400003 8.2867368e-39
0.03735235 0.0063428655 0.74000001 7.1861388e-39
0.038761884 0.0063428506 0.74000001 5.9912053e-39
0.040279962 0.0063600019 0.74200004 5.899374e-39
0.0416933 0.0063600019 0.74200004 5.8079029e-39
0.043164745 0.0063685626 0.74300009 5.7160744e-39
0.04457999 0.0063685775 0.74300009 5.5320377e-39
-0.036428615 0.0078571439 0.75000006 6.5282544e-39
-0.034860022 0.0078257248 0.74700004 6.9928241e-39
-0.033437163 0.0078257173 0.74700004 7.3659156e-39
-0.031928591 0.0078047588 0.74500006 7.7303835e-39
-0.030427625 0.0077838153 0.74300003 7.9972748e-39
-0.029012386 0.0077838153 0.74300003 8.3588546e-39
-0.027560025 0.0077733397 0.74200004 9.0927973e-39
-0.026040971 0.0077419057 0.73900002 9.8275556e-39
-0.024566688 0.0077209547 0.73700011 1.0672445e-38
-0.023131449 0.0077104792 0.73600006 1.1510441e-38
-0.021670494 0.0076895282 0.73400009 1.2060373e-38
-0.020189561 0.0076580942 0.73100001 1.2611023e-38
-0.018797163 0.0076580867 0.73100007 1.2237937e-38
-0.017404784 0.0076580942 0.73100007 1.1865207e-38
-0.016012408 0.0076580867 0.73100001 1.233191e-38
-0.014620028 0.0076580942 0.73100001 1.2795758e-38
-0.013191459 0.0076371431 0.72899997 1.2885089e-38
-0.011754305 0.0076057091 0.72600007 1.2971544e-38
-0.010371449 0.0076057166 0.72600001 1.2599538e-38
-0.0090133566 0.0076266751 0.72800004 1.2330122e-38
-0.0076057459 0.0076057091 0.72600001 1.287969e-38
-0.0062228716 0.0076057166 0.72600007 1.3531898e-38
-0.0048400299 0.0076057091 0.72600001 1.3617667e-38
-0.0034571686 0.0076057091 0.72600007 1.3718058e-38
-0.0020714621 0.0075952485 0.72500002 1.3613253e-38
-0.00069050444 0.0075952336 0.72500008 1.3517476e-38
0.00068854587 0.0075743049 0.72300005 1.3417035e-38
0.0020656795 0.0075742975 0.72300005 1.3418473e-38
0.0034428076 0.0075743124 0.72300005 1.3702591e-38
0.0048199561 0.0075743049 0.72300005 1.4082516e-38
0.0061971047 0.0075743049 0.72300005 1.4073214e-38
0.0075742532 0.00757429 0.72300005 1.4073208e-38
0.0089513818 0.0075743124 0.72299999 1.397742e-38
0.01032853 0.0075743049 0.72300005 1.3884498e-38
0.011705677 0.0075743124 0.72300005 1.3697587e-38
0.013082826 0.0075742975 0.72300005 1.3419559e-38
0.014459974 0.0075743049 0.72300005 1.359963e-38
0.015837105 0.0075743049 0.72299999 1.3683915e-38
0.017261885 0.0075952411 0.72500002 1.3500227e-38
0.01864282 0.0075952485 0.72500002 1.3316537e-38
0.020023778 0.0075952485 0.72500002 1.3873986e-38
0.021434266 0.0076057166 0.72600007 1.4438269e-38
0.022911392 0.0076371431 0.72899997 1.0488622e-38
0.024299961 0.0076371506 0.72899997 6.5318053e-39
0.025688536 0.0076371357 0.72900003 5.4258347e-39
0.027151424 0.0076580793 0.73100007 4.3263703e-39
0.028543802 0.0076580867 0.73100007 6.2646519e-39
0.02993618 0.0076580942 0.73100001 8.1978384e-39
0.031328559 0.0076580867 0.73100001 8.19387e-39
0.032765679 0.0076685771 0.73200005 8.100224e-39
0.03434664 0.0077104717 0.73600006 7.9186872e-39
0.035748556 0.0077104792 0.73600006 7.7350036e-39
0.037301868 0.0077419207 0.73900002 7.0010231e-39
0.038919024 0.0077838227 0.74300003 6.1737917e-39
0.040334273 0.0077838004 0.74300009 5.9908438e-39
0.041749511 0.0077838153 0.74300003 5.7160534e-39
0.043164738 0.0077838078 0.74300003 5.4398266e-39
0.044879951 0.0078362003 0.74800003 5.2550878e-39
0.046304729 0.0078361854 0.74800003 5.0710651e-39
-0.036331471 0.0092609674 0.74800003 6.6200969e-39
-0.034860026 0.0092485845 0.74700004 7.179002e-39
-0.033437166 0.0092485845 0.74700004 7.6482254e-39
-0.031842873 0.009199053 0.74300003 8.0091144e-39
-0.030386694 0.0091866627 0.74200004 8.2760169e-39
-0.029012401 0.009199053 0.74300009 8.4528467e-39
-0.027560029 0.0091866553 0.74200004 9.0928001e-39
-0.026040969 0.0091495216 0.73900002 9.7425346e-39
-0.024566691 0.0091247559 0.73700011 1.0677103e-38
-0.023131439 0.009112373 0.73600006 1.1505769e-38
-0.021729559 0.009112373 0.73600006 1.2243677e-38
-0.020217188 0.0090628639 0.73200005 1.2884361e-38
-0.018822905 0.0090628639 0.73200005 1.2327238e-38
-0.017428622 0.0090628713 0.73200005 1.1779458e-38
-0.016012397 0.0090504661 0.73100001 1.2338008e-38
-0.014620018 0.0090504736 0.73100001 1.2887961e-38
-0.013191455 0.0090257078 0.72900003 1.2887976e-38
-0.011786695 0.0090133324 0.72800004 1.2785336e-38
-0.010371465 0.0089885667 0.72600001 1.1663537e-38
-0.008988589 0.0089885592 0.72600007 1.0475771e-38
-0.0076057478 0.0089885741 0.72600001 1.1479859e-38
-0.0062228725 0.0089885667 0.72600007 1.2497957e-38
-0.0048400103 0.0089885667 0.72600007 1.2765587e-38
-0.0034571686 0.0089885667 0.72600007 1.2957839e-38
-0.002071464 0.0089761987 0.72500002 1.2673696e-38
-0.00069049327 0.0089761913 0.72500008 1.2310661e-38
0.00069044391 0.0089762062 0.72500002 1.249003e-38
0.0020714016 0.0089761913 0.72500002 1.2676216e-38
0.0034428244 0.0089514405 0.72300005 1.2490039e-38
0.0048199729 0.008951433 0.72300005 1.2314273e-38
0.0062142652 0.0089762062 0.72500002 1.2765571e-38
0.0075952043 0.0089761987 0.72500002 1.313829e-38
0.0089761624 0.0089762062 0.72500002 1.2949235e-38
0.010328545 0.0089514405 0.72300005 1.2770599e-38
0.011738055 0.0089762062 0.72500002 1.2673755e-38
0.013119028 0.0089761913 0.72500002 1.2585857e-38
0.014499963 0.0089762136 0.72500002 1.3041797e-38
0.015880922 0.0089761987 0.72500002 1.350419e-38
0.017261876 0.0089761987 0.72500008 1.3408396e-38
0.018668564 0.0089885667 0.72600007 1.3225779e-38
0.020051403 0.0089885592 0.72600001 1.3871473e-38
0.021493299 0.0090133399 0.72800004 1.4435772e-38
0.022879984 0.009013325 0.7280001 1.0313589e-38
0.024299964 0.0090257078 0.72900003 6.166987e-39
0.025688531 0.0090257227 0.72899997 3.2146053e-39
0.027151396 0.0090504736 0.73100001 1.8728774e-40
0.028543796 0.0090504736 0.73100007 1.7481577e-39
0.029936174 0.0090504661 0.73100007 3.2247087e-39
0.031371392 0.0090628564 0.73200005 3.4941251e-39
0.032855205 0.0090876147 0.73400009 3.6853211e-39
0.034393307 0.0091247633 0.73700005 5.4355681e-39
0.035797112 0.0091247633 0.73700011 7.1825795e-39
0.037352376 0.009161897 0.74000007 6.8166584e-39
0.038919035 0.009199053 0.74300003 6.3571194e-39
0.040334262 0.009199053 0.74300003 5.9908522e-39
0.041974269 0.009248592 0.74700004 5.6231431e-39
0.04345521 0.0092609599 0.74800003 5.2550766e-39
0.044879973 0.0092609525 0.74800003 4.8866669e-39
-0.03633146 0.010685712 0.74800003 6.6215374e-39
-0.034860026 0.010671437 0.74700004 7.0871637e-39
-0.03343717 0.010671452 0.74700004 7.4605943e-39
-0.031842865 0.010614291 0.74300009 7.9222983e-39
-0.030427622 0.010614291 0.74300003 8.1841884e-39
-0.02901241 0.010614291 0.74300003 8.4503412e-39
-0.027560029 0.010600008 0.74200004 9.1864321e-39
-0.026040964 0.010557145 0.73900002 9.8322163e-39
-0.024566714 0.010528579 0.73700005 1.067028e-38
-0.023162881 0.010528564 0.73700011 1.1407828e-38
-0.021729553 0.010514274 0.73600006 1.2057487e-38
-0.020217188 0.010457151 0.73200005 1.270175e-38
-0.018822905 0.010457151 0.73200005 1.2331876e-38
-0.017428622 0.010457166 0.73200005 1.2056387e-38
-0.016034311 0.010457158 0.73200005 1.2426974e-38
-0.014620007 0.010442846 0.73100001 1.288761e-38
-0.013191475 0.010414287 0.72899997 1.2979111e-38
-0.011786701 0.010400005 0.72800004 1.315875e-38
-0.010400017 0.010400005 0.72800004 1.259115e-38
-0.0089886039 0.010371432 0.72600007 1.2122648e-38
-0.0076057282 0.010371417 0.72600007 1.2682272e-38
-0.0062228725 0.010371432 0.72600007 1.331651e-38
-0.0048400103 0.010371417 0.72600007 1.3414801e-38
-0.0034571686 0.010371432 0.72600007 1.3592015e-38
-0.0020714565 0.010357156 0.72500002 1.3690665e-38
-0.00069049885 0.010357141 0.72500008 1.3775685e-38
0.00069043832 0.010357156 0.72500002 1.36921e-38
0.002071396 0.010357141 0.72500002 1.3683857e-38
0.0034523685 0.010357141 0.72500008 1.3783592e-38
0.0048333039 0.010357141 0.72500002 1.3867534e-38
0.0062142615 0.010357141 0.72500002 1.3876142e-38
0.0075951987 0.010357141 0.72500002 1.3959368e-38
0.0089761568 0.010357141 0.72500002 1.3967618e-38
0.010357128 0.010357149 0.72500008 1.387008e-38
0.011738065 0.010357164 0.72500002 1.415531e-38
0.013119022 0.010357149 0.72500002 1.442256e-38
0.01449996 0.010357164 0.72500002 1.4250003e-38
0.015880916 0.010357149 0.72500002 1.4066324e-38
0.017285686 0.010371424 0.72600001 1.3779688e-38
0.018668558 0.010371417 0.72600007 1.350021e-38
0.020051401 0.010371432 0.72600001 1.3964742e-38
0.021493312 0.010399997 0.7280001 1.4435784e-38
0.022879975 0.010399997 0.72800004 1.1505326e-38
0.024266627 0.010400005 0.72800004 8.6487104e-39
0.025688533 0.01041428 0.72900003 5.3311237e-39
0.02715141 0.010442853 0.73100001 2.113294e-39
0.028543789 0.01044286 0.73100001 4.0526014e-39
0.029936187 0.010442838 0.73100007 5.8875569e-39
0.031371392 0.010457151 0.73200005 4.5089861e-39
0.032855213 0.010485724 0.73400003 3.1300201e-39
