# .PCD v0.7 - Point Cloud Data file format
VERSION 0.7
FIELDS x y z rgb
SIZE 4 4 4 4
TYPE F F F F
COUNT 1 1 1 1
WIDTH 970
HEIGHT 1
VIEWPOINT 0 0 0 1 0 0 0
POINTS 970
DATA ascii
0.02325717 0.038761891 0.74000007 4.8784454e-39
0.024666691 0.038761899 0.74000007 7.0054049e-39
0.026146691 0.038866665 0.74200004 6.4454587e-39
0.027597178 0.038919047 0.74300009 5.7865205e-39
0.029168613 0.039128579 0.74700004 1.0138357e-38
0.030591477 0.03912859 0.74700004 1.4475367e-38
0.032057151 0.039180957 0.74800003 1.2627113e-38
0.033481937 0.039180957 0.74800003 1.0778935e-38
0.034906685 0.039180946 0.74800003 1.0591686e-38
0.036428608 0.039285712 0.75000012 1.050422e-38
0.038008597 0.039442848 0.75300008 1.097243e-38
0.03960003 0.0396 0.7560001 1.1527031e-38
0.041148614 0.039704774 0.75800002 1.143663e-38
0.042873349 0.039966669 0.76300007 1.1347655e-38
0.04432667 0.039966673 0.76300001 1.1159309e-38
0.045780003 0.039966676 0.76300007 1.1067832e-38
-0.036817096 0.041148577 0.75800002 9.9664046e-39
-0.035373293 0.041148592 0.75800002 1.0963989e-38
-0.033839956 0.041040007 0.75600004 8.1062776e-39
-0.032357115 0.040985707 0.75500011 5.1614447e-39
-0.030796144 0.04082286 0.75200003 4.5096293e-39
-0.029285694 0.040714286 0.75000012 3.7803347e-39
-0.027782831 0.040605724 0.74800003 6.1720121e-39
-0.026322821 0.040551439 0.7470001 8.5626048e-39
-0.024899954 0.040551446 0.7470001 8.9335355e-39
-0.023414265 0.04044288 0.74500006 9.2998182e-39
-0.021995224 0.040442862 0.74500012 9.0254047e-39
-0.020520957 0.040334277 0.74300009 8.7484549e-39
-0.01910571 0.040334288 0.74300009 1.1605751e-38
-0.017619006 0.040171422 0.74000001 1.4455568e-38
-0.016253294 0.040280011 0.74200004 1.4655787e-38
-0.014799968 0.040171418 0.74000001 1.4825109e-38
-0.013390453 0.040171426 0.74000001 1.4933803e-38
-0.01196475 0.040117148 0.73900008 1.4912932e-38
-0.010557118 0.040117145 0.73900002 1.3720081e-38
-0.009149502 0.040117133 0.73900008 1.2426507e-38
-0.0077418699 0.040117152 0.73900002 1.2619162e-38
-0.0063342764 0.040117137 0.73900008 1.2704917e-38
-0.0049132961 0.040008578 0.73700011 1.335747e-38
-0.0035094707 0.040008578 0.73700005 1.3997447e-38
-0.0020970977 0.039845712 0.73400003 1.5300004e-38
-0.00070092408 0.039954282 0.73600006 1.6487456e-38
0.00070097717 0.039954271 0.73600006 1.3825711e-38
0.0021028393 0.039954275 0.73600012 1.1139098e-38
0.0035047629 0.039954282 0.73600012 9.4684168e-39
0.0049066623 0.039954275 0.73600012 7.8229294e-39
0.0063085635 0.039954271 0.73600012 1.0305736e-38
0.0077104871 0.039954279 0.73600012 1.2796086e-38
0.0091123888 0.039954275 0.73600006 1.5945428e-38
0.010514288 0.039954286 0.73600006 1.8979996e-38
0.011916214 0.039954279 0.73600006 1.8987939e-38
0.01333624 0.040008564 0.73700005 1.889283e-38
0.014740027 0.040008571 0.73700005 1.7430593e-38
0.016143873 0.040008582 0.73700005 1.5922428e-38
0.01754766 0.040008575 0.73700005 8.6329304e-39
0.019002885 0.040117141 0.73900002 1.2860879e-39
0.0204105 0.040117145 0.73900008 2.2044401e-39
0.021818135 0.040117145 0.73900002 3.1317591e-39
0.023257168 0.040171418 0.74000007 3.586629e-39
0.024666686 0.040171411 0.74000007 3.9600877e-39
0.026146704 0.040279992 0.74200004 2.2963036e-39
0.027560031 0.040279999 0.74200004 6.5227221e-40
0.029168632 0.040551435 0.74700004 6.6452964e-39
0.03063239 0.040605724 0.74800003 1.2530271e-38
0.032057177 0.04060572 0.74800003 1.142965e-38
0.033481929 0.040605728 0.74800003 1.0312906e-38
0.034906719 0.040605724 0.74800003 1.0312179e-38
0.036428593 0.040714286 0.75000012 1.0227965e-38
0.038109541 0.040985711 0.75500011 1.0698711e-38
0.039704811 0.041148577 0.75800008 1.1158606e-38
0.041148618 0.041148577 0.75800008 1.1250082e-38
0.042760983 0.041311428 0.76100004 1.1343707e-38
0.044210508 0.041311435 0.7610001 1.1342627e-38
0.045780011 0.041420002 0.76300007 1.1251507e-38
-0.035373289 0.042592391 0.75800002 1.124956e-38
-0.033839975 0.042480011 0.7560001 9.121849e-39
-0.032271408 0.042311404 0.75300008 7.0835315e-39
-0.030796157 0.042255238 0.75200009 4.5067566e-39
-0.029285688 0.042142857 0.75000012 2.0254242e-39
-0.027857153 0.042142849 0.75000012 5.2500894e-39
-0.026358057 0.042030469 0.74800003 8.5608112e-39
-0.024899937 0.041974291 0.74700004 9.392692e-39
-0.023414264 0.041861918 0.74500006 1.0313199e-38
-0.021995245 0.041861922 0.74500012 9.4830926e-39
-0.020576186 0.041861914 0.74500006 8.7387228e-39
-0.019105684 0.041749544 0.74300003 9.8482822e-39
-0.017666645 0.041693319 0.7420001 1.0966545e-38
-0.016253321 0.041693326 0.7420001 1.1332545e-38
-0.014799974 0.041580942 0.74000007 1.1694521e-38
-0.013390456 0.041580949 0.74000001 1.0132974e-38
-0.011964726 0.041524772 0.73900002 8.6631396e-39
-0.010557133 0.041524753 0.73900002 7.8275425e-39
-0.0091494778 0.041524749 0.73900002 6.9956715e-39
-0.0077418848 0.041524753 0.73900008 6.9982106e-39
-0.0063342522 0.041524768 0.73900002 6.9996806e-39
-0.0049132886 0.04141238 0.73700005 8.7478187e-39
-0.0035094633 0.041412387 0.73700005 1.0498792e-38
-0.0021028495 0.041356191 0.73600006 1.2344468e-38
-0.00070092594 0.041356176 0.73600006 1.4175462e-38
0.0007009753 0.041356187 0.73600006 1.0216873e-38
0.0021028765 0.041356184 0.73600006 6.3371271e-39
0.003504761 0.041356191 0.73600012 5.7896468e-39
0.0049066623 0.04135618 0.73600012 5.1479011e-39
0.0063085617 0.041356176 0.73600012 8.3786704e-39
0.0077104853 0.041356184 0.73600012 1.1701644e-38
0.009112387 0.041356191 0.73600006 1.4287779e-38
0.010514286 0.041356187 0.73600006 1.6970064e-38
0.011916212 0.04135618 0.73600006 1.7516814e-38
0.013336248 0.041412387 0.73700005 1.8066759e-38
0.014740032 0.041412391 0.73700005 1.686896e-38
0.016143877 0.041412387 0.73700005 1.5759646e-38
0.017547665 0.041412376 0.73700005 1.1408824e-38
0.01900287 0.041524768 0.73900002 7.0717494e-39
0.020410486 0.041524753 0.73900008 8.10131e-39
0.02181812 0.041524749 0.73900008 9.2129951e-39
0.023257162 0.041580945 0.74000007 8.2881549e-39
0.024666678 0.041580938 0.74000007 7.451591e-39
0.02614668 0.041693326 0.7420001 3.9528738e-39
0.027597159 0.041749533 0.74300003 5.5355213e-40
0.029090472 0.04186191 0.74500012 4.5175704e-39
0.030591479 0.041974291 0.7470001 8.5708921e-39
0.032057166 0.042030469 0.74800003 8.7491863e-39
0.033481956 0.04203048 0.74800003 9.0056506e-39
0.035 0.042142849 0.75000012 9.1996954e-39
0.036525756 0.042255238 0.75200009 9.4885871e-39
0.038109552 0.042423796 0.75500011 1.0143386e-38
0.039704807 0.042592395 0.75800002 1.0791257e-38
0.041148622 0.04259238 0.75800008 1.0974209e-38
0.042761009 0.042760968 0.76100004 1.1158241e-38
0.044210531 0.042760953 0.76100004 1.1066407e-38
0.045780018 0.042873334 0.76300007 1.1067125e-38
-0.035279971 0.043920007 0.7560001 1.1518267e-38
-0.033839952 0.043920007 0.7560001 1.0231462e-38
-0.032271396 0.043745715 0.75300002 8.9292364e-39
-0.030796155 0.043687619 0.75200003 4.5921349e-39
-0.029285703 0.043571427 0.75000012 1.9266453e-40
-0.027782815 0.043455239 0.74800003 4.3338939e-39
-0.02632278 0.043397151 0.74700004 8.4704162e-39
-0.024899956 0.043397151 0.7470001 9.9472951e-39
-0.023477092 0.043397143 0.7470001 1.1324118e-38
-0.021995245 0.043280963 0.74500012 1.0038431e-38
-0.020576186 0.043280955 0.74500006 8.6501257e-39
-0.019105703 0.04316476 0.74300009 7.9900483e-39
-0.017690454 0.043164752 0.74300003 7.3680624e-39
-0.016253307 0.04310666 0.74200004 7.9205663e-39
-0.01479998 0.042990465 0.74000007 8.4669172e-39
-0.01339046 0.042990476 0.74000007 5.4230755e-39
-0.011964739 0.04293238 0.73900002 2.3063663e-39
-0.010557146 0.042932387 0.73900008 1.9307328e-39
-0.0091494909 0.04293238 0.73900008 1.5691292e-39
-0.0077418978 0.042932369 0.73900008 1.4697589e-39
-0.0063342652 0.042932384 0.73900008 1.2914885e-39
-0.0049266326 0.04293238 0.73900002 4.1344625e-39
-0.0035190168 0.042932387 0.73900008 6.9989561e-39
-0.0021028514 0.042758089 0.73600006 9.403915e-39
-0.00070186285 0.042816188 0.73700005 1.1779796e-38
0.00070097158 0.042758096 0.73600006 6.7123374e-39
0.0021028728 0.042758092 0.73600006 1.5637944e-39
0.0035047592 0.042758089 0.73600012 2.021523e-39
0.0049066604 0.042758081 0.73600012 2.487529e-39
0.0063085598 0.042758092 0.73600012 6.5430101e-39
0.0077104834 0.042758081 0.73600012 1.0498046e-38
0.0091123851 0.042758092 0.73600012 1.2716816e-38
0.010514284 0.042758089 0.73600006 1.4926303e-38
0.011916208 0.042758096 0.73600012 1.6042016e-38
0.013336253 0.042816203 0.73700005 1.7132558e-38
0.01474004 0.042816192 0.73700005 1.6309622e-38
0.016143849 0.042816181 0.73700011 1.546797e-38
0.017547671 0.042816199 0.73700005 1.4170727e-38
0.019002857 0.04293238 0.73900008 1.2792485e-38
0.020410514 0.042932376 0.73900008 1.4007161e-38
0.021818107 0.04293238 0.73900008 1.5192748e-38
0.023257159 0.042990461 0.74000007 1.3084452e-38
0.024666674 0.042990454 0.74000007 1.0854549e-38
0.026146695 0.04310666 0.7420001 5.6023254e-39
0.027560018 0.043106653 0.74200004 3.716776e-40
0.029090511 0.043280959 0.74500006 2.4835633e-39
0.030509528 0.043280963 0.74500012 4.5165055e-39
0.032057196 0.043455243 0.74800003 6.1745709e-39
0.033481944 0.043455232 0.74800003 7.7314359e-39
0.035000008 0.043571431 0.75000012 8.1758731e-39
0.03657433 0.043745711 0.75300008 8.6634955e-39
0.038160019 0.043920003 0.7560001 9.5033932e-39
0.039809521 0.044152372 0.76000005 1.0330985e-38
0.04125718 0.044152375 0.76000011 1.0696887e-38
0.042760998 0.044210482 0.76100004 1.0972758e-38
0.044210523 0.044210471 0.7610001 1.0881647e-38
-0.035373285 0.045479998 0.75800008 1.0689613e-38
-0.033839989 0.045359995 0.7560001 1.013681e-38
-0.032228533 0.045120005 0.75200003 9.5850258e-39
-0.030796168 0.045120016 0.75200009 7.4594831e-39
-0.029363763 0.045120008 0.75200003 5.4308779e-39
-0.02785714 0.044999998 0.75000012 7.0889657e-39
-0.026358062 0.04488001 0.74800003 8.651939e-39
-0.024933312 0.044879999 0.74800003 9.6692803e-39
-0.02347707 0.044820003 0.74700004 1.0681283e-38
-0.022054207 0.044820011 0.74700004 1.0039168e-38
-0.020576186 0.044700015 0.74500012 9.4856247e-39
-0.019157128 0.044700008 0.74500006 9.1114458e-39
-0.017666657 0.044519991 0.7420001 8.839905e-39
-0.016209504 0.044399984 0.74000007 7.4595209e-39
-0.014799983 0.044399992 0.74000007 6.1655619e-39
-0.013390466 0.044399992 0.74000007 4.4138589e-39
-0.011964752 0.044339996 0.73900008 2.575382e-39
-0.01055712 0.044340011 0.73900002 4.2356208e-39
-0.0091495039 0.044339992 0.73900008 5.8904226e-39
-0.0077418718 0.044340007 0.73900002 5.1517617e-39
-0.0063342801 0.044339996 0.73900008 4.4084724e-39
-0.0049266475 0.044340007 0.73900002 5.4226117e-39
-0.0035190298 0.044339992 0.73900008 6.5300522e-39
-0.0021028533 0.044159997 0.73600006 7.7321968e-39
-0.0007018554 0.044220012 0.73700005 8.9288973e-39
0.00070193084 0.044220001 0.73700011 4.9666656e-39
0.002102871 0.044159994 0.73600006 1.01095e-39
0.0035047964 0.044160001 0.73600006 1.1035281e-39
0.0049066585 0.044159982 0.73600012 1.2886327e-39
0.0063085598 0.04415999 0.73600012 3.499139e-39
0.0077104815 0.044159982 0.73600012 5.7046132e-39
0.0091123832 0.044159994 0.73600012 6.7219643e-39
0.010514284 0.044159997 0.73600006 7.7318633e-39
0.011916206 0.044160001 0.73600012 8.3823124e-39
0.013336224 0.044220001 0.73700011 9.0194043e-39
0.014740047 0.044220015 0.73700005 9.0233336e-39
0.016143855 0.044220001 0.73700011 9.0190106e-39
0.017547678 0.044220012 0.73700005 9.020786e-39
0.019002885 0.044340003 0.73900002 9.0319235e-39
0.0204105 0.044340007 0.73900008 9.4893242e-39
0.021818131 0.044340003 0.73900002 1.0047491e-38
0.023257188 0.04439998 0.74000007 1.0493373e-38
0.024666706 0.044399988 0.74000007 1.1034296e-38
0.026146706 0.044520002 0.74200004 9.9411939e-39
0.027560033 0.044519994 0.74200004 8.91848e-39
0.029012378 0.044580001 0.74300009 7.1793761e-39
0.030427624 0.044579998 0.74300009 5.4287676e-39
0.032057185 0.044880006 0.74800003 7.6478919e-39
0.033481937 0.044879995 0.74800003 9.8648217e-39
0.035000015 0.045000002 0.75000012 1.1146535e-38
0.036671482 0.045300011 0.75500005 1.235341e-38
0.038261004 0.045480005 0.75800002 1.2818067e-38
0.039809503 0.045599997 0.76000011 1.3362255e-38
0.041257117 0.045599993 0.76000011 1.2354209e-38
0.042761032 0.045660015 0.76100004 1.1337572e-38
0.044210505 0.045660019 0.76100004 1.1156064e-38
-0.035373311 0.04692382 0.75800002 9.7665767e-39
-0.033839971 0.046800002 0.7560001 9.9491701e-39
-0.032357126 0.046738092 0.75500011 1.0135334e-38
-0.030796144 0.046552382 0.75200003 1.0413335e-38
-0.029363777 0.046552382 0.75200009 1.0679146e-38
-0.027857132 0.046428569 0.75000012 9.7557586e-39
-0.026428537 0.046428576 0.75000012 8.8399148e-39
-0.024999976 0.046428565 0.75000012 9.4888603e-39
-0.023508534 0.046304766 0.74800003 1.0041336e-38
-0.022054248 0.046242863 0.74700004 1.0135354e-38
-0.020631386 0.046242863 0.74700004 1.0224657e-38
-0.019157127 0.04611906 0.74500006 1.0221767e-38
-0.017690446 0.045995247 0.74300003 1.0221416e-38
-0.016275238 0.04599525 0.74300009 7.0957887e-39
-0.014859988 0.045995243 0.74300009 3.8689682e-39
-0.013390471 0.045809507 0.74000007 3.3993651e-39
-0.011980954 0.045809515 0.74000007 2.8548275e-39
-0.010557135 0.045747623 0.73900008 6.5462022e-39
-0.0091494797 0.04574763 0.73900002 1.0124896e-38
-0.0077418867 0.045747619 0.73900008 8.8384617e-39
-0.0063342541 0.045747615 0.73900002 7.4537518e-39
-0.0049266606 0.045747623 0.73900008 6.7097379e-39
-0.0035190056 0.04574763 0.73900008 5.9786581e-39
-0.0021028551 0.045561895 0.73600006 5.9740114e-39
-0.00070093153 0.045561902 0.73600006 5.9779407e-39
0.00070096785 0.045561898 0.73600006 3.2146095e-39
0.0021028691 0.045561895 0.73600006 3.6915667e-40
0.0035047927 0.045561898 0.73600006 2.7625899e-40
0.0049066548 0.045561884 0.73600012 9.2945325e-41
0.0063085561 0.045561898 0.73600012 5.5140394e-40
0.0077104797 0.045561891 0.73600012 9.2125004e-40
0.0091123814 0.045561902 0.73600012 7.3506232e-40
0.010514305 0.045561895 0.73600012 5.5644721e-40
0.011916204 0.045561902 0.73600012 7.3512958e-40
0.013336231 0.045623802 0.73700005 9.2345569e-40
0.014740054 0.045623817 0.73700005 1.7453032e-39
0.016143864 0.045623817 0.73700011 2.5779183e-39
0.017547684 0.045623813 0.73700005 3.8611014e-39
0.01900287 0.045747615 0.73900002 5.1536338e-39
0.020410523 0.045747627 0.73900002 5.0546419e-39
0.021818116 0.04574763 0.73900008 4.8806525e-39
0.023257185 0.045809507 0.74000007 7.9901422e-39
0.024666701 0.045809519 0.74000007 1.1144857e-38
0.026146682 0.045933332 0.7420001 1.4393562e-38
0.027597152 0.045995243 0.74300009 1.7494773e-38
0.029090514 0.046119057 0.74500006 1.1885962e-38
0.030591471 0.046242878 0.74700004 6.2728691e-39
0.032057174 0.046304755 0.74800003 9.1233512e-39
0.033481963 0.04630477 0.74800003 1.197743e-38
0.034906715 0.046304759 0.74800003 1.4008936e-38
0.036331438 0.046304755 0.74800003 1.6035156e-38
0.038160022 0.046799995 0.7560001 1.6236147e-38
0.039809521 0.047047604 0.76000011 1.6313261e-38
0.041257132 0.047047619 0.76000011 1.4020589e-38
0.042761013 0.047109529 0.7610001 1.1621723e-38
0.044210494 0.047109526 0.76100004 1.1523767e-38
-0.035373308 0.048367623 0.75800008 8.9364531e-39
-0.033795211 0.048176199 0.75500011 8.2028369e-39
-0.03227137 0.048048567 0.75300002 7.3792069e-39
-0.030796155 0.047984753 0.75200009 8.8471581e-39
-0.029363751 0.047984771 0.75200003 1.0320785e-38
-0.027931407 0.04798476 0.75200009 9.6732264e-39
-0.026428528 0.047857147 0.75000012 9.0243019e-39
-0.024999991 0.047857139 0.75000012 9.1179534e-39
-0.023508545 0.047729529 0.74800003 9.309197e-39
-0.022083756 0.047729526 0.74800003 9.8602493e-39
-0.020659007 0.047729518 0.74800003 1.0320483e-38
-0.019208502 0.047665726 0.74700004 1.0501624e-38
-0.017690465 0.047410481 0.74300009 1.059489e-38
-0.016275216 0.047410477 0.74300003 7.0003869e-39
-0.014859968 0.047410492 0.74300003 3.3147379e-39
-0.013444756 0.047410481 0.74300009 2.6661175e-39
-0.011980957 0.047219038 0.74000007 2.0207677e-39
-0.010571382 0.047219038 0.74000001 6.3567761e-39
-0.0091494927 0.047155239 0.73900008 1.0684157e-38
-0.0077418606 0.047155239 0.73900002 1.1420625e-38
-0.0063342671 0.047155246 0.73900008 1.2245342e-38
-0.0049266345 0.047155246 0.73900002 1.1321596e-38
-0.0035190186 0.047155242 0.73900008 1.0486467e-38
-0.0021056659 0.047027621 0.73700011 9.841825e-39
-0.0007018405 0.047027633 0.73700005 9.0999664e-39
0.00070194388 0.047027625 0.73700005 7.72638e-39
0.0021028672 0.0469638 0.73600006 6.3420316e-39
0.0035047908 0.046963807 0.73600006 5.6120112e-39
0.004906653 0.046963789 0.73600012 4.9594769e-39
0.0063085784 0.046963796 0.73600012 3.67378e-39
0.0077104778 0.046963792 0.73600012 2.4799185e-39
0.0091123795 0.046963803 0.73600012 4.6932975e-39
0.010514303 0.046963792 0.73600012 6.8905335e-39
0.011932452 0.047027621 0.73700005 5.3365047e-39
0.013336238 0.047027621 0.73700005 3.857451e-39
0.014740021 0.047027629 0.73700011 2.5724715e-39
0.016143868 0.047027625 0.73700005 1.3804177e-39
0.017595263 0.047155239 0.73900002 3.033828e-39
0.019002857 0.047155239 0.73900008 4.7787234e-39
0.02041051 0.047155235 0.73900008 4.6894201e-39
0.021818103 0.047155239 0.73900008 4.6036971e-39
0.023257155 0.047219042 0.74000007 8.4676178e-39
0.024666697 0.047219034 0.74000007 1.2354575e-38
0.026146695 0.047346659 0.7420001 1.503619e-38
0.02759717 0.047410484 0.74300009 1.7791523e-38
0.029168624 0.047665723 0.74700004 1.4008956e-38
0.030632412 0.047729529 0.74800009 1.0316148e-38
0.0320572 0.047729529 0.74800003 9.5753471e-39
0.033571437 0.047857139 0.75000012 8.7596344e-39
0.035093352 0.047984768 0.75200009 1.1153501e-38
0.036525756 0.04798476 0.75200009 1.3460611e-38
0.038008619 0.048048574 0.75300008 1.474928e-38
0.039600004 0.048239995 0.7560001 1.6032089e-38
0.041257154 0.048495237 0.76000011 1.48461e-38
0.042760998 0.048559062 0.76100004 1.3645727e-38
0.044152342 0.048495237 0.76000011 1.2444635e-38
0.045600004 0.048495226 0.76000011 1.1250064e-38
-0.033839986 0.049680006 0.7560001 6.3632613e-39
-0.032357123 0.049614284 0.75500005 4.6137177e-39
-0.030837111 0.049482856 0.75300008 7.2747891e-39
-0.029363789 0.049417146 0.75200009 9.9502378e-39
-0.027931383 0.049417146 0.75200003 9.5915265e-39
-0.026428545 0.049285714 0.75000006 9.1208345e-39
-0.024999984 0.049285721 0.75000012 8.8330947e-39
-0.023508517 0.049154285 0.74800003 8.5630056e-39
-0.022083767 0.049154289 0.74800003 9.492159e-39
-0.020659015 0.049154282 0.74800009 1.0409794e-38
-0.019234253 0.049154304 0.74800003 1.0685656e-38
-0.017690443 0.048825726 0.74300003 1.0957191e-38
-0.016275235 0.048825711 0.74300009 6.9034899e-39
-0.014859986 0.048825715 0.74300009 2.7615487e-39
-0.013444736 0.048825726 0.74300003 2.0214669e-39
-0.012029528 0.048825711 0.74300009 1.200334e-39
-0.010599992 0.048760004 0.7420001 6.1759567e-39
-0.0091618663 0.048628561 0.74000007 1.1144797e-38
-0.0077418736 0.048562866 0.73900008 1.4098638e-38
-0.0063342429 0.048562862 0.73900002 1.6944439e-38
-0.0049266494 0.048562855 0.73900002 1.6028214e-38
-0.0035190168 0.048562869 0.73900002 1.5007974e-38
-0.0021056584 0.048431437 0.73700005 1.3623261e-38
-0.00070187403 0.048431426 0.73700011 1.224646e-38
0.00070195133 0.048431426 0.73700005 1.2340463e-38
0.0021057376 0.048431434 0.73700005 1.2334365e-38
0.0035095853 0.048431441 0.73700005 1.1053692e-38
0.0049066902 0.048365712 0.73600006 9.7532531e-39
0.0063085747 0.048365697 0.73600012 6.8880223e-39
0.0077104759 0.048365694 0.73600012 4.0533455e-39
0.0091123777 0.048365705 0.73600012 8.6670296e-39
0.010514301 0.048365712 0.73600012 1.3163742e-38
0.011932421 0.048431426 0.73700011 9.9552405e-39
0.013336246 0.048431437 0.73700005 6.7212398e-39
0.01474003 0.04843143 0.73700005 3.490109e-39
0.016143877 0.04843143 0.73700005 1.8511433e-40
0.017547661 0.048431434 0.73700005 2.2980552e-39
0.019002881 0.048562866 0.73900002 4.3198963e-39
0.020410497 0.048562851 0.73900008 4.3199215e-39
0.021818131 0.048562862 0.73900008 4.3235214e-39
0.023257151 0.048628572 0.74000007 8.9214087e-39
0.024733361 0.048760012 0.74200004 1.3455889e-38
0.026146688 0.048760004 0.74200004 1.5788469e-38
0.027597155 0.048825726 0.74300009 1.7975208e-38
0.029168608 0.049088575 0.74700004 1.6226295e-38
0.030632416 0.049154297 0.74800003 1.4351164e-38
0.032057166 0.0491543 0.74800003 9.9186302e-39
0.033571444 0.049285706 0.75000012 5.5270617e-39
0.035093378 0.049417149 0.75200003 8.2010867e-39
0.036525719 0.049417153 0.75200009 1.0871582e-38
0.038008593 0.049482852 0.75300008 1.3359123e-38
0.03954763 0.049614273 0.75500011 1.5762635e-38
0.041148614 0.049811427 0.75800002 1.5776988e-38
0.04270475 0.049942844 0.76000011 1.5666457e-38
0.044152364 0.049942859 0.76000011 1.3359408e-38
0.045600023 0.049942847 0.76000011 1.1066397e-38
-0.033839963 0.051120013 0.75600004 5.9869552e-39
-0.032357112 0.051052377 0.75500005 4.325636e-39
-0.030919014 0.051052369 0.75500011 5.4337296e-39
-0.029402826 0.050917126 0.75300008 6.5527056e-39
-0.027931396 0.050849516 0.75200009 8.2148026e-39
-0.026498992 0.050849535 0.75200003 9.9524085e-39
-0.024999976 0.050714284 0.75000012 8.6468873e-39
-0.02357142 0.05071428 0.75000012 7.3522557e-39
-0.022083778 0.050579041 0.74800009 8.8395939e-39
-0.020658989 0.050579056 0.74800003 1.0406192e-38
-0.019234262 0.050579052 0.74800003 1.1516123e-38
-0.017690461 0.050240949 0.74300009 1.2705992e-38
-0.016275214 0.050240964 0.74300009 7.2718674e-39
-0.014899991 0.050376207 0.74500012 1.8370715e-39
-0.013444754 0.05024096 0.74300009 1.2864158e-39
-0.012029503 0.05024096 0.74300003 6.4356734e-40
-0.010614256 0.050240956 0.74300003 3.1353226e-39
-0.0091618737 0.050038088 0.74000007 5.6300333e-39
-0.0077418904 0.049970482 0.73900008 9.3157341e-39
-0.0063342578 0.049970478 0.73900002 1.3007773e-38
-0.0049266643 0.049970467 0.73900008 1.3919993e-38
-0.0035190317 0.049970478 0.73900002 1.4935195e-38
-0.0021028626 0.049767606 0.73600006 1.4376277e-38
-0.00070093712 0.049767613 0.73600012 1.3922151e-38
0.00070195878 0.049835242 0.73700005 1.3635195e-38
0.0021028635 0.049767617 0.73600006 1.3448657e-38
0.0035047871 0.04976761 0.73600006 1.2897645e-38
0.0049066884 0.049767621 0.73600006 1.2346922e-38
0.0063085728 0.049767602 0.73600012 9.0138706e-39
0.0077104741 0.049767595 0.73600012 5.8000402e-39
0.0091123739 0.049767606 0.73600012 9.9534973e-39
0.010514299 0.049767613 0.73600012 1.4193e-38
0.011916201 0.04976761 0.73600012 1.2627135e-38
0.01333625 0.049835242 0.73700005 1.1051527e-38
0.014740036 0.049835246 0.73700005 6.436737e-39
0.016143883 0.049835242 0.73700005 1.9289056e-39
0.017595273 0.049970485 0.73900002 5.1506813e-39
0.019002866 0.049970474 0.73900008 8.3617245e-39
0.020438112 0.050038081 0.74000007 6.4364371e-39
0.021847628 0.050038088 0.74000007 4.5922078e-39
0.023257146 0.050038084 0.74000007 6.4432796e-39
0.024733335 0.050173335 0.7420001 8.3105953e-39
0.026146661 0.050173327 0.7420001 1.0797083e-38
0.027597176 0.050240956 0.74300009 1.327834e-38
0.029168626 0.050511446 0.74700004 1.2251552e-38
0.030591492 0.050511438 0.74700004 1.1208304e-38
0.032057155 0.050579049 0.74800003 7.1653337e-39
0.033481944 0.05057906 0.74800003 3.1260292e-39
0.035000019 0.050714288 0.75000012 6.3499798e-39
0.036428578 0.050714292 0.75000012 9.5671733e-39
0.037958112 0.050849527 0.75200009 1.1612028e-38
0.039442878 0.050917134 0.75300008 1.3749023e-38
0.041040007 0.051120006 0.7560001 1.3374533e-38
0.042704768 0.051390465 0.76000011 1.2995685e-38
0.044152379 0.051390477 0.76000005 1.2076585e-38
0.045660015 0.051458109 0.76100004 1.125115e-38
-0.033839978 0.052560002 0.7560001 5.6134825e-39
-0.032357097 0.052490484 0.75500005 4.04724e-39
-0.030837119 0.052351423 0.75300008 3.5823074e-39
-0.029402832 0.052351411 0.75300008 3.0557751e-39
-0.027968565 0.052351426 0.75300008 6.9455989e-39
-0.026499027 0.052281912 0.75200009 1.0777137e-38
-0.024999971 0.052142855 0.75000012 8.4492398e-39
-0.023571413 0.052142859 0.75000012 6.1659445e-39
-0.022083772 0.052003819 0.74800003 8.2907543e-39
-0.020714281 0.052142851 0.75000012 1.0322647e-38
-0.019234274 0.052003812 0.74800003 1.2450322e-38
-0.017690439 0.051656194 0.74300003 1.4458429e-38
-0.016275227 0.051656187 0.74300009 7.7324798e-39
-0.014899991 0.051795244 0.74500012 9.2338282e-40
-0.01344473 0.051656194 0.74300003 5.5138012e-40
-0.01202952 0.051656179 0.74300009 9.2201235e-41
-0.010599966 0.051586665 0.74200004 9.2198432e-41
-0.0091866413 0.051586673 0.74200004 1.0552058e-40
-0.0077523603 0.051447608 0.74000007 4.5262291e-39
-0.0063428427 0.0514476 0.74000007 8.9411474e-39
-0.004933327 0.051447611 0.74000007 1.1892796e-38
-0.0035190447 0.05137809 0.73900008 1.4741154e-38
-0.0021056677 0.051239051 0.73700005 1.5115694e-38
-0.00070185913 0.051239051 0.73700005 1.5478371e-38
0.00070096226 0.051169526 0.73600006 1.5013454e-38
0.0021028635 0.051169522 0.73600006 1.4461381e-38
0.0035047852 0.051169511 0.73600006 1.4649373e-38
0.0049066865 0.051169522 0.73600006 1.4820041e-38
0.0063086101 0.051169511 0.73600006 1.1204291e-38
0.0077104722 0.051169515 0.73600012 7.5535312e-39
0.0091248015 0.051239043 0.73700005 1.1337501e-38
0.010528627 0.051239062 0.73700005 1.5113552e-38
0.011932435 0.051239051 0.73700005 1.52169e-38
0.01333622 0.051239036 0.73700011 1.5282096e-38
0.014780012 0.051378097 0.73900002 9.4594162e-39
0.016187629 0.051378086 0.73900008 3.6827637e-39
0.017595259 0.051378097 0.73900008 8.0141128e-39
0.019028589 0.051447604 0.74000007 1.2331104e-38
0.020438109 0.051447611 0.74000007 8.6558949e-39
0.0219067 0.051586661 0.74200004 4.8791615e-39
0.023320023 0.051586658 0.74200004 3.9493299e-39
0.024733348 0.051586665 0.74200004 3.0482572e-39
0.026181949 0.051656194 0.74300003 5.8102024e-39
0.027597163 0.051656198 0.74300009 8.4794994e-39
0.029168645 0.051934306 0.74700004 8.2925704e-39
0.030632399 0.052003805 0.74800003 8.0048166e-39
0.032057185 0.052003808 0.74800003 4.316997e-39
0.03357143 0.052142859 0.75000012 6.4610929e-40
0.03500003 0.05214287 0.75000012 4.4131793e-39
0.036525726 0.052281912 0.75200009 8.1950022e-39
0.037958134 0.052281912 0.75200003 9.9560855e-39
0.039442871 0.052351426 0.75300008 1.1620279e-38
0.041040029 0.052560005 0.7560001 1.0975669e-38
0.042704787 0.052838087 0.76000011 1.0240967e-38
0.044152364 0.052838091 0.76000011 1.0883438e-38
0.046200015 0.053533338 0.7700001 1.1435176e-38
0.047666669 0.053533331 0.7700001 1.1527736e-38
-0.030837089 0.053785712 0.75300008 2.4838646e-39
-0.029402819 0.053785719 0.75300002 1.5702586e-39
-0.027968531 0.053785712 0.75300002 3.9756435e-39
-0.026499007 0.053714294 0.75200003 6.3740569e-39
-0.02506664 0.053714301 0.75200009 6.811639e-39
-0.023634236 0.053714298 0.75200003 7.3666386e-39
-0.022054233 0.05335715 0.7470001 9.3985396e-39
-0.020714276 0.053571429 0.75000012 1.1428301e-38
-0.019285718 0.053571422 0.75000012 1.3825403e-38
-0.017738063 0.0532143 0.74500012 1.6219835e-38
-0.016275205 0.053071432 0.74300009 9.9483685e-39
-0.014859996 0.053071432 0.74300009 3.673787e-39
-0.013426642 0.053000003 0.7420001 3.306452e-39
-0.012013317 0.052999996 0.7420001 3.0309413e-39
-0.010599992 0.052999988 0.7420001 4.3195039e-39
-0.0091866655 0.052999996 0.7420001 5.6023436e-39
-0.0077523659 0.052857123 0.74000007 7.4537742e-39
-0.0063428483 0.052857131 0.74000007 9.1839742e-39
-0.0049333307 0.052857138 0.74000007 8.3768599e-39
-0.0035190205 0.052785713 0.73900002 7.4704006e-39
-0.0021056975 0.05264286 0.73700011 9.1252906e-39
-0.00070185168 0.052642867 0.73700005 1.0790497e-38
0.0007019327 0.052642856 0.73700005 1.2070423e-38
0.0021057581 0.052642856 0.73700005 1.3448703e-38
0.0035095667 0.052642863 0.73700005 1.3267572e-38
0.0049133901 0.05264286 0.73700005 1.318173e-38
0.0063086082 0.052571431 0.73600006 1.1596026e-38
0.0077104704 0.052571416 0.73600012 1.0137129e-38
0.0091248089 0.052642863 0.73700005 1.2349858e-38
0.010528593 0.052642856 0.73700005 1.4656213e-38
0.011932441 0.052642852 0.73700005 1.5859107e-38
0.013336225 0.05264286 0.73700005 1.7043151e-38
0.014779999 0.052785713 0.73900008 1.1867587e-38
0.016209532 0.052857131 0.74000007 6.7162189e-39
0.017619047 0.052857127 0.74000007 1.0501234e-38
0.019028585 0.052857131 0.74000007 1.4374448e-38
0.020438103 0.052857138 0.74000007 1.2436915e-38
0.02190667 0.053000003 0.7420001 1.058477e-38
0.023351476 0.053071428 0.74300009 6.1590781e-39
0.024766685 0.053071428 0.74300009 1.8370841e-39
0.026181936 0.053071432 0.74300009 5.1568078e-39
0.027671443 0.053214293 0.74500006 8.5572673e-39
0.029168626 0.05335715 0.74700004 9.486778e-39
0.030632425 0.053428583 0.74800003 1.0312894e-38
0.032142881 0.053571437 0.75000012 6.6268736e-39
0.033571437 0.053571425 0.75000012 2.8501584e-39
0.035000037 0.053571437 0.75000012 5.5205807e-39
0.036525752 0.053714298 0.75200003 8.1088868e-39
0.038008619 0.0537857 0.75300008 9.9560518e-39
0.039442904 0.053785715 0.75300008 1.170814e-38
0.040985763 0.053928576 0.75500011 1.1250796e-38
0.042480014 0.054000016 0.7560001 1.0792326e-38
0.044036236 0.054142863 0.75800002 1.1251493e-38
0.045599997 0.054285709 0.76000011 1.1710319e-38
-0.029402824 0.055219997 0.75300008 9.6185127e-41
-0.027968535 0.055219986 0.75300008 1.0127899e-39
-0.02649902 0.055146672 0.75200009 1.8482468e-39
-0.025066614 0.055146683 0.75200003 5.2400323e-39
-0.023634249 0.055146672 0.75200009 8.5658825e-39
-0.022083793 0.054853335 0.74800003 1.0600656e-38
-0.020631369 0.054780021 0.74700004 1.2532113e-38
-0.019285709 0.054999992 0.75000012 1.5203277e-38
-0.017738063 0.054633342 0.74500012 1.7867884e-38
-0.016275223 0.05448667 0.74300009 1.2167567e-38
-0.014859973 0.054486666 0.74300009 6.3496084e-39
-0.013426629 0.054413334 0.74200004 6.1533454e-39
-0.012013304 0.054413326 0.74200004 5.976168e-39
-0.010599979 0.054413334 0.7420001 8.5519017e-39
-0.0091866544 0.05441333 0.7420001 1.1136586e-38
-0.0077523696 0.05426665 0.74000007 1.0318691e-38
-0.006342852 0.054266661 0.74000007 9.4820963e-39
-0.0049332972 0.054266661 0.74000001 4.8676905e-39
-0.0035237796 0.054266658 0.74000001 1.9558904e-40
-0.0021113805 0.054193333 0.73900002 3.123591e-39
-0.0007037851 0.05419334 0.73900008 5.9923852e-39
0.0007038475 0.05419334 0.73900002 9.2127387e-39
0.002111441 0.054193329 0.73900002 1.2339796e-38
0.0035095741 0.054046679 0.73700005 1.1973878e-38
0.0049133585 0.054046668 0.73700011 1.1506397e-38
0.0063086064 0.053973332 0.73600006 1.2044442e-38
0.0077104685 0.053973321 0.73600012 1.2618494e-38
0.0091248164 0.054046683 0.73700005 1.3451552e-38
0.010528601 0.054046672 0.73700005 1.4201717e-38
0.011932448 0.054046672 0.73700005 1.6519545e-38
0.013372391 0.054193333 0.73900008 1.869875e-38
0.014800009 0.054266654 0.74000007 1.4159256e-38
0.016209524 0.054266647 0.74000007 9.6690267e-39
0.017666709 0.054413341 0.74200004 1.299163e-38
0.01902858 0.054266658 0.74000007 1.6310947e-38
0.020493357 0.054413326 0.7420001 1.6316655e-38
0.021906681 0.054413334 0.7420001 1.6200765e-38
0.023351433 0.05448667 0.74300009 8.3574197e-39
0.024766706 0.054486666 0.74300009 5.5501228e-40
0.026252389 0.054633338 0.74500012 4.6061984e-39
0.027671443 0.054633353 0.74500006 8.6581005e-39
0.029168647 0.05478001 0.74700004 1.069249e-38
0.030632414 0.054853331 0.74800003 1.2614546e-38
0.032057166 0.054853335 0.74800009 8.8435189e-39
0.033571444 0.054999992 0.75000012 5.0639171e-39
0.035093375 0.055146672 0.75200003 6.5264719e-39
0.036574323 0.055220004 0.75300008 8.0152619e-39
0.038109548 0.055366665 0.75500011 9.959642e-39
0.039547618 0.055366661 0.75500011 1.1800696e-38
0.040985733 0.055366676 0.75500005 1.1618859e-38
0.042480029 0.055440012 0.75600004 1.1344069e-38
0.044036232 0.05558667 0.75800002 1.1620291e-38
-0.032699976 0.057406668 0.76300001 5.1489087e-39
-0.031123808 0.057180945 0.76000005 3.7695615e-39
-0.029519973 0.056880008 0.7560001 2.3909557e-39
-0.028042812 0.056804761 0.75500005 2.2062099e-39
-0.026498996 0.056579053 0.75200003 2.112592e-39
-0.025066651 0.056579046 0.75200003 5.1532176e-39
-0.023508556 0.056278095 0.74800003 8.1174684e-39
-0.022083767 0.056278095 0.74800003 1.032587e-38
-0.020631392 0.05620287 0.74700004 1.2528878e-38
-0.019208528 0.056202866 0.74700004 1.4925243e-38
-0.017738085 0.056052387 0.74500006 1.732013e-38
-0.016275201 0.055901915 0.74300009 1.2897667e-38
-0.01485999 0.055901904 0.74300009 8.5458047e-39
-0.013426618 0.055826668 0.74200004 6.6175381e-39
-0.012013291 0.055826671 0.74200004 4.7913071e-39
-0.010599966 0.055826664 0.74200004 8.845059e-39
-0.0091866395 0.055826671 0.74200004 1.300207e-38
-0.007752338 0.055676185 0.74000007 1.2630801e-38
-0.0063428204 0.055676181 0.74000001 1.236345e-38
-0.0049333046 0.055676188 0.74000001 9.3073137e-39
-0.003523787 0.055676185 0.74000001 6.1673289e-39
-0.0021113916 0.055600949 0.73900008 6.7158308e-39
-0.00070379814 0.055600949 0.73900008 7.2712018e-39
0.00070383446 0.055600949 0.73900002 8.1964259e-39
0.0021114261 0.055600956 0.73900008 9.1215436e-39
0.0035095816 0.05545048 0.73700005 1.0304231e-38
0.0049133659 0.055450473 0.73700005 1.1488048e-38
0.0063171894 0.055450488 0.73700005 1.3626452e-38
0.007720998 0.055450488 0.73700011 1.5759569e-38
0.009124822 0.055450488 0.73700005 1.5021749e-38
0.010557189 0.055600952 0.73900002 1.4291061e-38
0.011964782 0.055600956 0.73900008 1.6694259e-38
0.013390488 0.055676185 0.74000007 1.9082643e-38
0.014800004 0.055676181 0.74000007 1.4831249e-38
0.01620952 0.055676173 0.74000007 1.059392e-38
0.01766666 0.055826664 0.7420001 1.2994217e-38
0.019080047 0.055826679 0.74200004 1.5407722e-38
0.020438131 0.055676192 0.74000007 1.5588117e-38
0.021906694 0.055826668 0.74200004 1.5860726e-38
0.023320021 0.055826671 0.74200004 8.6494573e-39
0.024766665 0.055901907 0.74300009 1.4698164e-39
0.026252385 0.056052376 0.74500012 5.8047682e-39
0.027597187 0.055901911 0.74300009 1.0133595e-38
0.0290905 0.056052387 0.74500006 1.087151e-38
0.030632406 0.056278095 0.74800009 1.1609403e-38
0.032142859 0.056428559 0.75000012 9.394211e-39
0.033660997 0.056579057 0.75200003 7.1779482e-39
0.03514003 0.056654274 0.75300008 8.0062473e-39
0.03667146 0.056804765 0.75500011 8.8439379e-39
0.038109537 0.056804758 0.75500011 1.0140805e-38
0.039547633 0.056804765 0.75500011 1.1528422e-38
0.041040055 0.056880008 0.7560001 1.1436267e-38
0.042592429 0.057030473 0.75800008 1.1436274e-38
0.044036232 0.057030484 0.75800008 1.1528117e-38
-0.032699969 0.058860015 0.76300001 7.4526826e-39
-0.031123787 0.05862857 0.76000005 6.0661678e-39
-0.029519955 0.058319997 0.7560001 4.5978761e-39
-0.027968567 0.058088556 0.75300008 3.4922642e-39
-0.026499009 0.058011431 0.75200009 2.3927536e-39
-0.024933312 0.057702851 0.74800003 5.051325e-39
-0.023508526 0.057702869 0.74800003 7.6486023e-39
-0.022054235 0.057625718 0.74700004 1.005611e-38
-0.020631371 0.05762573 0.74700004 1.2440267e-38
-0.019208508 0.057625722 0.74700004 1.455681e-38
-0.017738085 0.057471443 0.74500006 1.6675483e-38
-0.016275218 0.057317138 0.74300009 1.3739974e-38
-0.014859966 0.057317134 0.74300009 1.0767436e-38
-0.013426666 0.057239987 0.74200004 7.1635302e-39
-0.012013315 0.057239994 0.7420001 3.5045269e-39
-0.010599992 0.057240002 0.7420001 9.1270072e-39
-0.0091866283 0.057240002 0.74200004 1.4740484e-38
-0.007773302 0.057239994 0.74200004 1.5022839e-38
-0.0063599772 0.057240002 0.74200004 1.5210375e-38
-0.0049466523 0.057239998 0.74200004 1.3738416e-38
-0.0035333275 0.057240006 0.74200004 1.2147777e-38
-0.0021114065 0.057008561 0.73900008 1.0393555e-38
-0.00070377579 0.057008572 0.73900002 8.5572309e-39
0.00070381956 0.057008579 0.73900008 7.2719193e-39
0.0021114522 0.057008576 0.73900002 5.8897051e-39
0.0035190457 0.057008568 0.73900008 8.632915e-39
0.0049133734 0.056854293 0.73700005 1.1416718e-38
0.0063171969 0.056854293 0.73700005 1.5121388e-38
0.0077419267 0.057008579 0.73900002 1.8793419e-38
0.0091495207 0.057008564 0.73900008 1.658439e-38
0.010571425 0.057085704 0.74000007 1.429465e-38
0.011980967 0.057085704 0.74000007 1.6882952e-38
0.01339052 0.057085708 0.74000007 1.9446753e-38
0.014840024 0.057239994 0.74200004 1.5488441e-38
0.016253348 0.057240002 0.74200004 1.1421485e-38
0.017666673 0.057239994 0.74200004 1.2983399e-38
0.019028611 0.057085708 0.74000007 1.4471407e-38
0.020493347 0.057239991 0.7420001 1.4950661e-38
0.021906711 0.057239994 0.74200004 1.5379304e-38
0.023320034 0.057240006 0.74200004 8.8176888e-39
0.024766687 0.057317138 0.74300003 2.3067096e-39
0.026181895 0.057317141 0.74300009 6.9167938e-39
0.027597168 0.057317145 0.74300009 1.1510019e-38
0.029090501 0.057471443 0.74500006 1.1050138e-38
0.030632429 0.057702869 0.74800003 1.0591654e-38
0.032057159 0.057702862 0.74800003 9.9459134e-39
0.033660982 0.058011431 0.75200009 9.2991119e-39
0.035140026 0.058088563 0.75300008 9.4759614e-39
0.036671452 0.058242865 0.75500005 9.6700917e-39
0.038109552 0.058242857 0.75500005 1.0414519e-38
0.039547648 0.058242861 0.75500011 1.115713e-38
0.041040041 0.058319993 0.7560001 1.1345141e-38
0.042592421 0.05847431 0.75800002 1.1435184e-38
0.044152353 0.05862857 0.76000011 1.1526662e-38
-0.03406376 0.060155239 0.76100004 6.636209e-39
-0.032571446 0.060076185 0.76000011 8.56403e-39
-0.031041864 0.059918102 0.75800002 7.082098e-39
-0.029480921 0.059680954 0.75500011 5.6155999e-39
-0.027968537 0.059522845 0.75300002 5.7081515e-39
-0.026499044 0.059443809 0.75200009 5.7106626e-39
-0.024999995 0.059285715 0.75000012 5.9818643e-39
-0.023634234 0.05944382 0.75200003 6.2667623e-39
-0.022142844 0.059285715 0.75000012 9.3103111e-39
-0.020576157 0.058890481 0.74500006 1.2434883e-38
-0.019157141 0.058890488 0.74500012 1.3633778e-38
-0.017738085 0.058890495 0.74500006 1.4839843e-38
-0.016275195 0.058732383 0.74300009 1.262934e-38
-0.014859985 0.058732372 0.74300009 1.0498029e-38
-0.013426651 0.058653332 0.74200004 6.4378146e-39
-0.012013304 0.058653321 0.7420001 2.3949606e-39
-0.010614279 0.058732372 0.74300009 6.5430423e-39
-0.0091990298 0.058732383 0.74300009 1.0789761e-38
-0.00777333 0.058653317 0.7420001 1.2451095e-38
-0.006359966 0.058653332 0.74200004 1.4114114e-38
-0.0049466412 0.05865334 0.74200004 1.1794843e-38
-0.0035333144 0.058653336 0.74200004 9.3830455e-39
-0.0021142564 0.058495231 0.74000007 9.2000527e-39
-0.00070473878 0.058495224 0.74000007 8.9245462e-39
0.00070384378 0.058416199 0.73900002 7.9111272e-39
0.0021114391 0.058416188 0.73900008 6.981311e-39
0.0035190717 0.058416188 0.73900002 9.5645599e-39
0.0049133808 0.058258094 0.73700005 1.2169397e-38
0.0063343202 0.058416203 0.73900002 1.5765411e-38
0.0077523855 0.058495227 0.74000007 1.9259104e-38
0.0091619426 0.058495231 0.74000001 1.6953887e-38
0.010600022 0.058653329 0.7420001 1.4654819e-38
0.012013345 0.058653336 0.7420001 1.7058731e-38
0.013426672 0.058653325 0.7420001 1.953751e-38
0.014840036 0.05865334 0.74200004 1.3821047e-38
0.01625336 0.058653332 0.74200004 8.0891888e-39
0.017666683 0.058653329 0.74200004 9.5721549e-39
0.019080009 0.058653332 0.74200004 1.1145935e-38
0.020493358 0.058653321 0.7420001 1.3824609e-38
0.021906685 0.058653329 0.7420001 1.6561685e-38
0.023320008 0.058653321 0.7420001 1.1226562e-38
0.024766669 0.058732376 0.74300009 5.8896995e-39
0.026252385 0.058890492 0.74500012 8.0116003e-39
0.027597168 0.058732383 0.74300003 1.0133529e-38
0.029168602 0.059048582 0.7470001 1.0590581e-38
0.030632395 0.059127621 0.74800003 1.1046503e-38
0.032057147 0.05912761 0.74800003 1.1145126e-38
0.033571441 0.059285711 0.75000012 1.1239116e-38
0.035140034 0.059522856 0.75300002 1.0123818e-38
0.036671467 0.059680957 0.75500005 9.1194318e-39
0.038109567 0.059680946 0.75500005 9.7698781e-39
0.039600018 0.059760012 0.7560001 1.051392e-38
0.041040063 0.059760004 0.7560001 1.0698338e-38
0.042592425 0.059918109 0.75800002 1.0882005e-38
0.044152375 0.060076192 0.76000005 1.0972041e-38
-0.034019064 0.061523795 0.76000011 7.0161613e-39
-0.032485671 0.061361905 0.75800008 9.6675245e-39
-0.030959968 0.0612 0.7560001 8.1737347e-39
-0.02940283 0.060957145 0.75300008 6.6262051e-39
-0.027931424 0.060876198 0.75200009 7.8308706e-39
-0.026499018 0.060876191 0.75200003 9.020409e-39
-0.024999987 0.060714282 0.75000012 6.9903255e-39
-0.023634247 0.060876194 0.75200009 4.8881719e-39
-0.022054236 0.060471438 0.74700004 8.667436e-39
-0.020520942 0.060147617 0.74300009 1.2340497e-38
-0.019105695 0.060147628 0.74300003 1.2703176e-38
-0.017690444 0.060147624 0.74300003 1.2990893e-38
-0.016275235 0.060147628 0.74300009 1.162306e-38
-0.014859986 0.060147621 0.74300003 1.0122418e-38
-0.013426638 0.060066663 0.74200004 5.6941623e-39
-0.012029505 0.060147621 0.74300009 1.288969e-39
-0.010614256 0.060147617 0.74300009 4.0444346e-39
-0.0091990074 0.060147628 0.74300003 6.7320887e-39
-0.007783798 0.060147613 0.74300009 9.8767678e-39
-0.0063685509 0.060147628 0.74300009 1.2984064e-38
-0.0049533001 0.060147624 0.74300003 9.8512123e-39
-0.0035333033 0.060066678 0.74200004 6.6279862e-39
-0.0021142843 0.059904747 0.74000007 8.0065808e-39
-0.00070474437 0.05990475 0.74000007 9.2937071e-39
0.00070477324 0.059904743 0.74000007 8.6501355e-39
0.0021114615 0.059823826 0.73900002 7.9965447e-39
0.0035238066 0.05990475 0.74000007 1.047397e-38
0.0049333633 0.059904765 0.74000001 1.2901231e-38
0.0063429032 0.059904754 0.74000007 1.6327202e-38
0.007752419 0.05990475 0.74000001 1.9716502e-38
0.009186686 0.060066666 0.74200004 1.7408774e-38
0.010600033 0.06006667 0.7420001 1.5028985e-38
0.01201336 0.060066663 0.7420001 1.734321e-38
0.013426685 0.060066674 0.7420001 1.9534242e-38
0.014840011 0.060066666 0.7420001 1.2169003e-38
0.016253334 0.06006667 0.7420001 4.6998191e-39
0.017666699 0.060066674 0.74200004 6.2541912e-39
0.01908002 0.060066663 0.74200004 7.7437028e-39
0.020493347 0.06006667 0.74200004 1.2823408e-38
0.021906696 0.060066659 0.7420001 1.7776022e-38
0.023320023 0.060066666 0.7420001 1.3637281e-38
0.024766693 0.060147621 0.74300003 9.3902299e-39
0.026252391 0.060309529 0.74500012 9.0142616e-39
0.027671445 0.06030954 0.74500012 8.6566292e-39
0.029207636 0.060552381 0.74800003 1.0131762e-38
0.030632388 0.060552388 0.74800009 1.1511458e-38
0.032142855 0.060714278 0.75000012 1.2349111e-38
0.033571448 0.060714293 0.75000012 1.3165917e-38
0.035093375 0.060876191 0.75200003 1.0844891e-38
0.036671478 0.061119046 0.75500005 8.4733533e-39
0.038109574 0.061119042 0.75500005 9.1234185e-39
0.039600037 0.061200008 0.75600004 9.7766912e-39
0.041039996 0.061200015 0.7560001 1.005186e-38
0.042592425 0.061361913 0.75800002 1.0329166e-38
0.044152394 0.061523817 0.76000005 1.0509255e-38
-0.034019046 0.062971428 0.76000011 7.1030292e-39
-0.03248569 0.062805727 0.75800008 1.0692098e-38
-0.030918993 0.062557146 0.75500005 7.0892993e-39
-0.029363804 0.062308583 0.75200009 3.5982009e-39
-0.0279314 0.06230858 0.75200003 6.084302e-39
-0.026499033 0.062308572 0.75200009 8.662118e-39
-0.024933308 0.061977141 0.74800009 6.8149685e-39
-0.023508545 0.061977156 0.74800003 4.9742858e-39
-0.022054218 0.061894298 0.74700004 6.7281006e-39
-0.020576157 0.061728582 0.74500006 8.5762787e-39
-0.019157138 0.061728578 0.74500012 9.2115812e-39
-0.017738083 0.061728578 0.74500012 9.8591156e-39
-0.016319025 0.061728589 0.74500006 9.3924258e-39
-0.014860003 0.061562866 0.74300009 8.9088082e-39
-0.013444734 0.061562873 0.74300009 5.1474527e-39
-0.012029483 0.061562866 0.74300009 1.3786339e-39
-0.010614271 0.061562855 0.74300009 2.5761065e-39
-0.0091990242 0.061562866 0.74300009 3.8697123e-39
-0.0077837775 0.061562866 0.74300009 6.079162e-39
-0.0063685658 0.061562851 0.74300009 8.2674101e-39
-0.0049533187 0.061562862 0.74300009 6.3453023e-39
-0.0035333275 0.061480001 0.7420001 4.506091e-39
-0.002114288 0.061314277 0.74000007 6.166313e-39
-0.00070474995 0.061314266 0.74000007 7.7361148e-39
0.00070480676 0.061314285 0.74000001 6.7165861e-39
0.0021114484 0.061231438 0.73900002 5.6974497e-39
0.003523842 0.061314285 0.74000001 7.9147958e-39
0.0049333577 0.061314277 0.74000001 1.0154436e-38
0.0063428977 0.06131427 0.74000007 1.4113123e-38
0.0077524153 0.061314277 0.74000007 1.8156031e-38
0.0091866618 0.061479989 0.7420001 1.6126677e-38
0.010600048 0.061480001 0.74200004 1.4107051e-38
0.012013373 0.061480008 0.74200004 1.5494306e-38
0.013426698 0.061480001 0.74200004 1.6872769e-38
0.014840023 0.061479997 0.74200004 1.1516388e-38
0.016253348 0.061480004 0.7420001 6.2451739e-39
0.017666675 0.061479997 0.7420001 8.088341e-39
0.019079996 0.061480001 0.7420001 1.0026303e-38
0.02049336 0.061480004 0.74200004 1.4473597e-38
0.021936219 0.061562862 0.74300009 1.8990002e-38
0.023351429 0.061562866 0.74300009 1.4375949e-38
0.024833374 0.061728582 0.74500006 9.6628876e-39
0.026252391 0.061728571 0.74500012 8.5543694e-39
0.027745774 0.061894301 0.74700004 7.4588231e-39
0.029207626 0.061977144 0.74800009 9.1165479e-39
0.030632414 0.061977148 0.74800003 1.0864703e-38
0.032142863 0.06214286 0.75000012 1.2529272e-38
0.033571456 0.06214286 0.75000012 1.4189788e-38
0.035093363 0.062308569 0.75200009 1.2334009e-38
0.036671456 0.062557131 0.75500011 1.0590948e-38
0.038109526 0.062557146 0.75500011 1.2072891e-38
0.039600022 0.062640004 0.7560001 1.3642358e-38
0.041148622 0.062805712 0.75800008 1.3733129e-38
0.042704798 0.062971421 0.76000005 1.382247e-38
0.044152372 0.062971428 0.76000011 1.3917551e-38
-0.033929478 0.064249545 0.75800002 7.2063301e-39
-0.032399967 0.064080015 0.75600004 1.1601479e-38
-0.030959986 0.06408 0.7560001 6.0766005e-39
-0.029402837 0.063825712 0.75300008 5.650708e-40
-0.027931413 0.063740939 0.75200009 4.4293713e-39
-0.026499007 0.063740954 0.75200009 8.1953413e-39
-0.025 0.063571423 0.75000012 6.6330589e-39
-0.023508556 0.063401908 0.74800003 4.971388e-39
-0.022083767 0.063401908 0.74800003 4.8777364e-39
-0.020631373 0.06331715 0.7470001 4.6987191e-39
-0.019208506 0.06331715 0.74700004 5.7078236e-39
-0.017738078 0.063147634 0.74500012 6.7234034e-39
-0.016319025 0.063147627 0.74500006 7.27012e-39
-0.014899966 0.063147642 0.74500006 7.7335883e-39
-0.013444769 0.062978096 0.74300009 4.6082989e-39
-0.012061889 0.063147634 0.74500012 1.3893958e-39
-0.010642835 0.063147634 0.74500006 1.1946069e-39
-0.0091990409 0.062978089 0.74300009 9.2449966e-40
-0.0077837924 0.062978089 0.74300009 2.2109337e-39
-0.0063685435 0.062978104 0.74300009 3.4948159e-39
-0.0049532945 0.062978096 0.74300003 2.9401932e-39
-0.0035333144 0.062893331 0.74200004 2.3920543e-39
-0.0021199896 0.062893339 0.7420001 4.3238339e-39
-0.00070471456 0.062723801 0.74000007 6.1627047e-39
0.00070480304 0.062723801 0.74000001 4.781952e-39
0.0021114354 0.06263905 0.73900008 3.3118736e-39
0.003519068 0.062639043 0.73900002 5.3333378e-39
0.004933354 0.062723808 0.74000007 7.3806993e-39
0.0063428939 0.062723801 0.74000007 1.1997662e-38
0.0077524097 0.062723801 0.74000007 1.6490776e-38
0.0091866748 0.062893331 0.74200004 1.4834859e-38
0.0106 0.062893331 0.7420001 1.3181484e-38
0.012013349 0.062893331 0.7420001 1.3653957e-38
0.013426713 0.062893346 0.74200004 1.4097989e-38
0.014840036 0.062893339 0.74200004 1.0961873e-38
0.01625336 0.062893331 0.74200004 7.8240126e-39
0.017666686 0.062893346 0.74200004 1.0011895e-38
0.019080013 0.062893331 0.7420001 1.2247224e-38
0.020520994 0.062978096 0.74300009 1.6237832e-38
0.021936202 0.062978089 0.74300009 2.0179932e-38
0.023351453 0.062978096 0.74300009 1.5121796e-38
0.024833374 0.063147634 0.74500006 9.9430702e-39
0.026322927 0.063317165 0.74700004 8.081902e-39
0.027745757 0.06331715 0.7470001 6.1644941e-39
0.029207656 0.063401908 0.74800003 8.1942189e-39
0.030632403 0.063401908 0.74800003 1.022221e-38
0.03214287 0.063571423 0.75000012 1.2712608e-38
0.033571467 0.063571423 0.75000012 1.5103492e-38
0.035093389 0.063740954 0.75200003 1.3894138e-38
0.036671441 0.063995242 0.75500011 1.2622478e-38
0.038109541 0.063995235 0.75500011 1.5118583e-38
0.039600044 0.06408 0.7560001 1.7506664e-38
0.041148577 0.064249545 0.75800002 1.7416265e-38
0.04270478 0.064419046 0.76000011 1.7322997e-38
0.044210505 0.064503826 0.76100004 1.7416271e-38
-0.035699967 0.06630002 0.7650001 3.4015511e-39
-0.034019046 0.065866664 0.76000011 5.8072583e-39
-0.032485653 0.065693364 0.75800002 8.2885795e-39
-0.031041883 0.065693349 0.75800008 4.879872e-39
-0.029363792 0.065173343 0.75200009 1.4722574e-39
-0.027931387 0.065173328 0.75200009 3.1338905e-39
-0.026499044 0.065173328 0.75200009 4.7919825e-39
-0.024999995 0.064999998 0.75000012 3.6842463e-39
-0.023571394 0.065000013 0.75000012 2.6657868e-39
-0.022142839 0.06499999 0.75000012 2.94271e-39
-0.020659026 0.06482666 0.74800003 3.2146221e-39
