# .PCD v0.7 - Point Cloud Data file format
VERSION 0.7
FIELDS x y z rgb
SIZE 4 4 4 4
TYPE F F F F
COUNT 1 1 1 1
WIDTH 948
HEIGHT 1
VIEWPOINT 0 0 0 1 0 0 0
POINTS 948
DATA ascii
-0.04017143 -0.031714261 0.74000001 7.9003862e-39
-0.038761906 -0.031714275 0.74000001 7.9911245e-39
-0.037301909 -0.031671435 0.73900008 8.0826055e-39
-0.035797145 -0.031585723 0.73700005 9.3880369e-39
-0.034346674 -0.031542838 0.73600006 1.0685571e-38
-0.032855242 -0.031457156 0.73400009 9.6689202e-39
-0.031371433 -0.03137143 0.73200005 8.7541595e-39
-0.029977145 -0.03137143 0.73200005 7.9179613e-39
-0.02858286 -0.031371415 0.73200005 7.1800431e-39
-0.02715143 -0.031328574 0.73100001 8.8406098e-39
-0.025688572 -0.031242847 0.72900003 1.0510506e-38
-0.024266668 -0.031199992 0.72800004 9.3944857e-39
-0.022880001 -0.031199992 0.72800004 8.3692285e-39
-0.021434287 -0.03111428 0.72600001 7.6366969e-39
-0.020051429 -0.031114265 0.72599995 6.8909427e-39
-0.018668573 -0.03111425 0.72599995 8.9296694e-39
-0.017285716 -0.031114265 0.72599995 1.0962953e-38
-0.015880954 -0.03107141 0.72500002 1.1880937e-38
-0.014520001 -0.031114265 0.72600001 1.2798537e-38
-0.013137144 -0.03111428 0.72600001 8.5579217e-39
-0.011738096 -0.031071424 0.72500002 4.3166663e-39
-0.010357143 -0.031071424 0.72500002 7.4491541e-39
-0.0089514302 -0.030985713 0.72300011 1.0600641e-38
-0.0075638099 -0.030942857 0.72200006 1.2713597e-38
-0.0061885719 -0.030942842 0.72200006 1.4813199e-38
-0.0048133335 -0.030942857 0.72200012 1.4058007e-38
-0.0034380958 -0.030942842 0.722 1.3408345e-38
-0.0020628576 -0.030942842 0.722 1.3500184e-38
-0.00068571424 -0.030857131 0.72000009 1.3683852e-38
0.00068761915 -0.030942842 0.722 1.386752e-38
0.0020657147 -0.030985713 0.72300011 1.3959358e-38
0.0034428576 -0.030985713 0.72300011 1.4051195e-38
0.0048200008 -0.030985728 0.72300011 1.4234868e-38
0.0061971438 -0.030985713 0.72300005 1.4326703e-38
0.0075742868 -0.030985713 0.72300005 1.4510373e-38
0.0089761913 -0.031071424 0.72500002 1.4234863e-38
0.010357143 -0.031071424 0.72500002 1.3959357e-38
0.011738096 -0.031071424 0.72500002 1.3959357e-38
0.013137144 -0.031114265 0.72599995 1.4051551e-38
0.014520001 -0.031114265 0.72600001 1.3592014e-38
0.015946668 -0.031199992 0.72800004 1.3224784e-38
0.017357146 -0.031242862 0.72900003 1.4437411e-38
0.018745717 -0.031242847 0.72900003 1.5670435e-38
0.020189526 -0.031328574 0.73100007 1.7798136e-38
0.021581907 -0.031328559 0.73100007 1.9823895e-38
0.023005717 -0.03137143 0.73200005 1.9176737e-38
0.024466671 -0.031457156 0.73400009 1.852992e-38
0.025864765 -0.031457156 0.73400009 1.7151288e-38
0.027337145 -0.031542838 0.73600006 1.5860159e-38
0.028778097 -0.031585708 0.73700005 1.1798541e-38
0.030263813 -0.03167145 0.73900002 7.8251267e-39
0.031842858 -0.031842858 0.74300009 6.9052415e-39
0.033347618 -0.031928554 0.74500006 5.9894089e-39
0.034860004 -0.032014281 0.74700004 6.2660028e-39
0.03628286 -0.032014266 0.74700004 6.6344097e-39
0.037756193 -0.032057121 0.74800003 6.6340398e-39
-0.044700008 -0.030509517 0.74500012 7.2701186e-39
-0.043280959 -0.030509517 0.74500012 7.6338747e-39
-0.04186191 -0.030509517 0.74500012 7.8136024e-39
-0.040334284 -0.03042762 0.74300003 7.9018324e-39
-0.038866673 -0.030386657 0.74200004 8.0826167e-39
-0.037301905 -0.030263796 0.73900002 8.179829e-39
-0.035797145 -0.0301819 0.73700005 8.8384574e-39
-0.034346674 -0.030140951 0.73600006 9.3898376e-39
-0.032944769 -0.030140936 0.73600006 8.2745469e-39
-0.031371433 -0.029977143 0.73200005 7.0817547e-39
-0.029977145 -0.029977143 0.73200005 5.6952469e-39
-0.02858286 -0.029977158 0.73200005 4.2366521e-39
-0.027188573 -0.029977143 0.73200011 8.8460161e-39
-0.025759049 -0.029936194 0.73100007 1.3358177e-38
-0.0243 -0.029854283 0.72900003 1.2901896e-38
-0.022911428 -0.029854283 0.72900003 1.2341908e-38
-0.021493334 -0.029813334 0.72800004 1.1888106e-38
-0.020051429 -0.029731423 0.72600001 1.1323091e-38
-0.018668573 -0.029731423 0.72600001 1.0211729e-38
-0.017285716 -0.029731423 0.72600001 9.1114934e-39
-0.015902858 -0.029731438 0.72600001 9.3837685e-39
-0.014520002 -0.029731438 0.72600001 9.6563828e-39
-0.013137145 -0.029731423 0.72600001 5.1431479e-39
-0.011738097 -0.029690444 0.72500002 5.5175987e-40
-0.010357144 -0.029690459 0.72500002 5.878604e-39
-0.0089761913 -0.029690459 0.72500002 1.1235576e-38
-0.0075638099 -0.029567599 0.72200006 1.3275348e-38
-0.0061885719 -0.029567599 0.72200006 1.5177658e-38
-0.0048133335 -0.029567614 0.72200006 1.4326698e-38
-0.0034380956 -0.029567599 0.72200006 1.3408359e-38
-0.0020628574 -0.029567614 0.72200006 1.3592047e-38
-0.0006857143 -0.029485703 0.72000003 1.3683869e-38
0.00068761915 -0.029567614 0.72200006 1.3775692e-38
0.0020657144 -0.029608577 0.72300011 1.386753e-38
0.0034428574 -0.029608592 0.72300011 1.4051205e-38
0.0048200008 -0.029608577 0.72300011 1.4143036e-38
0.0062142862 -0.029690474 0.72500002 1.441854e-38
0.0075952387 -0.029690474 0.72500002 1.4694045e-38
0.0089761913 -0.029690459 0.72500002 1.4418539e-38
0.010357143 -0.029690459 0.72500002 1.4143034e-38
0.011738096 -0.029690459 0.72500002 1.4051199e-38
0.013137143 -0.029731423 0.72600001 1.395936e-38
0.014520001 -0.029731423 0.72600001 1.3316507e-38
0.015946668 -0.029813349 0.72800004 1.2678071e-38
0.017357146 -0.029854283 0.72900003 1.461928e-38
0.018745717 -0.029854283 0.72900003 1.6494083e-38
0.020189526 -0.029936194 0.73100001 1.8171582e-38
0.021581907 -0.029936194 0.73100007 1.9732424e-38
0.023005717 -0.029977143 0.73200005 1.9821385e-38
0.024466671 -0.030059054 0.73400003 1.9820631e-38
0.025864765 -0.030059054 0.73400009 1.7893844e-38
0.027337147 -0.030140936 0.73600006 1.5944045e-38
0.028778097 -0.030181885 0.73699999 1.1705176e-38
0.03038667 -0.030386671 0.7420001 7.366619e-39
0.031842861 -0.030427605 0.74300003 6.6261477e-39
0.033347622 -0.030509517 0.74500012 5.897572e-39
0.034860004 -0.030591413 0.74700004 6.6351356e-39
0.03633143 -0.030632377 0.74799997 7.2769023e-39
0.037756193 -0.030632362 0.74800003 7.0921495e-39
-0.044700004 -0.029090464 0.74500012 7.0828827e-39
-0.043280955 -0.029090479 0.74500012 7.6313804e-39
-0.041861907 -0.029090464 0.74500012 7.7217767e-39
-0.040334288 -0.029012397 0.74300003 7.9025624e-39
-0.038866669 -0.028973341 0.7420001 8.0837069e-39
-0.037301909 -0.028856188 0.73900002 8.2659303e-39
-0.035797149 -0.028778076 0.73699999 8.9241917e-39
-0.034346674 -0.028739035 0.73600006 9.5763868e-39
-0.032944769 -0.02873902 0.73600006 6.6218849e-39
-0.031457145 -0.028660953 0.73400009 3.6745185e-39
-0.029977145 -0.028582856 0.73200011 4.5006582e-39
-0.02858286 -0.028582856 0.73200011 5.2350114e-39
-0.027188573 -0.028582841 0.73200011 9.5839524e-39
-0.025759047 -0.028543815 0.73100007 1.3918931e-38
-0.024366666 -0.028543815 0.73100007 1.3086009e-38
-0.022911428 -0.028465703 0.72900003 1.2259118e-38
-0.021493334 -0.028426662 0.72800004 1.1888894e-38
-0.020051429 -0.02834855 0.72600001 1.1617263e-38
-0.018668573 -0.02834855 0.72600001 1.086493e-38
-0.017285716 -0.028348565 0.72600001 1.0112315e-38
-0.015902858 -0.02834855 0.72600001 8.2756105e-39
-0.014520001 -0.02834855 0.72600001 6.4331553e-39
-0.013137144 -0.028348565 0.72600001 3.4004259e-39
-0.011738096 -0.028309509 0.72500002 3.6772034e-40
-0.010357143 -0.028309509 0.72500002 4.876286e-39
-0.0089761913 -0.028309494 0.72500002 9.4017136e-39
-0.0075638099 -0.028192386 0.72200006 1.2253296e-38
-0.0061971433 -0.028231412 0.72300011 1.4989313e-38
-0.0048133335 -0.028192371 0.72200006 1.4056213e-38
-0.0034428574 -0.028231427 0.72300011 1.3224702e-38
-0.0020657144 -0.028231427 0.72300011 1.3500238e-38
-0.00068761909 -0.028192371 0.72200006 1.3775722e-38
0.00068857148 -0.028231427 0.72300011 1.3867534e-38
0.0020657144 -0.028231412 0.72300011 1.3959374e-38
0.0034428574 -0.028231427 0.72300011 1.4051213e-38
0.0048200004 -0.028231442 0.72300011 1.4143042e-38
0.0062142857 -0.028309524 0.72500002 1.4326706e-38
0.0075952383 -0.028309524 0.72500002 1.4510377e-38
0.0089761913 -0.028309509 0.72500002 1.4418541e-38
0.010357143 -0.028309524 0.72500002 1.4234873e-38
0.011738096 -0.028309509 0.72500002 1.4143041e-38
0.013137144 -0.02834858 0.72600001 1.4051198e-38
0.014520001 -0.028348565 0.72600001 1.3683849e-38
0.015946668 -0.028426677 0.7280001 1.3224775e-38
0.017357146 -0.028465703 0.72899997 1.4443134e-38
0.018745717 -0.028465688 0.72900003 1.5678324e-38
0.020189527 -0.0285438 0.73100001 1.7159244e-38
0.021581909 -0.0285438 0.73100001 1.8725109e-38
0.023005717 -0.028582856 0.73200005 1.7614828e-38
0.024466669 -0.028660968 0.73400009 1.6517057e-38
0.025864763 -0.028660968 0.73400009 1.4656622e-38
0.027337145 -0.028739035 0.73600006 1.2898709e-38
0.028778097 -0.028778076 0.73700005 1.0033747e-38
0.03038667 -0.028973326 0.74200004 7.2593104e-39
0.031842858 -0.029012367 0.74300003 6.9030891e-39
0.033347622 -0.029090464 0.74500012 6.5429302e-39
0.034860004 -0.029168561 0.7470001 6.5425785e-39
0.036331426 -0.029207602 0.74799997 6.5422197e-39
0.037857145 -0.029285714 0.75000006 6.5429372e-39
-0.044880003 -0.027782843 0.74799997 6.9899696e-39
-0.043397147 -0.027745724 0.74700004 7.5409854e-39
-0.04186191 -0.027671427 0.74500006 7.723583e-39
-0.040334284 -0.027597159 0.74300003 7.8118129e-39
-0.038866673 -0.027559996 0.74200004 8.0829964e-39
-0.037301909 -0.027448595 0.73900002 8.2702379e-39
-0.035894293 -0.027448565 0.73900002 9.0163845e-39
-0.034393337 -0.027374268 0.73700005 9.7503748e-39
-0.032989524 -0.027374268 0.73700005 5.0535167e-39
-0.031457145 -0.027262852 0.73400009 2.7662332e-40
-0.029977147 -0.027188554 0.73200011 3.3064646e-39
-0.028582862 -0.027188569 0.73200011 6.2653147e-39
-0.027188575 -0.027188554 0.73200011 1.0335158e-38
-0.025759047 -0.027151421 0.73100007 1.4373801e-38
-0.024366666 -0.027151421 0.73100007 1.3263915e-38
-0.022974286 -0.027151436 0.73100007 1.2160807e-38
-0.021522857 -0.027077138 0.72900003 1.1974261e-38
-0.020106668 -0.027040005 0.72800004 1.1794141e-38
-0.018668571 -0.026965693 0.72599995 1.1518239e-38
-0.017285714 -0.026965693 0.72599995 1.1135805e-38
-0.015902856 -0.026965708 0.72599995 7.1725056e-39
-0.014520002 -0.026965693 0.72600001 3.1335374e-39
-0.013137145 -0.026965708 0.72600001 1.6569962e-39
-0.011738096 -0.026928574 0.72500002 9.3292847e-41
-0.010357143 -0.026928574 0.72500008 3.8574832e-39
-0.0089514293 -0.026854277 0.72300005 7.5570975e-39
-0.0075742863 -0.026854292 0.72300005 1.1254918e-38
-0.0061971433 -0.026854292 0.72300011 1.4808146e-38
-0.0048133335 -0.026817128 0.72200006 1.3867533e-38
-0.0034428574 -0.026854277 0.72300011 1.2949192e-38
-0.0020657144 -0.026854292 0.72300011 1.3408385e-38
-0.00068857142 -0.026854277 0.72300011 1.3775713e-38
0.00068857154 -0.026854292 0.72300011 1.3867533e-38
0.0020657144 -0.026854292 0.72300011 1.3959377e-38
0.0034428574 -0.026854292 0.72300011 1.4051219e-38
0.0048333337 -0.026928559 0.72500002 1.4143052e-38
0.0062142862 -0.026928559 0.72500002 1.4234883e-38
0.0075952387 -0.026928559 0.72500002 1.4326714e-38
0.0089761913 -0.026928559 0.72500002 1.432671e-38
0.010357143 -0.026928574 0.72500002 1.4326713e-38
0.011738096 -0.026928559 0.72500002 1.4234882e-38
0.013137143 -0.026965708 0.72599995 1.4143052e-38
0.014560001 -0.027040005 0.7280001 1.3959388e-38
0.015946668 -0.02703999 0.72800004 1.3779698e-38
0.017357146 -0.027077138 0.72900003 1.4250391e-38
0.018797146 -0.027151421 0.73100001 1.4741965e-38
0.020189527 -0.027151436 0.73100001 1.6245884e-38
0.02161143 -0.027188569 0.73200005 1.7693342e-38
0.023068575 -0.027262866 0.73400003 1.5395277e-38
0.024466671 -0.027262881 0.73400003 1.3080307e-38
0.025935242 -0.027337134 0.73600006 1.1407825e-38
0.027337147 -0.027337119 0.73600006 9.751863e-39
0.028778097 -0.027374268 0.73700005 8.4560683e-39
0.03038667 -0.027559996 0.74200004 7.0835539e-39
0.031842861 -0.027597144 0.74300009 7.0914418e-39
0.033347618 -0.027671412 0.74500012 7.092881e-39
0.034860004 -0.027745709 0.74700004 6.4493206e-39
0.03633143 -0.027782857 0.74800003 5.8079057e-39
0.037857145 -0.027857125 0.75000012 6.085203e-39
-0.047857147 -0.026428565 0.75000006 7.267997e-39
-0.046428576 -0.02642855 0.75000006 6.7155435e-39
-0.044880003 -0.026358083 0.74799997 7.0835974e-39
-0.043397147 -0.026322842 0.74700004 7.5427847e-39
-0.041974287 -0.026322842 0.74700004 7.6324776e-39
-0.040334288 -0.026181906 0.74300003 7.8136164e-39
-0.038866669 -0.026146665 0.7420001 8.0851544e-39
-0.037301905 -0.026040971 0.73900008 8.2670107e-39
-0.03589429 -0.026040971 0.73900008 9.0102833e-39
-0.034393337 -0.025970474 0.73700005 9.7532489e-39
-0.032989524 -0.025970474 0.73700005 7.3601744e-39
-0.031457145 -0.02586475 0.73400003 5.0513699e-39
-0.030059047 -0.025864765 0.73400003 6.6254835e-39
-0.02858286 -0.025794268 0.73200011 8.2050033e-39
-0.027188573 -0.025794268 0.73200005 1.1065198e-38
-0.025759049 -0.025759041 0.73100001 1.4007891e-38
-0.024366667 -0.025759056 0.73100001 1.3264248e-38
-0.022974288 -0.025759056 0.73100007 1.2614944e-38
-0.021522859 -0.025688589 0.72900003 1.2708573e-38
-0.020106668 -0.025653332 0.7280001 1.2800766e-38
-0.018720001 -0.025653332 0.7280001 1.2066079e-38
-0.017333334 -0.025653332 0.7280001 1.13317e-38
-0.015902858 -0.02558285 0.72600001 9.2101014e-39
-0.014520001 -0.02558285 0.72600001 7.1900862e-39
-0.013137144 -0.025582865 0.72600001 6.3531705e-39
-0.011754286 -0.02558285 0.72600001 5.6023492e-39
-0.010357143 -0.025547594 0.72500002 6.1598236e-39
-0.0089761913 -0.025547594 0.72500002 6.7248243e-39
-0.0075742858 -0.025477141 0.72300005 1.077742e-38
-0.0061971429 -0.025477141 0.72300011 1.480491e-38
-0.0048199999 -0.025477156 0.72300011 1.3964402e-38
-0.0034523809 -0.025547609 0.72500002 1.3224695e-38
-0.0020714286 -0.025547594 0.72500002 1.3500202e-38
-0.00068857148 -0.025477156 0.72300011 1.3867538e-38
0.00069047627 -0.025547609 0.72500002 1.3959367e-38
0.002071429 -0.025547594 0.72500002 1.4051213e-38
0.0034523814 -0.025547609 0.72500002 1.414306e-38
0.0048333337 -0.025547624 0.72500002 1.4234896e-38
0.0062142862 -0.025547609 0.72500002 1.4234896e-38
0.0075952387 -0.025547609 0.72500002 1.4326723e-38
0.0089761913 -0.025547594 0.72500002 1.4418548e-38
0.010357143 -0.025547594 0.72500002 1.451039e-38
0.011738096 -0.025547594 0.72500002 1.4326723e-38
0.013137144 -0.02558285 0.72600001 1.4234907e-38
0.014520001 -0.025582835 0.72600001 1.4051254e-38
0.015946668 -0.025653332 0.72800004 1.3867552e-38
0.017357145 -0.025688574 0.72900003 1.4061953e-38
0.018797146 -0.025759026 0.73100001 1.4261916e-38
0.020189527 -0.025759041 0.73100001 1.4634787e-38
0.02161143 -0.025794297 0.73200005 1.5081002e-38
0.023068575 -0.025864765 0.73400009 1.4070764e-38
0.024533335 -0.025935218 0.73600006 1.3132945e-38
0.02593524 -0.025935233 0.73600006 1.1852178e-38
0.027374288 -0.025970459 0.73700005 1.0561477e-38
0.028856192 -0.026040956 0.73900002 9.0078254e-39
0.03038667 -0.026146665 0.74200004 7.3633876e-39
0.031928573 -0.026252389 0.74500012 7.2744122e-39
0.033347622 -0.026252374 0.74500012 7.0932551e-39
0.034860004 -0.026322842 0.74700004 6.6340804e-39
0.03633143 -0.026358083 0.74800003 6.1756162e-39
0.037756193 -0.026358098 0.74800003 6.2674475e-39
-0.047984764 -0.025066674 0.75200003 7.636383e-39
-0.046552382 -0.025066674 0.75200003 6.9917465e-39
-0.045120005 -0.025066659 0.75200003 7.2690522e-39
-0.043455243 -0.024933323 0.74800003 7.4512953e-39
-0.042030483 -0.024933331 0.74800003 7.6338957e-39
-0.040442865 -0.024833322 0.74500012 7.8135996e-39
-0.038866673 -0.024733327 0.74200004 8.085139e-39
-0.037352383 -0.02466666 0.74000001 8.2680799e-39
-0.035894293 -0.024633341 0.73900002 9.0049023e-39
-0.034393337 -0.024566643 0.73699999 9.6621295e-39
-0.032989524 -0.02456665 0.73699999 9.76655e-39
-0.031457145 -0.024466679 0.73400009 9.8468921e-39
-0.030059049 -0.024466671 0.73400009 1.0030549e-38
-0.028660955 -0.024466671 0.73400009 1.013534e-38
-0.027262859 -0.024466679 0.73400009 1.1895682e-38
-0.025794288 -0.024399988 0.73200005 1.3542978e-38
-0.024400001 -0.024399996 0.73200005 1.3261729e-38
-0.022974288 -0.024366647 0.73100001 1.2984057e-38
-0.021581907 -0.024366654 0.73100007 1.3443582e-38
-0.020134287 -0.024300009 0.72900003 1.381058e-38
-0.018720001 -0.02426666 0.72800004 1.2613864e-38
-0.017333334 -0.024266668 0.72800004 1.1420323e-38
-0.015902858 -0.024199992 0.72600001 1.1329169e-38
-0.014520002 -0.024199985 0.72600001 1.1234479e-38
-0.013137145 -0.024199992 0.72600001 1.1146246e-38
-0.011754287 -0.024199985 0.72600001 1.1041835e-38
-0.010357143 -0.024166659 0.72500002 8.4549963e-39
-0.0089761913 -0.024166651 0.72500002 5.8100553e-39
-0.0075952387 -0.024166644 0.72500002 1.0325054e-38
-0.0062142862 -0.024166651 0.72500008 1.4716306e-38
-0.0048199999 -0.024099991 0.72300005 1.4051585e-38
-0.0034523809 -0.024166651 0.72500002 1.3408369e-38
-0.0020714286 -0.024166659 0.72500002 1.3683867e-38
-0.00068857142 -0.024100006 0.72300005 1.3959374e-38
0.00069047627 -0.024166659 0.72500002 1.4051211e-38
0.002071429 -0.024166651 0.72500002 1.4143048e-38
0.0034523814 -0.024166659 0.72500002 1.4234886e-38
0.0048333337 -0.024166651 0.72500002 1.42349e-38
0.0062142862 -0.024166659 0.72500002 1.4326748e-38
0.0075952387 -0.024166666 0.72500002 1.4326735e-38
0.0089761913 -0.024166659 0.72500002 1.4510394e-38
0.010357143 -0.024166666 0.72500002 1.4602236e-38
0.011738096 -0.024166659 0.72500002 1.4418572e-38
0.013137143 -0.024199985 0.72600001 1.4234908e-38
0.01456 -0.02426666 0.72800004 1.4143081e-38
0.015968572 -0.024299987 0.72899997 1.3959384e-38
0.017357145 -0.024299994 0.72900003 1.3867521e-38
0.018797144 -0.024366677 0.73100007 1.3690739e-38
0.020189526 -0.024366669 0.73100007 1.3132985e-38
0.02161143 -0.024399996 0.73200005 1.2495136e-38
0.023068573 -0.024466664 0.73400009 1.2857433e-38
0.024533337 -0.024533324 0.73600006 1.3133252e-38
0.025935242 -0.024533331 0.73600006 1.2306328e-38
0.027374286 -0.024566635 0.73699999 1.1390857e-38
0.028856194 -0.024633348 0.73900008 9.5588244e-39
0.03038667 -0.024733335 0.74200004 7.637448e-39
0.031842858 -0.024766669 0.74300003 7.3655246e-39
0.033347618 -0.024833307 0.74500006 7.0921691e-39
0.034906667 -0.024933331 0.74800003 6.8173801e-39
0.036331426 -0.024933331 0.74800003 6.4503926e-39
0.037857145 -0.024999991 0.75000006 6.3574781e-39
-0.047984764 -0.023634277 0.75200009 7.8200218e-39
-0.046552382 -0.023634285 0.75200003 6.9884968e-39
-0.045120005 -0.02363427 0.75200003 7.26689e-39
-0.043571431 -0.023571417 0.75000012 7.542758e-39
-0.04203048 -0.023508571 0.74800003 7.7257144e-39
-0.040551431 -0.023477137 0.74700004 7.9976139e-39
-0.03891905 -0.023351423 0.74300003 8.1773178e-39
-0.037352383 -0.023257129 0.74000001 8.3577546e-39
-0.035894293 -0.02322571 0.73900002 9.0988902e-39
-0.034486674 -0.023225717 0.73900002 9.7568334e-39
-0.033079054 -0.023225725 0.73900002 1.0040619e-38
-0.031542864 -0.023131408 0.73600006 1.0405785e-38
-0.030140955 -0.023131415 0.73600006 8.9324467e-39
-0.028660953 -0.023068562 0.73400003 7.5628681e-39
-0.027262857 -0.02306857 0.73400003 9.6783733e-39
-0.025794288 -0.023005717 0.73200005 1.1883486e-38
-0.024400001 -0.023005709 0.73200005 1.2892944e-38
-0.023005717 -0.023005702 0.73200005 1.3992792e-38
-0.021581907 -0.022974283 0.73100001 1.3995278e-38
-0.020134287 -0.022911429 0.72900003 1.3996745e-38
-0.018719999 -0.022879981 0.72800004 1.1971015e-38
-0.017333332 -0.022879988 0.72800004 9.9473862e-39
-0.015946666 -0.022879988 0.72800004 1.0038124e-38
-0.014520001 -0.022817127 0.72599995 1.0129985e-38
-0.013137144 -0.02281712 0.72599995 1.1238492e-38
-0.011754286 -0.022817127 0.72600001 1.2351237e-38
-0.010371429 -0.022817135 0.72600001 1.1515345e-38
-0.0089761913 -0.022785693 0.72500002 1.0683434e-38
-0.0075952387 -0.022785701 0.72500002 1.2800661e-38
-0.0062142862 -0.022785708 0.72500002 1.4816755e-38
-0.0048333337 -0.022785693 0.72500002 1.3967294e-38
-0.0034523809 -0.022785701 0.72500002 1.3132866e-38
-0.0020714286 -0.022785708 0.72500002 1.3500189e-38
-0.00068857148 -0.022722863 0.72300005 1.3959375e-38
0.00069047627 -0.022785708 0.72500002 1.4051218e-38
0.002071429 -0.022785716 0.72500002 1.4143048e-38
0.0034523814 -0.022785708 0.72500002 1.4143041e-38
0.0048333337 -0.022785716 0.72500002 1.4235261e-38
0.0062142862 -0.022785708 0.72500002 1.4234929e-38
0.0075952387 -0.022785701 0.72500002 1.4234912e-38
0.0089761913 -0.022785693 0.72500002 1.4234896e-38
0.010357143 -0.022785701 0.72500002 1.4234905e-38
0.011754286 -0.022817127 0.72599995 1.4234915e-38
0.013137144 -0.02281712 0.72599995 1.4234911e-38
0.01456 -0.022879988 0.72800004 1.4234907e-38
0.01594667 -0.022879995 0.72800004 1.414305e-38
0.017357145 -0.022911422 0.72900003 1.4143028e-38
0.018797144 -0.022974275 0.73100007 1.4051192e-38
0.020217145 -0.023005694 0.73200011 1.3684208e-38
0.02161143 -0.023005702 0.73200011 1.3224674e-38
0.023068575 -0.023068585 0.73400003 1.3408706e-38
0.024533335 -0.02313143 0.73600006 1.3592735e-38
0.02593524 -0.023131423 0.73600006 1.2583262e-38
0.027374288 -0.023162842 0.73700005 1.1574875e-38
0.028856194 -0.023225717 0.73900002 9.6517206e-39
0.03038667 -0.023319997 0.7420001 7.7307086e-39
0.031842858 -0.023351416 0.74300003 7.4577118e-39
0.033347622 -0.023414284 0.74500006 7.1843549e-39
0.034860004 -0.02347713 0.74700004 6.9099204e-39
0.03628286 -0.023477137 0.74700004 6.7266054e-39
0.037857145 -0.023571409 0.75000012 6.6344069e-39
0.039285716 -0.023571417 0.75000012 6.45075e-39
-0.045180008 -0.022231422 0.75300002 7.2672543e-39
-0.043687627 -0.022201918 0.75200009 7.543837e-39
-0.04203048 -0.022083811 0.74800003 7.8197023e-39
-0.040551431 -0.022054277 0.74700004 8.0898137e-39
-0.03891905 -0.021936186 0.74300003 8.2691673e-39
-0.037453339 -0.021906652 0.74200004 8.4503146e-39
-0.03594286 -0.021847606 0.74000001 9.1842699e-39
-0.03448667 -0.021818087 0.73900002 9.8476151e-39
-0.03307905 -0.021818094 0.73900002 1.0416615e-38
-0.031585716 -0.021759033 0.73700005 1.0868224e-38
-0.030140953 -0.021729507 0.73600006 7.9147467e-39
-0.028660953 -0.021670476 0.73400009 4.9814241e-39
-0.027262857 -0.021670483 0.73400009 7.5546452e-39
-0.025794288 -0.021611415 0.73200005 1.0133201e-38
-0.024400001 -0.021611422 0.73200005 1.2617769e-38
-0.023005717 -0.02161143 0.73200005 1.5005841e-38
-0.021581907 -0.021581903 0.73100001 1.4639926e-38
-0.020189526 -0.021581896 0.73100001 1.4177905e-38
-0.018745715 -0.02152285 0.72900003 1.1325293e-38
-0.017333332 -0.021493323 0.72800004 8.4729988e-39
-0.015946666 -0.021493338 0.72800004 8.7456228e-39
-0.014560002 -0.021493331 0.72800004 9.0293816e-39
-0.013173335 -0.021493323 0.72800004 1.1326347e-38
-0.011754287 -0.021434277 0.72600001 1.363732e-38
-0.01037143 -0.02143427 0.72600001 1.4662956e-38
-0.0089885732 -0.02143427 0.72599995 1.5566189e-38
-0.0076057143 -0.021434277 0.72599995 1.5285606e-38
-0.0062228572 -0.021434277 0.72599995 1.4904635e-38
-0.0048400001 -0.02143427 0.72599995 1.3867903e-38
-0.003457143 -0.021434277 0.72600001 1.2857352e-38
-0.0020742859 -0.02143427 0.72599995 1.3408365e-38
-0.00069047621 -0.021404743 0.72500002 1.3867541e-38
0.00069047627 -0.021404751 0.72500002 1.3959374e-38
0.002071429 -0.021404743 0.72500002 1.4051204e-38
0.0034523814 -0.021404736 0.72500002 1.4143034e-38
0.0048333337 -0.021404743 0.72500002 1.4143048e-38
0.0062142862 -0.021404751 0.72500002 1.4143063e-38
0.0075952387 -0.021404743 0.72500002 1.4143057e-38
0.0089761913 -0.021404751 0.72500002 1.4051218e-38
0.010371428 -0.021434277 0.72600001 1.3867563e-38
0.011754286 -0.02143427 0.72600001 1.4051253e-38
0.013173333 -0.021493331 0.72800004 1.4234918e-38
0.01456 -0.021493338 0.72800004 1.4326748e-38
0.015968572 -0.02152285 0.72900003 1.4326734e-38
0.017404763 -0.021581896 0.73100001 1.4418557e-38
0.018797144 -0.021581903 0.73100001 1.4418916e-38
0.020272383 -0.021670483 0.73400009 1.4235605e-38
0.021670479 -0.021670491 0.73400009 1.3959731e-38
0.023131432 -0.021729514 0.73600006 1.3960083e-38
0.024566669 -0.021759041 0.73700005 1.396044e-38
0.025970478 -0.021759033 0.73700005 1.2858414e-38
0.027374288 -0.021759041 0.73700005 1.1666716e-38
0.028856192 -0.021818087 0.73900002 9.7417709e-39
0.03038667 -0.021906666 0.74200004 7.729638e-39
0.031799998 -0.021906674 0.74200004 7.4584335e-39
0.033347618 -0.021995224 0.74500012 7.1850752e-39
0.034860004 -0.022054255 0.74700004 7.0950278e-39
0.03633143 -0.022083804 0.74800003 7.0024706e-39
0.037857149 -0.02214285 0.75000006 6.8184381e-39
0.039285719 -0.022142842 0.75000006 6.6351328e-39
-0.045180008 -0.020797141 0.75300002 7.2672586e-39
-0.043687627 -0.020769522 0.75200009 7.5452734e-39
-0.042030483 -0.020659044 0.74800003 7.8193421e-39
-0.040551431 -0.020631418 0.74700004 8.089462e-39
-0.03891905 -0.020520933 0.74300003 8.2698988e-39
-0.037453339 -0.020493329 0.74200004 8.5410823e-39
-0.03594286 -0.020438075 0.74000001 9.1896509e-39
-0.034486674 -0.020410486 0.73900008 9.848355e-39
-0.032989524 -0.020355232 0.73700005 1.0597818e-38
-0.03154286 -0.020327605 0.73600006 1.1337839e-38
-0.030140955 -0.020327613 0.73600006 8.3821975e-39
-0.02873905 -0.020327605 0.73600006 5.3423047e-39
-0.027262859 -0.020272374 0.73400009 6.9070996e-39
-0.02579429 -0.020217143 0.73200005 8.5687397e-39
-0.024400003 -0.020217136 0.73200005 1.0502298e-38
-0.023005718 -0.020217143 0.73200005 1.2435872e-38
-0.021581907 -0.020189524 0.73100007 1.1970961e-38
-0.020189526 -0.020189509 0.73100001 1.1515394e-38
-0.018745715 -0.020134285 0.72900009 9.1158557e-39
-0.017333334 -0.020106658 0.72800004 6.7198763e-39
-0.015946668 -0.020106673 0.72800004 8.932891e-39
-0.014560002 -0.020106666 0.72800004 1.1149836e-38
-0.013173335 -0.020106673 0.72800004 1.2070321e-38
-0.011786669 -0.020106681 0.72800004 1.3085977e-38
-0.010400002 -0.020106673 0.72800004 1.4379291e-38
-0.0090133352 -0.020106681 0.72800004 1.5663455e-38
-0.0076057147 -0.020051412 0.72600001 1.5197003e-38
-0.0062228576 -0.020051427 0.72600001 1.4821401e-38
-0.0048400001 -0.02005142 0.72600001 1.4061236e-38
-0.003457143 -0.020051427 0.72600001 1.3224688e-38
-0.0020742859 -0.020051435 0.72600001 1.3592047e-38
-0.00069047621 -0.0200238 0.72500002 1.3959378e-38
0.00069047621 -0.020023808 0.72500002 1.3959365e-38
0.002071429 -0.0200238 0.72500002 1.4051197e-38
0.0034523814 -0.020023793 0.72500002 1.4143027e-38
0.004840001 -0.020051397 0.72599995 1.4234865e-38
0.0062228581 -0.020051405 0.72599995 1.4234866e-38
0.0076057152 -0.020051412 0.72599995 1.4234875e-38
0.0089885723 -0.020051405 0.72600001 1.4143046e-38
0.010371429 -0.020051412 0.72600001 1.4143071e-38
0.011786668 -0.020106658 0.72800004 1.4234931e-38
0.013173334 -0.020106666 0.72800004 1.4326759e-38
0.014580001 -0.020134278 0.72900003 1.4326752e-38
0.015968572 -0.020134285 0.72900003 1.4418583e-38
0.017404763 -0.020189509 0.73100001 1.4418579e-38
0.018822858 -0.020217143 0.73200011 1.4510416e-38
0.020272382 -0.020272382 0.73400003 1.423527e-38
0.021729525 -0.020327605 0.73600006 1.4051582e-38
0.02313143 -0.020327613 0.73600006 1.4051924e-38
0.024566669 -0.020355247 0.73700005 1.4053357e-38
0.025970478 -0.020355225 0.73700005 1.2858776e-38
0.027448576 -0.020410463 0.73900002 1.1757483e-38
0.028856194 -0.020410471 0.73900002 1.0022308e-38
0.03038667 -0.020493343 0.7420001 8.2831691e-39
0.031842858 -0.02052094 0.74300003 7.3669609e-39
0.033347622 -0.020576179 0.74500012 6.3589173e-39
0.034860004 -0.020631425 0.74700004 6.5432987e-39
0.036428574 -0.020714276 0.75000006 6.7273242e-39
-0.045120008 -0.01933714 0.75200009 7.3597975e-39
-0.043687627 -0.019337147 0.75200009 7.5442014e-39
-0.04203048 -0.019234277 0.74800003 7.8222344e-39
-0.040442865 -0.019157127 0.74500006 8.0916228e-39
-0.039023817 -0.019157127 0.74500006 8.363165e-39
-0.037453339 -0.019080006 0.7420001 8.5428858e-39
-0.03594286 -0.019028559 0.74000001 9.1846538e-39
-0.034533337 -0.019028559 0.74000001 9.8465544e-39
-0.033079054 -0.019002862 0.73900002 1.0880459e-38
-0.031585716 -0.018951416 0.73699999 1.178838e-38
-0.030140953 -0.018925712 0.73600006 8.7498856e-39
-0.028739048 -0.018925689 0.73600006 5.7078432e-39
-0.027262857 -0.018874273 0.73400003 6.3456792e-39
-0.02579429 -0.018822834 0.73200005 6.9070772e-39
-0.024400003 -0.018822841 0.73200005 8.3868302e-39
-0.022974288 -0.018797152 0.73100007 9.7579082e-39
-0.021611432 -0.018822841 0.73200005 9.2929952e-39
-0.020189526 -0.018797137 0.73100007 8.8349052e-39
-0.018797144 -0.018797144 0.73100007 6.9024249e-39
-0.017357145 -0.018745698 0.72900003 4.9739131e-39
-0.015968572 -0.018745705 0.72900003 9.1165886e-39
-0.014580002 -0.018745713 0.72900003 1.3172419e-38
-0.013191431 -0.018745705 0.72900003 1.2903012e-38
-0.011786668 -0.018720001 0.7280001 1.2537493e-38
-0.010414287 -0.01874572 0.72900003 1.4104467e-38
-0.0090133343 -0.018720001 0.7280001 1.5664179e-38
-0.0076266676 -0.018720008 0.7280001 1.5201359e-38
-0.0062228576 -0.01866857 0.72600001 1.4726002e-38
-0.0048400005 -0.018668577 0.72600001 1.414769e-38
-0.003457143 -0.01866857 0.72600001 1.3593102e-38
-0.0020742859 -0.018668562 0.72600001 1.3775711e-38
-0.00069047621 -0.01864285 0.72500002 1.3959374e-38
0.00069142866 -0.018668562 0.72600001 1.4051202e-38
0.0020742859 -0.018668555 0.72600001 1.4051197e-38
0.003457143 -0.018668562 0.72600001 1.4143028e-38
0.004840001 -0.01866857 0.72600001 1.4234875e-38
0.0062228581 -0.018668562 0.72600001 1.4326721e-38
0.0076266672 -0.018720001 0.72800004 1.4326717e-38
0.0090133343 -0.018720008 0.72800004 1.4326713e-38
0.010400001 -0.018719986 0.72800004 1.4326727e-38
0.011786668 -0.018719994 0.72800004 1.4326741e-38
0.01319143 -0.018745713 0.72900003 1.4326742e-38
0.014580001 -0.018745705 0.72900003 1.4418581e-38
0.015968572 -0.018745698 0.72900003 1.441859e-38
0.017404763 -0.018797137 0.73100001 1.4510436e-38
0.018874289 -0.018874295 0.73400009 1.4510436e-38
0.020272383 -0.018874288 0.73400009 1.4326766e-38
0.021729527 -0.018925697 0.73600006 1.4051237e-38
0.023131432 -0.018925704 0.73600006 1.4051216e-38
0.024566669 -0.018951401 0.73699999 1.4051927e-38
0.025970478 -0.018951409 0.73699999 1.2949178e-38
0.027448576 -0.019002847 0.73900008 1.1767166e-38
0.02889524 -0.019028567 0.74000001 1.0306779e-38
0.03038667 -0.019079991 0.74200004 8.838847e-39
0.031842858 -0.019105703 0.74300003 7.1840158e-39
0.033347618 -0.019157127 0.74500012 5.5320419e-39
0.034860004 -0.019208565 0.74700004 5.9922857e-39
0.03633143 -0.01923427 0.74800003 6.3599837e-39
-0.045120008 -0.017904758 0.75200009 6.5286005e-39
-0.043687627 -0.017904766 0.75200009 7.3569473e-39
-0.04203048 -0.017809518 0.74800003 7.632486e-39
-0.040551431 -0.017785706 0.74700004 7.9076015e-39
-0.039023817 -0.017738082 0.74500012 8.1780535e-39
-0.037503812 -0.017690465 0.74300003 8.4499839e-39
-0.036040004 -0.01766666 0.74200004 9.0038779e-39
-0.034626674 -0.01766666 0.74200004 9.5642236e-39
-0.03312381 -0.017619029 0.74000001 1.0220709e-38
-0.031585716 -0.0175476 0.73700005 1.0859236e-38
-0.030140955 -0.017523788 0.73600006 7.9133076e-39
-0.02873905 -0.017523795 0.73600006 4.9652587e-39
-0.027262857 -0.017476179 0.73400009 6.0698098e-39
-0.025794288 -0.017428577 0.73200005 7.1736014e-39
-0.024400001 -0.017428569 0.73200005 8.6551382e-39
-0.023005717 -0.017428562 0.73200005 1.0201994e-38
-0.02161143 -0.017428569 0.73200005 8.4585556e-39
-0.020217145 -0.017428555 0.73200011 6.7104512e-39
-0.018822858 -0.017428562 0.73200005 5.2414406e-39
-0.017404761 -0.017404765 0.73100007 3.7692771e-39
-0.01601238 -0.017404757 0.73100007 7.8284071e-39
-0.01462 -0.017404765 0.73100007 1.1897534e-38
-0.01322762 -0.017404772 0.73100007 1.2631883e-38
-0.011802859 -0.017357148 0.72900009 1.3454074e-38
-0.010414287 -0.017357141 0.72899997 1.4746203e-38
-0.0090257162 -0.017357148 0.72900003 1.603404e-38
-0.0076266672 -0.017333329 0.72800004 1.5293243e-38
-0.0062400005 -0.017333336 0.72800004 1.4641366e-38
-0.0048400005 -0.017285697 0.72599995 1.3972629e-38
-0.003457143 -0.017285705 0.72600001 1.3316517e-38
-0.0020742859 -0.017285697 0.72599995 1.3592032e-38
-0.00069047621 -0.017261893 0.72500002 1.3959371e-38
0.00069047621 -0.017261885 0.72500002 1.4051202e-38
0.0020742859 -0.017285705 0.72600001 1.4143034e-38
0.003457143 -0.017285697 0.72600001 1.4051194e-38
0.004840001 -0.017285705 0.72600001 1.4051213e-38
0.0062400005 -0.017333329 0.72800004 1.4143069e-38
0.0076266672 -0.017333336 0.72800004 1.4234889e-38
0.0090133334 -0.017333329 0.72800004 1.4326707e-38
0.0104 -0.017333336 0.72800004 1.4326712e-38
0.011786667 -0.017333329 0.72800004 1.4234879e-38
0.01319143 -0.017357148 0.72900003 1.4143056e-38
0.014580001 -0.017357141 0.72900003 1.4143067e-38
0.016012384 -0.017404757 0.73100007 1.4143091e-38
0.017428573 -0.017428562 0.73200005 1.4234949e-38
0.018874289 -0.017476194 0.73400003 1.441862e-38
0.020272383 -0.017476201 0.73400003 1.433073e-38
0.021729525 -0.017523803 0.73600006 1.4234924e-38
0.02313143 -0.01752381 0.73600006 1.4238484e-38
0.024566669 -0.017547607 0.73700005 1.432708e-38
0.026040955 -0.017595239 0.73900002 1.4068064e-38
0.027448574 -0.017595239 0.73900002 1.3799383e-38
0.028895242 -0.017619044 0.74000001 1.1508528e-38
0.030427624 -0.017690472 0.74300003 9.3052019e-39
0.031842858 -0.017690472 0.74300003 7.3687714e-39
0.033347622 -0.017738082 0.74500012 5.5313286e-39
0.03490667 -0.01780951 0.74799997 5.9919256e-39
0.036428574 -0.017857127 0.75000006 6.3596263e-39
0.037756193 -0.01780951 0.74799997 6.4514604e-39
-0.043687623 -0.016472377 0.75200003 7.0763975e-39
-0.042030483 -0.016384758 0.74800003 7.3504971e-39
-0.040551431 -0.016362838 0.74700004 7.6266944e-39
-0.039023813 -0.016319036 0.74500012 7.9911399e-39
-0.037604764 -0.016319036 0.74500012 8.3581344e-39
-0.036088575 -0.016275227 0.74300003 8.8169657e-39
-0.03462667 -0.016253322 0.7420001 9.1950683e-39
-0.03312381 -0.016209505 0.74000001 9.578912e-39
-0.031671435 -0.016187616 0.73900002 9.8479543e-39
-0.030181907 -0.016143806 0.73700005 6.9870577e-39
-0.028778097 -0.016143814 0.73700005 4.1383735e-39
-0.027262859 -0.016078092 0.73400003 5.7939319e-39
-0.025864763 -0.0160781 0.73400003 7.3676826e-39
-0.024400001 -0.016034283 0.73200011 9.0422357e-39
-0.023005717 -0.016034283 0.73200011 1.0667286e-38
-0.02161143 -0.016034275 0.73200011 7.6284572e-39
-0.020189524 -0.016012378 0.73100007 4.5060448e-39
-0.018797142 -0.016012371 0.73100007 3.5830207e-39
-0.017404761 -0.016012378 0.73100007 2.575389e-39
-0.01601238 -0.016012385 0.73100007 6.5301013e-39
-0.014620001 -0.016012371 0.73100007 1.0506347e-38
-0.013227621 -0.016012378 0.73100007 1.2456474e-38
-0.01183524 -0.016012385 0.73100007 1.4378178e-38
-0.010442859 -0.016012378 0.73100007 1.5391931e-38
-0.0090257153 -0.015968584 0.72900003 1.640211e-38
-0.0076371431 -0.015968576 0.72900003 1.5479082e-38
-0.0062400009 -0.015946656 0.72800004 1.4453043e-38
-0.0048533343 -0.015946664 0.72800004 1.3692824e-38
-0.003457143 -0.01590284 0.72600001 1.2951693e-38
-0.0020885717 -0.016012371 0.73100001 1.3408369e-38
-0.00069142861 -0.015902855 0.72600001 1.3867541e-38
0.00069142866 -0.015902847 0.72600001 1.4051206e-38
0.0020800005 -0.015946656 0.72800004 1.4143038e-38
0.003457143 -0.01590284 0.72599995 1.3959363e-38
0.0048533333 -0.015946656 0.72800004 1.37757e-38
0.00624 -0.015946664 0.72800004 1.3959379e-38
0.0076266667 -0.015946671 0.72800004 1.4143046e-38
0.0090133334 -0.015946664 0.72800004 1.4234879e-38
0.0104 -0.015946671 0.72800004 1.432671e-38
0.011786667 -0.015946664 0.7280001 1.4143035e-38
0.01319143 -0.015968569 0.72900003 1.3867893e-38
0.014580001 -0.015968561 0.72900003 1.3867541e-38
0.016012384 -0.016012378 0.73100007 1.378041e-38
0.017428573 -0.016034275 0.73200005 1.4051295e-38
0.018874288 -0.016078107 0.73400009 1.4341121e-38
0.020272382 -0.016078107 0.73400009 1.4434363e-38
0.021729527 -0.016121887 0.73600006 1.4435433e-38
0.023162859 -0.016143799 0.73700005 1.4524033e-38
0.024566669 -0.016143799 0.73700005 1.4537317e-38
0.026040956 -0.016187616 0.73900002 1.5197037e-38
0.027485715 -0.016209513 0.74000001 1.5744446e-38
0.02889524 -0.01620952 0.74000001 1.2714216e-38
0.030427624 -0.016275235 0.74300003 9.6700146e-39
0.031842858 -0.016275235 0.74300003 7.6381556e-39
0.033347622 -0.016319036 0.74500006 5.5298797e-39
0.034906667 -0.016384751 0.74799997 5.9922801e-39
0.036428578 -0.016428553 0.75000006 6.3592648e-39
0.037857149 -0.01642856 0.75000006 6.3589089e-39
-0.043687623 -0.015040003 0.75200003 7.2578965e-39
-0.04203048 -0.014959984 0.74799997 7.6274119e-39
-0.040551435 -0.014940001 0.74700004 7.9000275e-39
-0.039023817 -0.014899999 0.74500012 8.0833187e-39
-0.037503812 -0.014859997 0.74300003 8.2659275e-39
-0.036088575 -0.014860004 0.74300003 8.6339996e-39
-0.034626674 -0.014839999 0.74200004 9.0031282e-39
-0.03321334 -0.014839992 0.74200004 9.5720694e-39
-0.031671435 -0.014780007 0.73900002 1.0129545e-38
-0.030181909 -0.014739983 0.73699999 6.7158532e-39
-0.02873905 -0.014719993 0.73600006 3.2146291e-39
-0.027262857 -0.014680006 0.73400009 3.5895087e-39
-0.025794288 -0.014639989 0.73200011 4.0630453e-39
-0.024400001 -0.014639996 0.73200011 6.9088793e-39
-0.023005717 -0.014640003 0.73200011 9.8267933e-39
-0.02161143 -0.014639996 0.73200011 6.9852584e-39
-0.020189524 -0.014619991 0.73100001 4.235206e-39
-0.018797142 -0.014619999 0.73100007 2.8504891e-39
-0.017404761 -0.014619991 0.73100007 1.4704666e-39
-0.01601238 -0.014619991 0.73100007 4.9699208e-39
-0.014640002 -0.014639981 0.73200005 8.4780533e-39
-0.013245716 -0.014639989 0.73200005 1.0602914e-38
-0.011835239 -0.014619991 0.73100007 1.2720127e-38
-0.010442858 -0.014619999 0.73100007 1.3366896e-38
-0.0090257153 -0.014580004 0.72900003 1.3927587e-38
-0.0076371431 -0.014579996 0.72900003 1.4101205e-38
-0.0062400005 -0.014560007 0.72800004 1.4366241e-38
-0.0048533338 -0.014559992 0.72800004 1.3699289e-38
-0.0034666669 -0.014559999 0.72800004 1.313322e-38
-0.0020800002 -0.014560007 0.72800004 1.3316542e-38
-0.00069333334 -0.014559999 0.72800004 1.3592042e-38
0.00069333345 -0.014559999 0.72800004 1.3683869e-38
0.0020800002 -0.014560007 0.72800004 1.3867535e-38
0.003457143 -0.014519982 0.72600001 1.386753e-38
0.0048533338 -0.014559999 0.72800004 1.3959363e-38
0.0062400005 -0.014560007 0.72800004 1.4051195e-38
0.0076266672 -0.014559999 0.7280001 1.4143041e-38
0.0089885723 -0.014519989 0.72600001 1.4418555e-38
0.0104 -0.014560007 0.7280001 1.4694051e-38
0.011786667 -0.014559984 0.72800004 1.4885244e-38
0.01319143 -0.014579989 0.72900003 1.5153934e-38
0.014580001 -0.014579996 0.72900003 1.5816513e-38
0.015968572 -0.014580004 0.72900003 1.6456911e-38
0.017404765 -0.014619991 0.73100007 1.6193301e-38
0.018874289 -0.014679998 0.73400003 1.6021411e-38
0.02032762 -0.014719985 0.73600006 1.5466753e-38
0.021729525 -0.014719993 0.73600006 1.48232e-38
0.023162859 -0.014739998 0.73700005 1.4912537e-38
0.024566669 -0.014739983 0.73699999 1.5019473e-38
0.026146669 -0.014839999 0.74200004 1.5661636e-38
0.027560001 -0.014839999 0.7420001 1.6308387e-38
0.028973335 -0.014839999 0.7420001 1.2989352e-38
0.030427624 -0.014859989 0.74300003 9.6649741e-39
0.031842858 -0.014859989 0.74300003 7.6402842e-39
0.033347618 -0.014899991 0.74500006 5.6209837e-39
0.03490667 -0.014959991 0.74800003 5.9904809e-39
0.036428574 -0.014999986 0.75000012 6.3581872e-39
-0.040551431 -0.013517134 0.74700004 8.1809402e-39
-0.039023813 -0.013480946 0.74500012 8.1766032e-39
-0.037503812 -0.013444759 0.74300003 8.1755354e-39
-0.036088575 -0.013444759 0.74300003 8.5414508e-39
-0.034673337 -0.013444766 0.74300003 8.8241208e-39
-0.033213336 -0.013426676 0.7420001 9.6689258e-39
-0.031671431 -0.013372384 0.73900008 1.040111e-38
-0.030181907 -0.013336174 0.73700005 6.348521e-39
-0.028739048 -0.013318084 0.73600006 2.3030873e-39
-0.027262857 -0.013281897 0.73400003 1.4697435e-39
-0.025864761 -0.013281904 0.73400003 6.5363707e-40
-0.024400001 -0.013245717 0.73200011 4.8870494e-39
-0.023005717 -0.013245717 0.73200011 9.0110302e-39
-0.02161143 -0.013245709 0.73200011 6.4342483e-39
-0.020189526 -0.013227612 0.73100001 3.8621341e-39
-0.018797144 -0.013227612 0.73100001 2.1136696e-39
-0.017404763 -0.013227619 0.73100001 3.7060841e-40
-0.016012382 -0.013227612 0.73100001 3.4012008e-39
-0.014640002 -0.013245702 0.73200005 6.3536092e-39
-0.013245716 -0.013245694 0.73200005 8.7564394e-39
-0.011835239 -0.013227612 0.73100007 1.1054827e-38
-0.010442858 -0.013227619 0.73100007 1.1244586e-38
-0.0090257162 -0.013191424 0.72900003 1.1427519e-38
-0.0076371431 -0.013191432 0.72900003 1.2815434e-38
-0.0062400005 -0.013173334 0.72800004 1.4176076e-38
-0.0048600002 -0.013191432 0.72900003 1.3787898e-38
-0.0034714285 -0.013191417 0.72900003 1.3319755e-38
-0.0020828571 -0.013191424 0.72900003 1.3316531e-38
-0.00069333339 -0.013173342 0.72800004 1.3226123e-38
0.00069333339 -0.013173327 0.72800004 1.3408352e-38
0.0020800002 -0.013173334 0.72800004 1.3505207e-38
0.0034666669 -0.013173342 0.7280001 1.3867526e-38
0.0048533338 -0.013173334 0.7280001 1.4150211e-38
0.0062400005 -0.013173334 0.7280001 1.4143041e-38
0.0076266672 -0.013173327 0.72800004 1.4051225e-38
0.0090133343 -0.013173319 0.72800004 1.4510422e-38
0.010400001 -0.013173327 0.72800004 1.4988235e-38
0.011786668 -0.013173327 0.72800004 1.5733306e-38
0.013191429 -0.013191424 0.72900003 1.6386231e-38
0.01458 -0.013191417 0.72899997 1.7787114e-38
0.016012384 -0.013227612 0.73100001 1.9062405e-38
0.017404765 -0.013227619 0.73100001 1.8426371e-38
0.018874289 -0.013281927 0.73400009 1.7688064e-38
0.020327622 -0.013318092 0.73600006 1.649632e-38
0.021729527 -0.013318084 0.73600006 1.5190895e-38
0.023162859 -0.013336182 0.73700005 1.537457e-38
0.024633335 -0.013372384 0.73900008 1.5473994e-38
0.026076192 -0.013390459 0.74000001 1.61212e-38
0.027560001 -0.013426647 0.74200004 1.6766144e-38
0.029012384 -0.013444759 0.74300009 1.3270238e-38
0.030427624 -0.013444766 0.74300009 9.6692789e-39
0.031928573 -0.013480946 0.74500012 7.7288925e-39
0.033437144 -0.013517134 0.7470001 5.7124787e-39
0.03490667 -0.013535231 0.74800003 5.9908774e-39
0.036428574 -0.013571419 0.75000006 6.2667371e-39
-0.040442865 -0.012061894 0.74500006 8.5544044e-39
-0.039023817 -0.012061886 0.74500006 8.4553523e-39
-0.037604768 -0.012061894 0.74500006 8.2684569e-39
-0.036088575 -0.012029521 0.74300003 8.5421725e-39
-0.034673337 -0.012029529 0.74300003 8.908783e-39
-0.03321334 -0.012013324 0.74200004 9.8464955e-39
-0.031671435 -0.011964761 0.73900002 1.0773477e-38
-0.030181909 -0.011932366 0.73700005 6.9974764e-39
-0.028778099 -0.011932373 0.73700005 3.2304077e-39
-0.027262859 -0.01188381 0.73400009 1.8413748e-39
-0.025864763 -0.01188381 0.73400009 5.5138432e-40
-0.024466669 -0.011883818 0.73400009 3.3161448e-39
-0.023005718 -0.011851437 0.73200011 6.1712988e-39
-0.021611432 -0.011851415 0.73200005 5.335095e-39
-0.020217147 -0.011851408 0.73200005 4.5024813e-39
-0.01882286 -0.011851415 0.73200005 4.5028442e-39
-0.017404763 -0.011835232 0.73100001 4.5986454e-39
-0.016034288 -0.011851415 0.73200005 6.0748488e-39
-0.014640001 -0.011851415 0.73200005 7.5341653e-39
-0.013245715 -0.011851408 0.73200005 6.8095188e-39
-0.011835239 -0.01183524 0.73100001 5.9883859e-39
-0.010442858 -0.011835232 0.73100007 8.3743194e-39
-0.0090257162 -0.01180286 0.72900003 1.0845235e-38
-0.0076371431 -0.011802852 0.72900003 1.2984322e-38
-0.0062485719 -0.01180286 0.72900003 1.5091525e-38
-0.0048600002 -0.011802867 0.72900003 1.4061971e-38
-0.0034714285 -0.011802845 0.72900003 1.3041016e-38
-0.0020828571 -0.011802852 0.72900003 1.4426079e-38
-0.00069428579 -0.01180286 0.72900003 1.5893648e-38
0.00069428579 -0.011802852 0.72900003 1.5819383e-38
0.0020828575 -0.01180286 0.72900003 1.5815796e-38
0.0034666671 -0.011786655 0.72800004 1.5820459e-38
0.0048533333 -0.011786662 0.72800004 1.5916611e-38
0.00624 -0.011786655 0.72800004 1.47059e-38
0.0076266667 -0.011786655 0.72800004 1.3500231e-38
0.0090133343 -0.011786662 0.72800004 1.4990076e-38
0.010400001 -0.011786655 0.72800004 1.6576367e-38
0.011802857 -0.01180286 0.72900003 1.6394825e-38
0.013191429 -0.011802845 0.72900003 1.6318839e-38
0.01458 -0.011802852 0.72900003 1.7054307e-38
0.016034285 -0.011851422 0.73200005 1.7885785e-38
0.017428571 -0.011851422 0.73200005 1.7690572e-38
0.018874288 -0.011883818 0.73400003 1.7512268e-38
0.020327622 -0.011916175 0.73600006 1.6302607e-38
0.021729527 -0.011916175 0.73600006 1.5079325e-38
0.023162859 -0.011932366 0.73700005 1.5276981e-38
0.024633337 -0.011964768 0.73900002 1.5472566e-38
0.026076194 -0.011980936 0.74000001 1.5846798e-38
0.027560001 -0.012013331 0.74200004 1.6222318e-38
0.028973335 -0.012013324 0.74200004 1.2990784e-38
0.030427624 -0.012029529 0.74300003 9.8493626e-39
0.031928569 -0.012061894 0.74500012 7.8243167e-39
0.033437144 -0.012094282 0.74700004 5.80541e-39
0.035000004 -0.012142844 0.75000006 6.1745849e-39
0.036525711 -0.01217524 0.75200009 6.6348231e-39
0.037857145 -0.012142844 0.75000006 6.2667483e-39
-0.040442862 -0.010642849 0.74500006 8.9159941e-39
-0.039023813 -0.010642849 0.74500006 8.6375883e-39
-0.037604764 -0.010642841 0.74500006 8.3595749e-39
-0.036088575 -0.010614291 0.74300009 8.6329332e-39
-0.034673337 -0.010614268 0.74300003 8.9148983e-39
-0.033213336 -0.010599993 0.7420001 1.0035222e-38
-0.031714287 -0.010571413 0.74000001 1.1046844e-38
-0.030263809 -0.010557145 0.73900002 7.6374466e-39
-0.028778097 -0.010528564 0.73700005 4.1451698e-39
-0.027337145 -0.010514274 0.73600006 2.296965e-39
-0.025864761 -0.010485709 0.73400009 3.684336e-40
-0.024466667 -0.010485716 0.73400009 1.8378155e-39
-0.023005717 -0.010457136 0.73200005 3.3143609e-39
-0.021670476 -0.010485716 0.73400009 4.2327173e-39
-0.020217145 -0.010457128 0.73200005 5.1464129e-39
-0.018822858 -0.010457136 0.73200005 6.9798985e-39
-0.017428573 -0.010457121 0.73200005 8.7456144e-39
-0.016034286 -0.010457128 0.73200005 8.7653797e-39
-0.014640002 -0.010457136 0.73200005 8.7405866e-39
-0.013245716 -0.010457128 0.73200005 4.8676709e-39
-0.01185143 -0.010457128 0.73200005 9.2377518e-40
-0.010442859 -0.010442853 0.73100001 5.602373e-39
-0.0090257162 -0.010414287 0.72900003 1.0219989e-38
-0.0076371431 -0.010414295 0.72900009 1.309345e-38
-0.0062400005 -0.010400005 0.7280001 1.5920946e-38
-0.0048533338 -0.010400012 0.7280001 1.4326707e-38
-0.0034714285 -0.01041428 0.72899997 1.277165e-38
-0.0020828571 -0.010414273 0.72900003 1.5636536e-38
-0.00069428579 -0.01041428 0.72900003 1.8502061e-38
0.00069428585 -0.010414287 0.72900003 1.8342754e-38
0.0020828575 -0.01041428 0.72900003 1.8047498e-38
0.003471429 -0.010414287 0.72900003 1.7865244e-38
0.0048600007 -0.010414295 0.72900003 1.7580094e-38
0.0062485724 -0.010414287 0.72900003 1.5263442e-38
0.0076371436 -0.01041428 0.72900003 1.2963946e-38
0.0090133334 -0.01039999 0.72800004 1.5557203e-38
0.0104 -0.010399997 0.72800004 1.8048583e-38
0.011802857 -0.010414287 0.72900003 1.7134874e-38
0.013191429 -0.010414295 0.72900003 1.6123661e-38
0.01462 -0.010442846 0.73100001 1.6409264e-38
0.016012382 -0.010442838 0.73100001 1.6586094e-38
0.017428573 -0.010457143 0.73200005 1.6937986e-38
0.018874289 -0.010485724 0.73400009 1.7318927e-38
0.02032762 -0.010514267 0.73600006 1.6122522e-38
0.021729525 -0.010514267 0.73600006 1.4905717e-38
0.023162859 -0.010528564 0.73700005 1.518088e-38
0.024633337 -0.010557145 0.73900002 1.5377859e-38
0.026076192 -0.010571413 0.74000001 1.5570533e-38
0.027560001 -0.010599993 0.74200004 1.566124e-38
0.028973335 -0.010600001 0.74200004 1.2804241e-38
0.030427624 -0.010614283 0.74300003 9.9440665e-39
0.031842858 -0.010614283 0.74300003 7.9136411e-39
0.033437144 -0.010671414 0.74700004 5.8046827e-39
0.035093337 -0.010742843 0.75200009 6.4500731e-39
0.036525715 -0.010742843 0.75200009 7.0007162e-39
0.037958097 -0.010742851 0.75200009 6.6326455e-39
-0.039128575 -0.0092485696 0.74700004 8.3599294e-39
-0.037604768 -0.0092238039 0.74500012 8.3584987e-39
-0.036185719 -0.0092238039 0.74500012 8.7251274e-39
-0.034673337 -0.0091990456 0.74300003 9.0921289e-39
-0.033258099 -0.0091990381 0.74300003 1.058555e-38
-0.031714287 -0.0091618896 0.74000001 1.1975972e-38
-0.030263809 -0.0091495141 0.73900002 8.9346131e-39
-0.028778099 -0.0091247484 0.73699999 5.8947035e-39
-0.027337145 -0.0091123655 0.73600006 3.3111015e-39
-0.02593524 -0.009112373 0.73600006 7.3613852e-40
-0.024533335 -0.0091123804 0.73600006 2.114764e-39
-0.02313143 -0.0091123655 0.73600006 3.4026161e-39
-0.021729525 -0.0091123581 0.73600006 3.954348e-39
-0.02027238 -0.0090876147 0.73400003 4.5024953e-39
