# .PCD v0.7 - Point Cloud Data file format
VERSION 0.7
FIELDS x y z rgb
SIZE 4 4 4 4
TYPE F F F F
COUNT 1 1 1 1
WIDTH 969
HEIGHT 1
VIEWPOINT 0 0 0 1 0 0 0
POINTS 969
DATA ascii
0.036720011 0.016560011 0.7560001 4.70014e-39
0.038361922 0.016647637 0.76000005 4.7933936e-39
0.039809536 0.016647629 0.76000011 4.7962593e-39
0.041311461 0.016669527 0.7610001 4.7948188e-39
0.042873342 0.016713351 0.76300001 4.8884563e-39
0.044326682 0.016713351 0.76300001 4.5175354e-39
-0.033660963 0.017904758 0.75200009 1.1349378e-38
-0.032142855 0.017857149 0.75000006 1.3538305e-38
-0.030714259 0.017857149 0.75000012 1.0015136e-38
-0.029285688 0.017857149 0.75000012 6.4461089e-39
-0.027782865 0.017809547 0.74800003 9.8616001e-39
-0.026358109 0.017809547 0.74800003 1.3163009e-38
-0.024933346 0.01780954 0.74800003 8.7466472e-39
-0.02347713 0.017785735 0.74700004 4.3267108e-39
-0.022054249 0.017785721 0.7470001 5.3268609e-39
-0.020631418 0.017785728 0.7470001 6.2743125e-39
-0.01915713 0.017738111 0.74500012 9.8731552e-39
-0.01769048 0.017690487 0.74300003 1.3436392e-38
-0.01627522 0.017690495 0.74300003 1.3136081e-38
-0.014839981 0.017666683 0.74200004 1.2858067e-38
-0.013390452 0.017619051 0.74000001 1.313286e-38
-0.011964764 0.017595254 0.73900002 1.3408359e-38
-0.010557149 0.017595246 0.73900002 1.3683859e-38
-0.0091495346 0.017595246 0.73900002 1.386753e-38
-0.0077418918 0.017595246 0.73900002 1.3959365e-38
-0.0063342759 0.017595254 0.73900002 1.4051201e-38
-0.004926662 0.017595261 0.73900002 1.3867531e-38
-0.0035190461 0.017595254 0.73900002 1.3683856e-38
-0.0021057045 0.017547637 0.73700005 1.4051194e-38
-0.00070189865 0.017547637 0.73700005 1.4326709e-38
0.00070192112 0.017547637 0.73700005 1.4418554e-38
0.0021057259 0.01754763 0.73700005 1.4510384e-38
0.0035095317 0.017547645 0.73700005 1.4694049e-38
0.0049133589 0.017547645 0.73700011 1.4877727e-38
0.0063171647 0.01754763 0.73700011 1.5061407e-38
0.0077209715 0.01754763 0.73700011 1.5245069e-38
0.0091247754 0.01754763 0.73700011 1.5245062e-38
0.010557158 0.017595246 0.73900008 1.5245072e-38
0.011980969 0.017619066 0.74000001 1.5061411e-38
0.01339049 0.017619058 0.74000001 1.478589e-38
0.014800009 0.017619066 0.74000001 1.469404e-38
0.016253341 0.017666675 0.74200004 1.4602229e-38
0.017666683 0.017666683 0.74200004 1.4510418e-38
0.019080013 0.017666683 0.7420001 1.4424311e-38
0.020520965 0.017690487 0.74300009 1.4877736e-38
0.021936212 0.017690487 0.74300009 1.5260144e-38
0.02341431 0.017738104 0.74500006 1.5992316e-38
0.024833348 0.017738119 0.74500006 1.674139e-38
0.026322873 0.017785721 0.7470001 1.759055e-38
0.027745754 0.017785721 0.7470001 1.8405189e-38
0.029207613 0.017809547 0.74800003 1.7398546e-38
0.030796189 0.017904781 0.75200003 1.6287548e-38
0.032271445 0.017928578 0.75300002 1.3336256e-38
0.033795271 0.017976202 0.75500005 1.0387118e-38
0.035233371 0.017976202 0.75500005 7.1671372e-39
0.036817148 0.018047631 0.75800008 3.9622134e-39
0.038361918 0.018095247 0.76000005 4.0558356e-39
0.039861929 0.018119052 0.76100004 4.0558328e-39
0.04131145 0.01811906 0.7610001 4.1476655e-39
0.042873338 0.018166676 0.76300001 4.1487459e-39
0.044326682 0.018166684 0.76300001 4.0554797e-39
-0.033839978 0.019440018 0.7560001 1.1619486e-38
-0.032228559 0.019337147 0.75200009 1.4012204e-38
-0.030796178 0.019337155 0.75200009 1.0406557e-38
-0.029285703 0.019285724 0.75000012 6.73312e-39
-0.027857129 0.019285716 0.75000012 1.0323656e-38
-0.026358124 0.019234307 0.74800003 1.4004973e-38
-0.024933338 0.019234292 0.74800009 1.0961493e-38
-0.023508575 0.019234307 0.74800003 7.9169384e-39
-0.022054281 0.019208588 0.7470001 8.1953203e-39
-0.020631403 0.019208573 0.7470001 8.4833516e-39
-0.019157114 0.019157164 0.74500012 1.09679e-38
-0.01769047 0.019105725 0.74300009 1.3444598e-38
-0.016275208 0.019105725 0.74300009 1.3144708e-38
-0.01484001 0.019080028 0.74200004 1.2857358e-38
-0.013390459 0.019028582 0.74000001 1.3132859e-38
-0.01198094 0.019028589 0.74000001 1.3500199e-38
-0.010557147 0.019002877 0.73900002 1.3683869e-38
-0.0091495309 0.019002862 0.73900002 1.386754e-38
-0.0077419165 0.019002877 0.73900002 1.3959374e-38
-0.0063342741 0.01900287 0.73900002 1.4051212e-38
-0.0049266582 0.01900287 0.73900002 1.4143049e-38
-0.0035190443 0.019002877 0.73900002 1.4143041e-38
-0.0021114284 0.01900287 0.73900002 1.4234866e-38
-0.00070188841 0.018951438 0.73700011 1.4418555e-38
0.00070191739 0.018951438 0.73700005 1.4418574e-38
0.0021057231 0.018951438 0.73700005 1.4510398e-38
0.0035095289 0.018951453 0.73700005 1.4694058e-38
0.0049133347 0.018951446 0.73700005 1.4877743e-38
0.0063171545 0.018951453 0.73700005 1.5061428e-38
0.0077209808 0.018951431 0.73700011 1.5336912e-38
0.0091247875 0.018951438 0.73700011 1.552307e-38
0.010557148 0.019002877 0.73900008 1.5704231e-38
0.011980982 0.019028589 0.74000007 1.5802167e-38
0.013390481 0.019028589 0.74000001 1.5887902e-38
0.014800016 0.019028597 0.74000001 1.5887901e-38
0.016253348 0.019080013 0.7420001 1.5979755e-38
0.017666668 0.019080028 0.74200004 1.6365769e-38
0.019080013 0.019080013 0.74200004 1.6737399e-38
0.020520974 0.019105725 0.74300009 1.7114767e-38
0.021936201 0.019105732 0.74300003 1.7404986e-38
0.02335145 0.019105725 0.74300003 1.7027962e-38
0.02483335 0.019157156 0.74500006 1.6667857e-38
0.026252408 0.019157164 0.74500006 1.693912e-38
0.027745735 0.019208573 0.7470001 1.7205249e-38
0.029207619 0.019234285 0.74800009 1.5729731e-38
0.030796193 0.019337155 0.75200003 1.4354694e-38
0.032271437 0.019362859 0.75300002 1.2685497e-38
0.03379526 0.019414298 0.75500005 1.102062e-38
0.03523336 0.019414306 0.75500005 9.6552841e-39
0.036720015 0.019440018 0.7560001 8.373892e-39
0.038361914 0.019542873 0.76000005 8.4689561e-39
0.039861914 0.019568585 0.76100004 8.5496709e-39
0.041311454 0.01956857 0.76100004 8.6519096e-39
0.042873353 0.019620009 0.76300001 8.8298409e-39
0.044442892 0.019671448 0.7650001 8.5625852e-39
-0.038260959 0.020935245 0.75800002 8.5665775e-39
-0.036817148 0.020935252 0.75800008 8.9457717e-39
-0.035466649 0.020990491 0.76000005 9.3156696e-39
-0.033839982 0.020880006 0.7560001 1.1896078e-38
-0.032357119 0.02085238 0.75500011 1.4465304e-38
-0.030796185 0.020769529 0.75200009 1.0773574e-38
-0.029363804 0.020769536 0.75200009 7.0082874e-39
-0.027857117 0.020714298 0.75000012 1.087862e-38
-0.026428547 0.02071429 0.75000012 1.4739303e-38
-0.024933353 0.020659059 0.74800003 1.3176669e-38
-0.02350859 0.020659052 0.74800003 1.1512498e-38
-0.022054257 0.02063144 0.74700004 1.1145146e-38
-0.020631406 0.02063144 0.7470001 1.0685594e-38
-0.019157125 0.020576201 0.74500012 1.2069927e-38
-0.017690482 0.020520963 0.74300003 1.3345946e-38
-0.01627522 0.02052097 0.74300003 1.3141118e-38
-0.014839988 0.020493343 0.74200004 1.2859503e-38
-0.013390466 0.020438112 0.74000001 1.3224683e-38
-0.011980946 0.020438112 0.74000001 1.3500189e-38
-0.010557143 0.020410493 0.73900002 1.3683862e-38
-0.0091495281 0.020410493 0.73900002 1.3867531e-38
-0.0077419127 0.020410486 0.73900002 1.3959365e-38
-0.0063342983 0.020410493 0.73900002 1.4051206e-38
-0.0049266545 0.0204105 0.73900002 1.432672e-38
-0.0035190396 0.020410493 0.73900002 1.4602224e-38
-0.0021114256 0.020410493 0.73900002 1.4510384e-38
-0.00070189306 0.020355254 0.73700011 1.4418555e-38
0.00070192764 0.020355247 0.73700011 1.4510399e-38
0.0021057334 0.020355254 0.73700005 1.4510388e-38
0.0035095382 0.020355262 0.73700005 1.4694049e-38
0.004913344 0.020355254 0.73700005 1.4790555e-38
0.0063171498 0.020355254 0.73700005 1.5153241e-38
0.0077209566 0.020355254 0.73700005 1.544058e-38
0.0091247829 0.020355247 0.73700011 1.5806481e-38
0.010557151 0.020410493 0.73900002 1.6183512e-38
0.011980977 0.020438097 0.74000007 1.6646638e-38
0.013390496 0.020438105 0.74000007 1.70068e-38
0.014800029 0.020438112 0.74000007 1.7173604e-38
0.01620955 0.020438097 0.74000007 1.7290947e-38
0.017666679 0.020493343 0.74200004 1.8235887e-38
0.01908002 0.020493351 0.74200004 1.9057352e-38
0.020493347 0.020493336 0.7420001 1.9346458e-38
0.021936214 0.020520963 0.74300003 1.951936e-38
0.023351446 0.020520955 0.74300009 1.8047117e-38
0.024833351 0.020576201 0.74500006 1.6476274e-38
0.026322884 0.020631433 0.7470001 1.6201174e-38
0.027745731 0.02063144 0.7470001 1.5905917e-38
0.029207619 0.020659059 0.74800003 1.4143446e-38
0.030796198 0.020769529 0.75200003 1.2405358e-38
0.032271449 0.020797156 0.75300002 1.203081e-38
0.033795271 0.020852402 0.75500011 1.1582788e-38
0.035233364 0.020852387 0.75500011 1.224289e-38
0.03672003 0.020879999 0.7560001 1.2802523e-38
0.038361918 0.020990506 0.76000005 1.2896164e-38
0.03986194 0.02101811 0.7610001 1.2986913e-38
0.041311454 0.02101811 0.76100004 1.3263845e-38
0.042873334 0.021073356 0.76300001 1.3540422e-38
0.044326697 0.021073341 0.76300001 1.3080882e-38
-0.038260952 0.022379056 0.75800008 8.2939563e-39
-0.036914282 0.022438116 0.76000005 8.9433166e-39
-0.035466664 0.022438116 0.76000005 9.6798167e-39
-0.033840001 0.02232001 0.7560001 1.1896086e-38
-0.032357104 0.022290498 0.75500011 1.4199504e-38
-0.030796194 0.022201911 0.75200009 9.9510324e-39
-0.029363813 0.022201918 0.75200009 5.7093356e-39
-0.027857125 0.02214288 0.75000006 8.3879456e-39
-0.02642856 0.022142857 0.75000012 1.1070908e-38
-0.024999987 0.022142865 0.75000012 9.5871936e-39
-0.023508586 0.022083811 0.74800003 8.2089171e-39
-0.022083821 0.022083826 0.74800003 7.8293516e-39
-0.02063141 0.022054292 0.7470001 7.5545626e-39
-0.019157127 0.021995269 0.74500006 1.050406e-38
-0.017738085 0.021995246 0.74500006 1.3442086e-38
-0.016275238 0.021936208 0.74300009 1.3146137e-38
-0.014859976 0.021936201 0.74300009 1.2858061e-38
-0.013426661 0.021906674 0.74200004 1.3133195e-38
-0.012013332 0.021906674 0.74200004 1.3500181e-38
-0.010571406 0.021847636 0.74000001 1.3683853e-38
-0.0091618868 0.021847643 0.74000001 1.3959358e-38
-0.0077523668 0.021847636 0.74000001 1.3959356e-38
-0.0063428469 0.021847643 0.74000001 1.4051202e-38
-0.0049333274 0.021847628 0.74000001 1.4234884e-38
-0.00352378 0.021847628 0.74000001 1.4510394e-38
-0.0021057092 0.021759063 0.73700005 1.441856e-38
-0.00070188189 0.021759063 0.73700011 1.4418557e-38
0.00070192391 0.021759063 0.73700011 1.4418553e-38
0.0021057306 0.02175907 0.73700011 1.4418543e-38
0.0035095345 0.021759056 0.73700011 1.5348367e-38
0.0049266675 0.021818109 0.73900002 1.6365733e-38
0.0063342825 0.021818116 0.73900002 1.6740967e-38
0.0077419113 0.021818109 0.73900002 1.7210201e-38
0.0091495262 0.021818116 0.73900002 1.7392807e-38
0.01057145 0.021847636 0.74000001 1.7678364e-38
0.011980969 0.021847628 0.74000001 1.7579358e-38
0.013390502 0.021847628 0.74000001 1.7492533e-38
0.014840011 0.021906689 0.74200004 1.7021507e-38
0.016253356 0.021906681 0.74200004 1.667216e-38
0.017666664 0.021906689 0.74200004 1.7034537e-38
0.019080006 0.021906681 0.74200004 1.7501919e-38
0.020520976 0.021936201 0.74300003 1.7585098e-38
0.021936208 0.021936201 0.74300009 1.7677275e-38
0.023351435 0.021936201 0.74300003 1.684177e-38
0.024833357 0.021995254 0.74500006 1.6090258e-38
0.0262524 0.021995246 0.74500006 1.5814425e-38
0.027782857 0.022083811 0.74800003 1.5614265e-38
0.029207608 0.022083826 0.74800003 1.4051998e-38
0.03063239 0.022083819 0.74800003 1.2582585e-38
0.032271445 0.02223143 0.75300002 1.212695e-38
0.03379526 0.022290491 0.75500005 1.1680039e-38
0.035280023 0.022320017 0.7560001 1.3263193e-38
0.036817141 0.022379048 0.75800002 1.4941725e-38
0.038361914 0.022438116 0.76000005 1.5027483e-38
0.039861925 0.022467628 0.7610001 1.5217591e-38
0.041311443 0.022467636 0.76100004 1.5488415e-38
0.042873349 0.022526674 0.76300001 1.5773238e-38
0.0444429 0.02258572 0.7650001 1.5489112e-38
-0.038361896 0.023885727 0.76000011 7.9219606e-39
-0.036914296 0.023885727 0.76000005 8.9451257e-39
-0.035513315 0.023917153 0.76100004 9.9585616e-39
-0.033929538 0.023822866 0.75800002 1.1992591e-38
-0.032399997 0.023760013 0.75600004 1.3913567e-38
-0.030837122 0.023665726 0.75300008 9.1215828e-39
-0.02936382 0.023634292 0.75200009 4.3324757e-39
-0.02785714 0.023571432 0.75000012 5.893291e-39
-0.026428565 0.023571454 0.75000012 7.3709098e-39
-0.024999972 0.023571432 0.75000012 6.0758872e-39
-0.023508571 0.023508586 0.74800003 4.7884078e-39
-0.022083815 0.023508586 0.74800009 4.5921924e-39
-0.020631414 0.023477159 0.7470001 4.3378371e-39
-0.019157138 0.023414306 0.74500006 8.9496869e-39
-0.017738068 0.023414291 0.74500006 1.3530708e-38
-0.016275227 0.023351438 0.74300009 1.3142928e-38
-0.014859987 0.023351438 0.74300003 1.2768392e-38
-0.013444754 0.023351446 0.74300009 1.3132846e-38
-0.012013331 0.023320019 0.74200004 1.3500185e-38
-0.010571392 0.023257151 0.74000007 1.3775689e-38
-0.0091618728 0.023257144 0.74000007 1.3959361e-38
-0.0077523738 0.023257159 0.74000001 1.4051197e-38
-0.0063428544 0.023257166 0.74000001 1.4051208e-38
-0.0049333349 0.023257151 0.74000001 1.423489e-38
-0.0035237875 0.023257159 0.74000001 1.4326724e-38
-0.002105712 0.023162879 0.73700005 1.4418558e-38
-0.00070189213 0.023162864 0.73700005 1.4418553e-38
0.00070193416 0.023162872 0.73700011 1.4418547e-38
0.0021057399 0.023162857 0.73700011 1.433353e-38
0.0035095466 0.023162872 0.73700011 1.6098498e-38
0.0049266694 0.02322574 0.73900002 1.7852702e-38
0.0063342853 0.023225725 0.73900002 1.8418786e-38
0.0077419002 0.023225732 0.73900002 1.8873663e-38
0.0091619091 0.023257159 0.74000001 1.9059489e-38
0.010571443 0.023257159 0.74000001 1.9146653e-38
0.011980961 0.023257159 0.74000001 1.8591325e-38
0.013390496 0.023257159 0.74000001 1.7942399e-38
0.014839998 0.023320019 0.74200004 1.6931154e-38
0.016253341 0.023320019 0.74200004 1.5915961e-38
0.017666683 0.023320012 0.74200004 1.5912034e-38
0.019080009 0.023320012 0.74200004 1.5824139e-38
0.02052095 0.023351438 0.74300003 1.581409e-38
0.021936199 0.023351446 0.74300003 1.5735514e-38
0.023414321 0.023414291 0.74500012 1.5736576e-38
0.024833344 0.023414306 0.74500006 1.5727623e-38
0.02635809 0.023508586 0.74800003 1.5534998e-38
0.027782856 0.023508586 0.74800003 1.5250525e-38
0.029285744 0.023571432 0.75000012 1.3959447e-38
0.030796198 0.023634292 0.75200009 1.2680888e-38
0.032357164 0.023728587 0.75500005 1.2214498e-38
0.033795264 0.023728579 0.75500005 1.1678978e-38
0.035280019 0.023759991 0.7560001 1.4372048e-38
0.036817145 0.023822866 0.75800002 1.7049289e-38
0.038412407 0.023917153 0.76100004 1.7238003e-38
0.039966676 0.023980021 0.76300001 1.7329115e-38
0.04142002 0.023980007 0.76300001 1.7606769e-38
0.042985748 0.024042875 0.7650001 1.788334e-38
0.044442885 0.024042867 0.76500005 1.7976241e-38
-0.038260959 0.025266677 0.75800002 5.2490539e-39
-0.036817152 0.025266677 0.75800002 6.9114871e-39
-0.035466667 0.025333345 0.76000005 8.5742244e-39
-0.033929534 0.02526667 0.75800008 1.0145484e-38
-0.032399997 0.025200017 0.7560001 1.1707695e-38
-0.030919012 0.025166675 0.75500011 7.9186928e-39
-0.0293638 0.025066674 0.75200009 4.1358455e-39
-0.027931418 0.025066681 0.75200009 6.2591672e-39
-0.026499067 0.025066674 0.75200009 8.3720997e-39
-0.024933349 0.024933338 0.74800003 7.9075398e-39
-0.023477107 0.024899997 0.7470001 7.4394431e-39
-0.02208383 0.024933346 0.74800003 7.7271955e-39
-0.020631418 0.024900012 0.74700004 8.0102088e-39
-0.019157123 0.024833344 0.74500006 1.0594489e-38
-0.01773808 0.024833351 0.74500006 1.316984e-38
-0.016275238 0.024766691 0.74300003 1.3058286e-38
-0.014859977 0.024766676 0.74300003 1.2857372e-38
-0.013444744 0.024766676 0.74300009 1.322469e-38
-0.012029532 0.024766676 0.74300003 1.3500189e-38
-0.0105714 0.024666674 0.74000001 1.3683853e-38
-0.0091618802 0.024666689 0.74000007 1.3867528e-38
-0.0077523598 0.024666674 0.74000007 1.3959367e-38
-0.0063428404 0.024666682 0.74000007 1.4051213e-38
-0.0049333135 0.024666682 0.74000001 1.4234896e-38
-0.003523794 0.024666682 0.74000001 1.4326727e-38
-0.0021057017 0.024566688 0.73700005 1.4234886e-38
-0.00070189493 0.024566688 0.73700005 1.4234879e-38
0.00070190994 0.024566688 0.73700005 1.4418541e-38
0.0021057166 0.02456668 0.73700005 1.4602229e-38
0.0035095429 0.024566673 0.73700011 1.5727229e-38
0.0049266601 0.024633348 0.73900002 1.6946569e-38
0.006334288 0.024633348 0.73900002 1.7032313e-38
0.0077419039 0.024633348 0.73900002 1.7132037e-38
0.0091619371 0.024666682 0.74000007 1.7117323e-38
0.010571457 0.024666682 0.74000007 1.721667e-38
0.011980956 0.024666682 0.74000001 1.6740249e-38
0.013390489 0.024666689 0.74000001 1.6366145e-38
0.014840018 0.024733357 0.74200004 1.6179656e-38
0.016253347 0.02473335 0.7420001 1.5984846e-38
0.017666688 0.024733342 0.7420001 1.5904111e-38
0.019105727 0.024766684 0.74300003 1.581339e-38
0.020520959 0.024766676 0.74300003 1.5633344e-38
0.021995258 0.024833344 0.74500006 1.5550824e-38
0.023477163 0.024900019 0.74700004 1.5637268e-38
0.024933329 0.024933346 0.74800003 1.5731611e-38
0.02635809 0.024933353 0.74800003 1.5907387e-38
0.027782861 0.024933346 0.74800009 1.6076339e-38
0.029285721 0.025000013 0.75000012 1.56315e-38
0.030837169 0.0251 0.75300008 1.518162e-38
0.032357175 0.025166668 0.75500011 1.3323715e-38
0.033795271 0.025166683 0.75500011 1.138806e-38
0.035280012 0.025200009 0.7560001 1.3904273e-38
0.036817152 0.02526667 0.75800008 1.6410756e-38
0.038361911 0.025333345 0.76000005 1.6593371e-38
0.039861929 0.025366694 0.76100004 1.6774539e-38
0.041311454 0.025366671 0.7610001 1.6960371e-38
0.042760968 0.025366671 0.76100004 1.7145823e-38
0.044210508 0.025366679 0.76100004 1.7237287e-38
-0.0383619 0.026780955 0.76000005 2.490738e-39
-0.036817145 0.02671048 0.75800002 4.78558e-39
-0.035606656 0.026886679 0.76300001 7.0951146e-39
-0.033839971 0.026640005 0.7560001 8.3072883e-39
-0.03239999 0.026640005 0.75600004 9.390981e-39
-0.030919023 0.026604772 0.75500011 6.6172242e-39
-0.029363807 0.026499063 0.75200009 3.8675193e-39
-0.027931426 0.026499055 0.75200009 6.6358363e-39
-0.026428541 0.02642858 0.75000012 9.2915435e-39
-0.024999969 0.02642858 0.75000012 9.6513633e-39
-0.023508579 0.026358105 0.74800003 1.0025535e-38
-0.022083815 0.02635812 0.74800003 1.0867135e-38
-0.020631403 0.026322864 0.7470001 1.1691846e-38
-0.019157132 0.026252396 0.74500006 1.2247508e-38
-0.017738089 0.026252396 0.74500006 1.2797092e-38
-0.016275229 0.026181921 0.74300009 1.287853e-38
-0.014899998 0.026252404 0.74500006 1.2955287e-38
-0.013444754 0.026181921 0.74300003 1.3224683e-38
-0.012029521 0.026181921 0.74300003 1.3500185e-38
-0.01060001 0.02614668 0.74200004 1.3683852e-38
-0.0091618868 0.026076198 0.74000001 1.3775693e-38
-0.0077523678 0.026076198 0.74000001 1.395937e-38
-0.0063428488 0.026076198 0.74000007 1.4051208e-38
-0.0049333004 0.026076205 0.74000007 1.4234883e-38
-0.003523781 0.02607619 0.74000007 1.4326717e-38
-0.0021057045 0.025970481 0.73700011 1.4143043e-38
-0.00070188561 0.025970496 0.73700005 1.3959371e-38
0.00070380518 0.026040971 0.73900002 1.4418547e-38
0.0021057259 0.025970496 0.73700005 1.4789858e-38
0.003519048 0.026040971 0.73900002 1.5444567e-38
0.0049266638 0.026040979 0.73900002 1.6000602e-38
0.0063428758 0.026076213 0.74000001 1.572366e-38
0.0077523962 0.026076198 0.74000001 1.5354511e-38
0.0091619287 0.026076213 0.74000001 1.5245083e-38
0.010571448 0.026076198 0.74000007 1.5164013e-38
0.011980983 0.026076198 0.74000007 1.4969941e-38
0.013426682 0.026146673 0.7420001 1.4700921e-38
0.014840003 0.026146695 0.74200004 1.5344517e-38
0.016253334 0.026146688 0.74200004 1.5990948e-38
0.017690476 0.026181921 0.74300003 1.5905926e-38
0.019105723 0.026181906 0.74300003 1.581376e-38
0.02052097 0.026181921 0.74300009 1.553864e-38
0.021995258 0.026252396 0.74500006 1.5263124e-38
0.023477182 0.026322857 0.7470001 1.5437818e-38
0.024900025 0.026322871 0.7470001 1.5639815e-38
0.0263581 0.026358113 0.74800009 1.6286282e-38
0.027782846 0.026358113 0.74800003 1.6840875e-38
0.029285735 0.02642858 0.75000012 1.7308655e-38
0.03083718 0.026534289 0.75300008 1.7664106e-38
0.032357164 0.026604779 0.75500005 1.4418602e-38
0.03379526 0.026604772 0.75500005 1.1128709e-38
0.035280023 0.026639998 0.7560001 1.3446521e-38
0.036817156 0.02671048 0.75800008 1.5668535e-38
0.038361911 0.026780985 0.76000005 1.5949447e-38
0.039861917 0.026816204 0.76100004 1.622352e-38
0.04142002 0.026886679 0.76300001 1.6313565e-38
0.042873342 0.026886672 0.76300001 1.6407189e-38
-0.038513325 0.028340004 0.76300007 4.6929738e-39
-0.037059985 0.028340019 0.76300001 6.1669982e-39
-0.035513315 0.02826573 0.76100004 7.6317237e-39
-0.034063794 0.028265722 0.7610001 6.2592331e-39
-0.032485735 0.028154299 0.75800002 4.8702156e-39
-0.030919034 0.028042868 0.75500005 4.4124675e-39
-0.029402833 0.027968585 0.75300002 3.9582856e-39
-0.027931435 0.027931452 0.75200009 4.6968876e-39
-0.026499053 0.027931444 0.75200009 5.434824e-39
-0.025000006 0.027857155 0.75000006 8.097001e-39
-0.023571413 0.027857147 0.75000012 1.0765949e-38
-0.02208381 0.027782865 0.74800003 1.1140802e-38
-0.020659046 0.02778288 0.74800003 1.1601054e-38
-0.019208547 0.027745731 0.74700004 1.2153499e-38
-0.017738074 0.027671456 0.74500006 1.270846e-38
-0.016319051 0.027671441 0.74500006 1.2878858e-38
-0.014899981 0.027671456 0.74500006 1.3043875e-38
-0.013444744 0.027597159 0.74300003 1.3409064e-38
-0.012029512 0.027597144 0.74300009 1.3775687e-38
-0.010599989 0.027560011 0.74200004 1.3775685e-38
-0.0091618933 0.027485728 0.74000001 1.3775693e-38
-0.0077523747 0.027485728 0.74000001 1.3867535e-38
-0.0063428544 0.027485721 0.74000001 1.4051204e-38
-0.0049333069 0.027485728 0.74000001 1.423487e-38
-0.0035237884 0.027485721 0.74000001 1.4418543e-38
-0.0021114359 0.027448587 0.73900002 1.4326707e-38
-0.0007038209 0.027448595 0.73900002 1.4326713e-38
0.00070380798 0.027448602 0.73900002 1.4510388e-38
0.0021114228 0.027448595 0.73900002 1.4785924e-38
0.0035190377 0.027448595 0.73900002 1.5065405e-38
0.0049333358 0.027485736 0.74000001 1.5428794e-38
0.0063428711 0.027485728 0.74000001 1.5066465e-38
0.0077523887 0.027485728 0.74000001 1.4785914e-38
0.0091619231 0.027485736 0.74000001 1.4877726e-38
0.010600018 0.027560018 0.7420001 1.4969589e-38
0.012013339 0.027560018 0.74200004 1.5153288e-38
0.013426668 0.027560025 0.74200004 1.5336966e-38
0.014840011 0.027560011 0.74200004 1.5809423e-38
0.016253354 0.027560018 0.74200004 1.6269689e-38
0.017690485 0.027597159 0.74300003 1.6180735e-38
0.019105732 0.027597159 0.74300009 1.6180037e-38
0.020520959 0.027597159 0.74300003 1.6093242e-38
0.021995265 0.027671449 0.74500006 1.5994942e-38
0.023414297 0.027671449 0.74500006 1.6557785e-38
0.024900019 0.027745724 0.74700004 1.7215766e-38
0.026358098 0.027782857 0.74800003 1.6943552e-38
0.027782846 0.02778288 0.74800003 1.6773152e-38
0.02936382 0.027931437 0.75200009 1.6300698e-38
0.030837176 0.027968585 0.75300008 1.5848979e-38
0.032357164 0.028042875 0.75500005 1.4077122e-38
0.033795264 0.028042875 0.75500005 1.2240432e-38
0.035280015 0.028080016 0.7560001 1.3724169e-38
0.036817145 0.028154299 0.75800002 1.5213658e-38
0.038361911 0.028228596 0.76000005 1.6042002e-38
0.03986194 0.028265722 0.7610001 1.6957841e-38
0.041420013 0.028340004 0.76300001 1.6773447e-38
0.042873356 0.028340019 0.76300001 1.6588344e-38
-0.038513344 0.029793359 0.76300001 6.8152473e-39
-0.037060004 0.029793359 0.76300001 7.4663438e-39
-0.035606675 0.029793359 0.76300001 8.0998639e-39
-0.034063794 0.02971524 0.7610001 4.2280622e-39
-0.032485727 0.029598095 0.75800008 2.7733658e-40
-0.030919025 0.029480956 0.75500011 2.2044415e-39
-0.029402856 0.029402867 0.75300008 4.0447359e-39
-0.027931415 0.029363818 0.75200009 2.8497955e-39
-0.026499033 0.029363818 0.75200009 1.5705571e-39
-0.024899978 0.029168576 0.7470001 6.5361325e-39
-0.023477118 0.029168598 0.7470001 1.1409166e-38
-0.022083823 0.029207639 0.74800003 1.1512852e-38
-0.02063141 0.029168583 0.7470001 1.1508536e-38
-0.01920853 0.029168576 0.7470001 1.2057027e-38
-0.017738085 0.029090479 0.74500006 1.2520855e-38
-0.016319035 0.029090501 0.74500006 1.2884239e-38
-0.014899992 0.029090486 0.74500006 1.3141095e-38
-0.013444735 0.029012397 0.74300009 1.3592386e-38
-0.012029522 0.029012397 0.74300003 1.3959365e-38
-0.010614289 0.029012389 0.74300003 1.3867527e-38
-0.0091866609 0.028973341 0.74200004 1.3683863e-38
-0.0077733328 0.028973348 0.74200004 1.3867541e-38
-0.0063599767 0.028973341 0.74200004 1.4051206e-38
-0.0049466686 0.028973356 0.74200004 1.423487e-38
-0.0035237959 0.028895244 0.74000001 1.441854e-38
-0.0021114256 0.028856203 0.73900008 1.4510376e-38
-0.00070379669 0.028856203 0.73900008 1.4602217e-38
0.00070381822 0.028856196 0.73900008 1.4694059e-38
0.0021114126 0.02885621 0.73900002 1.478592e-38
0.0035190415 0.028856203 0.73900002 1.4785945e-38
0.0049266564 0.028856218 0.73900002 1.4785934e-38
0.0063428832 0.028895251 0.74000007 1.4510418e-38
0.0077523952 0.028895259 0.74000001 1.4238159e-38
0.0091619156 0.028895266 0.74000001 1.4510458e-38
0.010600003 0.028973348 0.74200004 1.4702021e-38
0.012013345 0.028973348 0.74200004 1.5336979e-38
0.013426689 0.028973341 0.74200004 1.5999575e-38
0.014839998 0.028973363 0.74200004 1.6286938e-38
0.016275249 0.029012382 0.74300003 1.646453e-38
0.017690495 0.029012389 0.74300009 1.6459528e-38
0.019105723 0.029012389 0.74300003 1.6464555e-38
0.020520967 0.029012397 0.74300003 1.665971e-38
0.021995265 0.029090501 0.74500006 1.6747959e-38
0.023414303 0.029090486 0.74500006 1.7766043e-38
0.024900038 0.029168583 0.7470001 1.8687286e-38
0.026358083 0.029207639 0.74800003 1.7682136e-38
0.027782865 0.029207639 0.74800003 1.6656488e-38
0.029363826 0.029363818 0.75200009 1.5362867e-38
0.030837169 0.02940286 0.75300008 1.3989968e-38
0.032357175 0.029480971 0.75500011 1.3707977e-38
0.033795271 0.029480964 0.75500011 1.334496e-38
0.03528003 0.029520005 0.7560001 1.3996081e-38
0.036817148 0.029598117 0.75800002 1.4657267e-38
0.038361907 0.029676214 0.76000005 1.6139234e-38
0.039861929 0.02971524 0.7610001 1.7602491e-38
0.041311447 0.029715255 0.76100004 1.7141866e-38
0.042873338 0.029793344 0.76300001 1.6681619e-38
-0.038513336 0.031246684 0.76300001 8.7491863e-39
-0.036962841 0.031164765 0.7610001 8.7538513e-39
-0.035513312 0.03116478 0.76100004 8.7574148e-39
-0.034019053 0.031123832 0.76000005 5.2464755e-39
-0.032485723 0.031041913 0.75800008 1.8370771e-39
-0.030919038 0.03091906 0.75500011 3.1277893e-39
-0.029402845 0.030837156 0.75300002 4.5035505e-39
-0.027968559 0.030837163 0.75300002 2.8505325e-39
-0.02649904 0.030796207 0.75200009 1.2871571e-39
-0.024899982 0.030591436 0.7470001 4.2330466e-39
-0.023477124 0.030591451 0.74700004 7.1790034e-39
-0.022142861 0.030714296 0.75000012 8.4715625e-39
-0.020631414 0.030591443 0.74700004 9.7611859e-39
-0.019157138 0.030509546 0.74500006 1.1414921e-38
-0.017738067 0.030509539 0.74500006 1.2983992e-38
-0.016319046 0.030509546 0.74500006 1.3063605e-38
-0.014899976 0.030509539 0.74500006 1.3226838e-38
-0.013480933 0.030509539 0.74500012 1.3317247e-38
-0.012061883 0.030509546 0.74500006 1.3500196e-38
-0.010614278 0.030427627 0.74300009 1.3592026e-38
-0.0091990381 0.030427627 0.74300003 1.3683869e-38
-0.0077733332 0.030386686 0.74200004 1.3867547e-38
-0.0063600047 0.030386679 0.74200004 1.4143045e-38
-0.0049466481 0.030386686 0.74200004 1.423487e-38
-0.0035238015 0.030304775 0.74000001 1.4418539e-38
-0.0021114219 0.030263826 0.73900008 1.4510371e-38
-0.00070380693 0.030263811 0.73900008 1.4602215e-38
0.00070382195 0.030263834 0.73900008 1.4694059e-38
0.0021114368 0.030263819 0.73900008 1.4785916e-38
0.0035238229 0.030304775 0.74000001 1.4785937e-38
0.0049333563 0.030304775 0.74000001 1.4785924e-38
0.0063428758 0.030304767 0.74000007 1.5717897e-38
0.0077524101 0.030304767 0.74000007 1.6634881e-38
0.0091619287 0.030304775 0.74000007 1.6736107e-38
0.010600023 0.030386679 0.74200004 1.683796e-38
0.012013331 0.030386679 0.74200004 1.6928693e-38
0.013426675 0.030386679 0.74200004 1.7036701e-38
0.014860012 0.030427627 0.74300009 1.7032065e-38
0.016275257 0.030427627 0.74300009 1.702492e-38
0.017690485 0.030427642 0.74300003 1.665079e-38
0.019105719 0.030427635 0.74300003 1.6375633e-38
0.020520967 0.030427627 0.74300009 1.6281635e-38
0.021995269 0.030509531 0.74500006 1.6295277e-38
0.023414304 0.030509546 0.74500006 1.6470348e-38
0.024900034 0.030591436 0.7470001 1.6666188e-38
0.026358105 0.030632399 0.74800003 1.6279086e-38
0.027857181 0.030714288 0.75000012 1.5889441e-38
0.029363813 0.030796207 0.75200003 1.5358455e-38
0.030796198 0.0307962 0.75200009 1.4805668e-38
0.032271452 0.030837156 0.75300008 1.2974e-38
0.03379526 0.030919068 0.75500005 1.1231659e-38
0.035280019 0.030960001 0.7560001 1.2159721e-38
0.036720023 0.030960016 0.7560001 1.3004949e-38
0.038260963 0.03104192 0.75800008 1.3742917e-38
0.039861932 0.031164773 0.76100004 1.4569415e-38
0.041420009 0.031246684 0.76300001 1.4382853e-38
0.042985741 0.031328581 0.7650001 1.4293183e-38
-0.038513333 0.032700025 0.76300001 1.059092e-38
-0.036962841 0.032614291 0.76100004 9.9509693e-39
-0.035513289 0.032614291 0.7610001 9.30163e-39
-0.034019042 0.03257145 0.76000005 6.3474364e-39
-0.032400008 0.032400012 0.7560001 3.4086907e-39
-0.030919019 0.032357156 0.75500005 4.149106e-39
-0.029402863 0.032271445 0.75300002 4.8812985e-39
-0.027968556 0.03227143 0.75300008 2.9452393e-39
-0.026499048 0.032228582 0.75200009 1.0145275e-39
-0.024899986 0.032014303 0.7470001 2.0221928e-39
-0.02357142 0.032142863 0.75000012 2.9477378e-39
-0.02214285 0.03214287 0.75000012 5.5245281e-39
-0.02065907 0.032057151 0.74800003 8.0055116e-39
-0.019208567 0.032014295 0.7470001 1.0764871e-38
-0.017785687 0.032014281 0.7470001 1.3437777e-38
-0.016362829 0.032014303 0.7470001 1.3342702e-38
-0.014899987 0.031928591 0.74500006 1.3235818e-38
-0.013480917 0.031928577 0.74500012 1.3132878e-38
-0.012061894 0.031928591 0.74500006 1.2949193e-38
-0.010614289 0.031842873 0.74300003 1.3316522e-38
-0.0091990279 0.031842865 0.74300003 1.3683867e-38
-0.0077733118 0.031800017 0.74200004 1.3959378e-38
-0.0063599832 0.031800024 0.74200004 1.4143046e-38
-0.0049466752 0.031800017 0.74200004 1.4326714e-38
-0.0035333186 0.031800017 0.74200004 1.441855e-38
-0.0021114191 0.03167145 0.73900002 1.4510384e-38
-0.00070475502 0.031714298 0.74000001 1.4602221e-38
0.00070477749 0.031714305 0.74000001 1.4694058e-38
0.0021114396 0.031671442 0.73900008 1.47859e-38
0.0035238164 0.031714298 0.74000001 1.4785909e-38
0.0049333507 0.031714298 0.74000001 1.4704525e-38
0.0063428702 0.031714298 0.74000001 1.6848002e-38
0.0077524036 0.031714305 0.74000001 1.895773e-38
0.0091619231 0.03171429 0.74000001 1.8961339e-38
0.010571456 0.031714298 0.74000007 1.8959523e-38
0.012013338 0.031800017 0.74200004 1.8502477e-38
0.013426681 0.031800017 0.74200004 1.7950062e-38
0.014840024 0.031800017 0.7420001 1.777898e-38
0.016253332 0.031800024 0.74200004 1.7480496e-38
0.017690495 0.031842873 0.74300003 1.6834402e-38
0.019105729 0.031842858 0.74300009 1.6177549e-38
0.020520953 0.031842873 0.74300003 1.5979875e-38
0.021936201 0.03184288 0.74300003 1.5714401e-38
0.023414306 0.031928591 0.74500006 1.5153329e-38
0.02490003 0.032014295 0.7470001 1.4614521e-38
0.026358087 0.032057166 0.74800003 1.4877838e-38
0.027782839 0.032057159 0.74800003 1.5081912e-38
0.029363805 0.032228589 0.75200003 1.5376029e-38
0.030796204 0.032228582 0.75200009 1.5553617e-38
0.032271449 0.032271437 0.75300008 1.2334368e-38
0.033795249 0.032357164 0.75500005 9.1176465e-39
0.03523336 0.032357149 0.75500005 1.0222933e-38
0.03672003 0.032399997 0.7560001 1.1342229e-38
0.03826097 0.032485738 0.75800008 1.1441291e-38
0.039861932 0.032614306 0.76100004 1.1440558e-38
0.041528597 0.032785736 0.76500005 1.1711028e-38
0.043098111 0.03287144 0.76700002 1.1898291e-38
-0.038614277 0.034242876 0.7650001 9.490689e-39
-0.036962837 0.034063824 0.76100004 9.0261852e-39
-0.035466675 0.034019075 0.76000005 8.5691181e-39
-0.033929519 0.033929542 0.75800008 7.2708235e-39
-0.032399982 0.033840008 0.7560001 5.9851153e-39
-0.030919012 0.03379526 0.75500011 6.8195157e-39
-0.029402854 0.033705726 0.75300002 7.6514343e-39
-0.027931411 0.033660963 0.75200009 4.6962136e-39
-0.026499029 0.033660963 0.75200009 1.752447e-39
-0.025000002 0.033571437 0.75000012 2.2998643e-39
-0.023571428 0.033571452 0.75000012 2.8501458e-39
-0.022142835 0.03357143 0.75000012 5.6098588e-39
-0.020659035 0.033481918 0.74800009 8.3584679e-39
-0.019208543 0.033437163 0.74700004 1.1226175e-38
-0.017738061 0.033347644 0.74500012 1.4088505e-38
-0.01631904 0.033347636 0.74500006 1.371184e-38
-0.01489997 0.033347644 0.74500006 1.3424522e-38
-0.013480948 0.033347644 0.74500006 1.3320515e-38
-0.012061877 0.033347651 0.74500006 1.3224711e-38
-0.01061428 0.033258118 0.74300003 1.3500195e-38
-0.0091990456 0.033258103 0.74300009 1.3867538e-38
-0.0077733402 0.033213355 0.74200004 1.3959374e-38
-0.0063599842 0.033213362 0.74200004 1.4143049e-38
-0.0049466556 0.033213355 0.74200004 1.4326723e-38
-0.0035237959 0.033123821 0.74000007 1.4510395e-38
-0.0021142624 0.033123821 0.74000007 1.4602232e-38
-0.00070474291 0.033123814 0.74000007 1.4694062e-38
0.0007038145 0.033079065 0.73900002 1.4694055e-38
0.0021114293 0.033079058 0.73900002 1.4785885e-38
0.0035190582 0.033079065 0.73900002 1.4694044e-38
0.0049333423 0.033123814 0.74000001 1.4694157e-38
0.0063428758 0.033123821 0.74000001 1.6007231e-38
0.0077523952 0.033123828 0.74000001 1.7324836e-38
0.0091619147 0.033123821 0.74000001 1.7215044e-38
0.010571447 0.033123828 0.74000001 1.7219691e-38
0.012013339 0.033213362 0.74200004 1.674256e-38
0.013426667 0.033213347 0.74200004 1.6369516e-38
0.014860012 0.03325811 0.74300003 1.6092611e-38
0.016275257 0.033258118 0.74300003 1.580341e-38
0.017690491 0.033258103 0.74300009 1.5621468e-38
0.019105718 0.033258118 0.74300003 1.5520649e-38
0.020520967 0.033258103 0.74300003 1.5704303e-38
0.021995261 0.033347636 0.74500012 1.5887937e-38
0.023477167 0.033437155 0.7470001 1.5990498e-38
0.024900025 0.033437155 0.7470001 1.607628e-38
0.026358087 0.033481926 0.74800003 1.5727995e-38
0.027782857 0.033481911 0.74800003 1.5377845e-38
0.029363807 0.033660971 0.75200003 1.4553091e-38
0.030796191 0.033660971 0.75200003 1.3729454e-38
0.032271441 0.033705726 0.75300008 1.1870873e-38
0.03370573 0.033705719 0.75300008 1.0120661e-38
0.035233364 0.033795252 0.75500011 1.0963365e-38
0.036671463 0.03379526 0.75500011 1.1802129e-38
0.038160022 0.033840008 0.7560001 1.171321e-38
0.03996668 0.034153335 0.76300001 1.153025e-38
0.041637156 0.034332395 0.76700002 1.1435894e-38
0.043098111 0.034332395 0.76700002 1.1252938e-38
-0.038614269 0.035700001 0.7650001 8.2842691e-39
-0.037060015 0.03560669 0.76300001 8.0934627e-39
-0.035513312 0.035513349 0.76100004 7.8190002e-39
-0.033929534 0.035373352 0.75800002 8.1820066e-39
-0.032400005 0.035280004 0.7560001 8.562993e-39
-0.030919023 0.035233349 0.75500005 9.4924827e-39
-0.029402824 0.035140008 0.75300008 1.0311449e-38
-0.027968537 0.035140015 0.75300008 6.3442078e-39
-0.026499037 0.035093352 0.75200009 2.3927732e-39
-0.024999987 0.035000011 0.75000012 2.575012e-39
-0.023571415 0.035000019 0.75000012 2.7611787e-39
-0.022142842 0.035000019 0.75000006 5.7063578e-39
-0.020659048 0.034906685 0.74800003 8.6462063e-39
-0.019208554 0.034860007 0.7470001 1.1693314e-38
-0.017738072 0.034766681 0.74500012 1.4638496e-38
-0.016319023 0.034766696 0.74500006 1.4083886e-38
-0.014899981 0.034766696 0.74500006 1.3519257e-38
-0.013480932 0.034766696 0.74500006 1.3500259e-38
-0.012061888 0.034766674 0.74500006 1.3408387e-38
-0.010614269 0.034673348 0.74300009 1.3683857e-38
-0.0091990568 0.034673356 0.74300003 1.3959374e-38
-0.0077837962 0.034673348 0.74300003 1.4051218e-38
-0.0063685635 0.034673348 0.74300009 1.4143055e-38
-0.0049466547 0.034626678 0.74200004 1.4326728e-38
-0.0035333261 0.034626685 0.74200004 1.4510399e-38
-0.002114269 0.034533352 0.74000001 1.4602235e-38
-0.00070473546 0.034533344 0.74000001 1.4694062e-38
0.00070381822 0.034486681 0.73900002 1.4694055e-38
0.0021114331 0.034486681 0.73900002 1.4694062e-38
0.003519048 0.034486674 0.73900002 1.4694069e-38
0.0049333554 0.034533344 0.74000007 1.4604442e-38
0.0063428702 0.034533352 0.74000001 1.516197e-38
0.0077523896 0.034533359 0.74000001 1.5633687e-38
0.0091619221 0.034533344 0.74000001 1.5537892e-38
0.010571443 0.034533352 0.74000001 1.5352777e-38
0.012013345 0.034626678 0.74200004 1.5061478e-38
0.013426688 0.034626685 0.74200004 1.4791724e-38
0.01486002 0.034673348 0.74300009 1.4418655e-38
0.016275253 0.034673348 0.74300009 1.405309e-38
0.01769048 0.034673348 0.74300003 1.4510458e-38
0.019105727 0.034673348 0.74300003 1.4878165e-38
0.020576205 0.034766681 0.74500006 1.5428824e-38
0.021995243 0.034766696 0.74500006 1.6003121e-38
0.023508575 0.034906685 0.74800003 1.6845033e-38
0.024933327 0.034906693 0.74800003 1.757829e-38
0.026358094 0.034906678 0.74800003 1.6671782e-38
0.02785717 0.035000011 0.75000012 1.5656926e-38
0.029363815 0.035093345 0.75200003 1.3729457e-38
0.030796183 0.035093352 0.75200003 1.1785118e-38
0.032271452 0.035140015 0.75300008 1.1481979e-38
0.033705741 0.035140008 0.75300002 1.1138374e-38
0.035233371 0.035233364 0.75500005 1.1707744e-38
0.036671452 0.035233349 0.75500005 1.2260944e-38
0.038160019 0.035280026 0.75600004 1.1986547e-38
0.039966673 0.035606682 0.76300001 1.1618489e-38
0.041528616 0.035700008 0.7650001 1.1156801e-38
0.043098114 0.035793349 0.76700002 1.0606854e-38
0.04461715 0.035840005 0.76800007 1.0329544e-38
-0.038614258 0.037157156 0.7650001 5.3347685e-39
-0.037059981 0.037060015 0.76300001 6.6204878e-39
-0.035513312 0.036962867 0.76100004 7.9007828e-39
-0.033929531 0.036817141 0.75800002 9.5692262e-39
-0.032399982 0.036720015 0.7560001 1.1234501e-38
-0.030919034 0.036671437 0.75500005 1.1790933e-38
-0.029402843 0.036574297 0.75300008 1.2339736e-38
-0.027968556 0.036574289 0.75300008 7.9168669e-39
-0.026499044 0.036525719 0.75200009 3.4904817e-39
-0.024999995 0.036428586 0.75000012 2.6657699e-39
-0.023571402 0.036428586 0.75000012 1.9332244e-39
-0.022142829 0.036428593 0.75000012 3.5894779e-39
-0.020659063 0.036331445 0.74800003 5.3372936e-39
-0.019234281 0.03633143 0.74800003 8.1961022e-39
-0.017738076 0.036185741 0.74500006 1.1065578e-38
-0.016319035 0.036185734 0.74500006 1.2711415e-38
-0.014899992 0.036185727 0.74500006 1.4354415e-38
-0.013480943 0.036185727 0.74500006 1.4343657e-38
-0.0120619 0.036185727 0.74500006 1.4234912e-38
-0.01061428 0.036088593 0.74300003 1.4238808e-38
-0.0091990456 0.036088578 0.74300003 1.423488e-38
-0.0077837855 0.036088586 0.74300009 1.4143062e-38
-0.0063685523 0.036088578 0.74300009 1.4051226e-38
-0.0049533388 0.036088586 0.74300003 1.4143062e-38
-0.0035333205 0.036040016 0.74200004 1.4326731e-38
-0.0021142764 0.035942875 0.74000001 1.4418565e-38
-0.00070474291 0.035942875 0.74000001 1.4602228e-38
0.00070477655 0.035942875 0.74000001 1.4510384e-38
0.0021143099 0.03594286 0.74000001 1.4510404e-38
0.0035238294 0.035942867 0.74000001 1.4326751e-38
0.0049333498 0.03594286 0.74000007 1.4234915e-38
0.0063428823 0.035942867 0.74000007 1.4696245e-38
0.0077524018 0.035942875 0.74000007 1.515326e-38
0.0091866804 0.036040023 0.74200004 1.5341226e-38
0.010600022 0.036040016 0.74200004 1.5520594e-38
0.012013351 0.036040008 0.7420001 1.5615658e-38
0.013426674 0.036040008 0.74200004 1.5704252e-38
0.014860031 0.036088578 0.74300009 1.5805761e-38
0.016275244 0.036088578 0.74300003 1.5887943e-38
0.017690491 0.036088586 0.74300003 1.6267514e-38
0.019105738 0.036088593 0.74300009 1.6532644e-38
0.020576211 0.036185741 0.74500006 1.729139e-38
0.021936201 0.036088593 0.74300003 1.8055102e-38
0.023351444 0.036088578 0.74300009 1.6857263e-38
0.024900042 0.03628286 0.7470001 1.5668756e-38
0.026358092 0.036331445 0.74800003 1.5290265e-38
0.027857162 0.036428578 0.75000012 1.4828243e-38
0.029285742 0.036428578 0.75000012 1.3629744e-38
0.03083716 0.036574297 0.75300008 1.2424372e-38
0.032271449 0.036574312 0.75300008 1.2053769e-38
0.033795282 0.03667143 0.75500011 1.1793409e-38
0.035233378 0.036671437 0.75500011 1.2258047e-38
0.036720015 0.036720008 0.7560001 1.2721193e-38
0.038260963 0.036817156 0.75800008 1.2260961e-38
0.039966691 0.037060007 0.76300007 1.1800358e-38
0.041637156 0.037254311 0.76700002 1.1341907e-38
0.043098137 0.037254289 0.76700008 1.0973113e-38
0.044733342 0.03740003 0.77000004 1.069759e-38
0.046200015 0.037400022 0.77000004 1.0328112e-38
-0.03851334 0.038513348 0.76300001 2.3963773e-39
-0.03706 0.038513348 0.76300001 5.2440064e-39
-0.035606667 0.038513344 0.76300001 8.0026824e-39
-0.033929523 0.038260959 0.75800008 1.095938e-38
-0.032357119 0.038109526 0.75500011 1.3816328e-38
-0.030837119 0.038008571 0.75300008 1.4097219e-38
-0.029402833 0.038008582 0.75300008 1.4366242e-38
-0.027968548 0.038008582 0.75300008 9.4924785e-39
-0.026499046 0.037958108 0.75200003 4.5157614e-39
-0.024999982 0.037857153 0.75000012 2.7565152e-39
-0.023571409 0.037857149 0.75000006 1.012724e-39
-0.022142844 0.037857149 0.75000012 1.5644615e-39
-0.020659057 0.037756205 0.74800009 2.0258123e-39
-0.019208562 0.037705727 0.7470001 4.7798235e-39
-0.017738087 0.037604794 0.74500006 7.4674523e-39
-0.016319046 0.037604775 0.74500006 1.1341052e-38
-0.014899975 0.037604779 0.74500006 1.5192039e-38
-0.013480954 0.037604775 0.74500006 1.5193468e-38
-0.012029531 0.03750382 0.74300003 1.508546e-38
-0.010642861 0.03760479 0.74500006 1.4801315e-38
-0.0091990363 0.037503812 0.74300009 1.443218e-38
-0.0077837752 0.03750382 0.74300009 1.4143045e-38
-0.0063685626 0.037503824 0.74300003 1.3875789e-38
-0.0049533304 0.03750382 0.74300009 1.3959374e-38
-0.0035380684 0.037503827 0.74300009 1.405372e-38
-0.0021199919 0.037453346 0.74200004 1.4326716e-38
-0.0007066633 0.037453346 0.74200004 1.4514686e-38
0.00070667925 0.037453353 0.74200004 1.4418541e-38
0.0021143025 0.037352398 0.74000001 1.423775e-38
0.0035238229 0.037352398 0.74000001 1.4051219e-38
0.0049333572 0.037352391 0.74000001 1.387186e-38
0.0063600149 0.037453353 0.74200004 1.4234905e-38
0.0077733444 0.037453346 0.7420001 1.4606558e-38
0.0091866655 0.037453361 0.74200004 1.5153273e-38
0.010600009 0.037453353 0.74200004 1.5718624e-38
0.012013337 0.037453346 0.74200004 1.6175639e-38
0.01342668 0.037453339 0.74200004 1.6647755e-38
0.014860005 0.037503827 0.74300003 1.7212065e-38
0.01625333 0.037453353 0.74200004 1.7760201e-38
0.0176905 0.037503827 0.74300009 1.8046463e-38
0.019105729 0.037503824 0.74300003 1.8220481e-38
0.020520959 0.037503824 0.74300003 1.9148914e-38
0.02199525 0.037604783 0.74500006 1.9981485e-38
0.023508566 0.037756205 0.74800009 1.6860108e-38
0.024933331 0.037756212 0.74800003 1.3720493e-38
0.026358081 0.037756212 0.74800003 1.3899872e-38
0.027782848 0.037756205 0.74800003 1.3995299e-38
0.029285733 0.037857149 0.75000012 1.3536484e-38
0.030796196 0.037958108 0.75200003 1.2981157e-38
0.032357175 0.038109533 0.75500005 1.2699182e-38
0.03384003 0.038160011 0.7560001 1.2433046e-38
0.035280026 0.038159996 0.7560001 1.28094e-38
0.036817148 0.038260963 0.75800008 1.3086377e-38
0.038361918 0.038361922 0.76000005 1.253576e-38
0.039966669 0.038513344 0.76300001 1.1894353e-38
0.041691437 0.038765721 0.76800007 1.1621007e-38
0.043266691 0.038866673 0.7700001 1.1343336e-38
0.044849519 0.038967643 0.77200001 1.1067817e-38
-0.038513333 0.039966684 0.76300001 3.1306885e-39
-0.03706 0.039966673 0.76300001 3.8642949e-39
-0.03560666 0.039966684 0.76300001 4.5997664e-39
-0.033929519 0.039704774 0.75800008 8.4791687e-39
-0.032399975 0.039600018 0.7560001 1.236134e-38
-0.030919036 0.03954763 0.75500005 1.3642343e-38
-0.029402824 0.039442856 0.75300008 1.492374e-38
-0.027968537 0.039442874 0.75300008 1.1519015e-38
-0.026499053 0.039390504 0.75200003 8.1092063e-39
-0.024999969 0.039285723 0.75000012 4.4156386e-39
-0.023571424 0.039285723 0.75000012 8.2726636e-40
-0.022142852 0.039285723 0.75000012 1.4719351e-39
-0.020659044 0.039180972 0.74800003 2.1158332e-39
-0.019234309 0.039180968 0.74800003 4.5074741e-39
-0.017785685 0.039128579 0.7470001 6.8155976e-39
-0.016319027 0.039023824 0.74500006 8.5723481e-39
-0.014899985 0.039023828 0.74500012 1.0328328e-38
-0.013480935 0.039023831 0.74500006 1.0043479e-38
-0.012029521 0.038919058 0.74300003 9.7747799e-39
-0.010642843 0.039023843 0.74500006 1.2616289e-38
-0.0091990475 0.038919058 0.74300003 1.5560034e-38
-0.0077838143 0.038919065 0.74300003 1.5645757e-38
-0.0063685533 0.038919069 0.74300009 1.5736516e-38
-0.0049533201 0.038919054 0.74300009 1.5638223e-38
-0.0035380786 0.038919054 0.74300003 1.5530246e-38
-0.0021199854 0.03886668 0.7420001 1.553814e-38
-0.00070666237 0.038866691 0.74200004 1.5537062e-38
0.00070666621 0.038866691 0.74200004 1.563069e-38
0.0021200078 0.03886668 0.74200004 1.5807546e-38
0.0035333512 0.038866684 0.74200004 1.5999109e-38
0.0049333489 0.038761921 0.74000001 1.6271763e-38
0.0063600019 0.038866684 0.74200004 1.6367919e-38
0.0077733435 0.038866699 0.74200004 1.6455472e-38
0.009186672 0.03886668 0.74200004 1.5364587e-38
0.010600016 0.038866688 0.74200004 1.4371595e-38
0.012013358 0.038866676 0.7420001 1.3905222e-38
0.013426666 0.038866688 0.74200004 1.354942e-38
0.014860015 0.038919054 0.74300009 1.3730281e-38
0.016253337 0.038866684 0.74200004 1.3924309e-38
0.017690476 0.038919065 0.74300003 1.3820946e-38
0.019105723 0.038919065 0.74300003 1.3827803e-38
0.02052097 0.038919058 0.74300009 1.4095099e-38
0.021995252 0.039023831 0.74500006 1.4473499e-38
0.023508564 0.039180972 0.74800003 1.2518343e-38
0.024933316 0.039180979 0.74800003 1.047362e-38
0.026358102 0.039180968 0.74800003 1.2331547e-38
0.027857175 0.039285727 0.75000012 1.4175056e-38
0.02936382 0.039390486 0.75200003 1.3812002e-38
0.030837167 0.039442871 0.75300002 1.3448259e-38
0.032357164 0.039547648 0.75500005 1.1601873e-38
0.033840019 0.039600015 0.7560001 9.8584402e-39
0.035280019 0.039600011 0.7560001 1.0229018e-38
0.036720019 0.039600015 0.7560001 1.0696855e-38
0.038260955 0.039704777 0.75800002 1.1249712e-38
0.039966665 0.039966688 0.76300001 1.1896155e-38
0.041691445 0.040228587 0.76800007 1.1619578e-38
0.043266676 0.040333353 0.77000004 1.1343704e-38
0.044849534 0.040438101 0.77200001 1.1159666e-38
-0.034019053 0.041257158 0.76000005 5.9952215e-39
-0.032399997 0.041040007 0.75600004 1.0782535e-38
-0.030919047 0.040985733 0.75500005 1.3095314e-38
-0.029402841 0.040877145 0.75300008 1.5383299e-38
-0.027968556 0.040877145 0.75300008 1.3550885e-38
-0.026499063 0.040822878 0.75200003 1.1688289e-38
-0.025000006 0.040714297 0.75000012 6.1533482e-39
-0.023571413 0.040714294 0.75000012 5.5247593e-40
-0.022142839 0.04071429 0.75000012 1.3797297e-39
-0.020659059 0.040605724 0.74800003 2.2076631e-39
-0.019234303 0.040605731 0.74800003 4.2262293e-39
-0.017785691 0.040551431 0.7470001 6.1648416e-39
-0.016319038 0.04044288 0.74500006 5.8039807e-39
-0.014899968 0.040442869 0.74500006 5.3444332e-39
-0.013480946 0.040442877 0.74500006 4.8773524e-39
-0.012029512 0.040334292 0.74300009 4.339649e-39
-0.010642854 0.040442877 0.74500006 1.0512394e-38
-0.0091990372 0.040334295 0.74300003 1.6672195e-38
-0.0077838032 0.040334299 0.74300009 1.7143576e-38
-0.0063685421 0.040334284 0.74300009 1.7501949e-38
-0.0049533304 0.040334299 0.74300003 1.7326527e-38
-0.0035380973 0.040334303 0.74300003 1.7030878e-38
-0.0021199984 0.040280014 0.74200004 1.6850381e-38
-0.00070665678 0.040280025 0.74200004 1.6568422e-38
0.00070668577 0.040280011 0.74200004 1.6943302e-38
0.0021200133 0.040280018 0.7420001 1.7302771e-38
0.0035333373 0.040280014 0.74200004 1.8048955e-38
0.0049466789 0.040280018 0.74200004 1.8686441e-38
0.0063600074 0.040280018 0.74200004 1.8508888e-38
0.0077733509 0.040280014 0.74200004 1.8319095e-38
0.009186673 0.040280029 0.74200004 1.5661223e-38
0.010600002 0.040280014 0.74200004 1.2893968e-38
0.012013343 0.040280022 0.74200004 1.1707647e-38
0.013426687 0.040280007 0.74200004 1.0411578e-38
0.014860027 0.040334299 0.74300009 1.0235471e-38
0.016275253 0.04033431 0.74300003 9.9495288e-39
0.017690487 0.040334299 0.74300003 9.6689692e-39
0.019105734 0.040334284 0.74300009 9.3009196e-39
0.020520959 0.040334299 0.74300003 9.1136725e-39
0.021995254 0.040442884 0.74500006 8.9278154e-39
0.023508564 0.040605739 0.74800003 8.0822509e-39
0.024933334 0.040605724 0.74800003 7.2679956e-39
0.026358085 0.040605735 0.74800003 1.0777901e-38
0.027857168 0.040714294 0.75000012 1.4269068e-38
0.029402876 0.040877152 0.75300008 1.4087534e-38
0.030837163 0.040877156 0.75300002 1.3900968e-38
