# .PCD v0.7 - Point Cloud Data file format
VERSION 0.7
FIELDS x y z rgb
SIZE 4 4 4 4
TYPE F F F F
COUNT 1 1 1 1
WIDTH 954
HEIGHT 1
VIEWPOINT 0 0 0 1 0 0 0
POINTS 954
DATA ascii
0.022880001 -0.090826683 0.72800004 1.7449151e-38
0.024300002 -0.09095145 0.72900003 1.7449153e-38
0.025759049 -0.091200955 0.73099995 1.7357319e-38
0.02715143 -0.09120094 0.73100001 1.7265865e-38
0.028660957 -0.091575243 0.73400003 1.7081858e-38
0.030059051 -0.091575228 0.73400003 1.6898168e-38
0.031542856 -0.091824777 0.736 1.6714479e-38
0.032944761 -0.091824763 0.73600006 1.6438967e-38
0.034346666 -0.091824748 0.736 1.6255291e-38
0.035797145 -0.09194953 0.73699999 1.6071618e-38
0.037301902 -0.09219908 0.73900002 1.4969591e-38
0.038709525 -0.09219905 0.73899996 1.3776804e-38
0.040280003 -0.092573322 0.74199998 1.1116085e-38
0.041749522 -0.092698105 0.74300003 8.370704e-39
0.043280955 -0.092947625 0.74500006 8.0087416e-39
0.044700004 -0.09294761 0.74500006 7.5527927e-39
0.046242855 -0.093197145 0.74699998 7.3709154e-39
0.047729526 -0.093321927 0.74800003 7.0968354e-39
-0.034766674 -0.091528572 0.74500006 1.0836978e-38
-0.033347625 -0.091528587 0.74500006 1.1296154e-38
-0.031842865 -0.091282837 0.74300003 1.1663492e-38
-0.030386673 -0.091160007 0.74200004 1.2030828e-38
-0.028895242 -0.090914302 0.74000001 1.2306345e-38
-0.027448576 -0.090791427 0.73900002 1.258186e-38
-0.025970478 -0.090545721 0.73700005 1.2949193e-38
-0.024533339 -0.090422876 0.736 1.3316527e-38
-0.023131434 -0.090422861 0.73600006 1.3775715e-38
-0.021670477 -0.090177141 0.73400003 1.4143067e-38
-0.020217145 -0.089931421 0.73200005 1.4510409e-38
-0.018822858 -0.089931421 0.73199999 1.469408e-38
-0.017428573 -0.089931421 0.73200005 1.4877754e-38
-0.016012382 -0.089808561 0.73099995 1.5061428e-38
-0.014580001 -0.089562871 0.72900003 1.52451e-38
-0.01319143 -0.089562856 0.72900003 1.5336937e-38
-0.011786669 -0.089439996 0.72800004 1.5520625e-38
-0.010371428 -0.08919429 0.72599995 1.5704313e-38
-0.0089885714 -0.089194275 0.72599995 1.5887977e-38
-0.0076057152 -0.089194275 0.72599995 1.6163476e-38
-0.0062228581 -0.08919429 0.72599995 1.634712e-38
-0.004840001 -0.08919429 0.72600001 1.6347094e-38
-0.0034571434 -0.08919429 0.72599995 1.6255272e-38
-0.0020742859 -0.08919429 0.72600001 1.6438957e-38
-0.00069047627 -0.08907146 0.72500002 1.6530805e-38
0.00069047627 -0.089071445 0.72500002 1.6530818e-38
0.002071429 -0.08907146 0.72500008 1.653082e-38
0.0034523814 -0.08907146 0.72500002 1.6622655e-38
0.0048333337 -0.089071445 0.72500002 1.6714485e-38
0.0062142862 -0.089071445 0.72500002 1.6806313e-38
0.0075952387 -0.08907146 0.72500002 1.6989975e-38
0.0089761922 -0.089071445 0.72500002 1.6898129e-38
0.010357144 -0.089071445 0.72500002 1.6898125e-38
0.011738097 -0.089071445 0.72500008 1.6898119e-38
0.013119049 -0.08907146 0.72500002 1.6989966e-38
0.014520003 -0.089194275 0.72600001 1.6898142e-38
0.015880954 -0.08907146 0.72500002 1.6898156e-38
0.017285716 -0.08919429 0.72600001 1.7081839e-38
0.018668573 -0.089194275 0.72599995 1.7265512e-38
0.020051429 -0.08919429 0.72599995 1.7265512e-38
0.021493336 -0.08944001 0.72800004 1.7265508e-38
0.022880003 -0.089439981 0.72800004 1.7357339e-38
0.02426667 -0.08944001 0.72800004 1.7449169e-38
0.025688574 -0.089562856 0.72900003 1.7265492e-38
0.027151432 -0.089808576 0.73100001 1.7173665e-38
0.028582862 -0.089931421 0.73199999 1.6990001e-38
0.030059051 -0.090177156 0.73400003 1.6806327e-38
0.03154286 -0.090422861 0.736 1.6530817e-38
0.032944765 -0.090422861 0.73600006 1.6347147e-38
0.03434667 -0.090422831 0.736 1.6163478e-38
0.035797149 -0.090545721 0.73700005 1.5979795e-38
0.037200958 -0.090545721 0.73699999 1.478628e-38
0.038709521 -0.090791442 0.73900002 1.3684613e-38
0.040280003 -0.091160007 0.74200004 1.1026406e-38
0.041693337 -0.091159992 0.74199998 8.3721418e-39
0.043280952 -0.091528587 0.74500012 8.0094605e-39
0.044820003 -0.091774277 0.74700004 7.7375399e-39
0.046304766 -0.091897167 0.74799997 7.4638257e-39
0.047729526 -0.091897182 0.74800003 7.1897457e-39
-0.034766674 -0.090109535 0.74500006 1.065366e-38
-0.033347625 -0.09010952 0.74500006 1.1020635e-38
-0.031842865 -0.089867614 0.74300003 1.1387974e-38
-0.030386673 -0.089746661 0.74200004 1.1755313e-38
-0.028895242 -0.089504801 0.74000001 1.2030828e-38
-0.027448576 -0.089383818 0.73899996 1.239818e-38
-0.025970478 -0.089141913 0.73699999 1.2673681e-38
-0.024533337 -0.08902096 0.73600006 1.3132854e-38
-0.023131432 -0.08902096 0.73600006 1.3592046e-38
-0.02161143 -0.088537149 0.73200005 1.3959403e-38
-0.020217145 -0.088537149 0.73199999 1.432674e-38
-0.018822856 -0.088537134 0.73200005 1.460224e-38
-0.017404763 -0.088416211 0.73100001 1.478592e-38
-0.016012382 -0.088416196 0.73099995 1.4969601e-38
-0.014580001 -0.088174291 0.72900003 1.5153267e-38
-0.01319143 -0.088174291 0.72900009 1.5336936e-38
-0.011786668 -0.088053338 0.72800004 1.5428784e-38
-0.010371428 -0.087811433 0.72599995 1.5704301e-38
-0.0089885714 -0.087811418 0.72599995 1.5887954e-38
-0.0076057147 -0.087811448 0.72600001 1.6071607e-38
-0.0062228576 -0.087811433 0.72599995 1.6255272e-38
-0.0048400005 -0.087811433 0.72600001 1.6438939e-38
-0.0034571432 -0.087811403 0.72599995 1.6530787e-38
-0.0020742861 -0.087811448 0.72600001 1.6622637e-38
-0.00069047627 -0.087690495 0.72500008 1.6714478e-38
0.00069047621 -0.087690495 0.72500002 1.6806319e-38
0.0020714288 -0.087690495 0.72500002 1.680632e-38
0.0034523814 -0.08769048 0.72500002 1.6898156e-38
0.0048333337 -0.087690495 0.72500002 1.6989987e-38
0.0062142862 -0.087690495 0.72500008 1.7265489e-38
0.0075952392 -0.08769048 0.72500002 1.7449151e-38
0.0089761931 -0.087690495 0.72500002 1.726547e-38
0.010357145 -0.08769048 0.72500002 1.7081788e-38
0.011738098 -0.087690495 0.72500002 1.7081778e-38
0.01311905 -0.087690495 0.72500002 1.7081789e-38
0.014520003 -0.087811418 0.72600001 1.70818e-38
0.015880954 -0.087690495 0.72500008 1.7081814e-38
0.017285718 -0.087811433 0.72599995 1.7173664e-38
0.018668575 -0.087811433 0.72600001 1.7265488e-38
0.020051431 -0.087811418 0.72599995 1.7265478e-38
0.021493336 -0.088053323 0.72800004 1.7173653e-38
0.022880003 -0.088053323 0.72800004 1.7265499e-38
0.02426667 -0.088053308 0.72800004 1.7357328e-38
0.025688576 -0.088174291 0.72900009 1.7265487e-38
0.02715143 -0.088416211 0.73100001 1.7081827e-38
0.028582862 -0.088537134 0.73200005 1.6898167e-38
0.030059051 -0.08877904 0.73400003 1.6714492e-38
0.031457145 -0.088779055 0.73400003 1.6439339e-38
0.032944761 -0.08902093 0.736 1.6163469e-38
0.034346666 -0.089020945 0.73600006 1.5979794e-38
0.035797141 -0.089141913 0.73699999 1.5796115e-38
0.03720095 -0.089141913 0.73700005 1.469408e-38
0.038709521 -0.089383818 0.73900002 1.3593488e-38
0.04017143 -0.089504756 0.74000001 1.1024604e-38
0.041693337 -0.089746647 0.74200004 8.3714201e-39
0.043280955 -0.090109535 0.74500006 8.1027309e-39
0.044820003 -0.090351425 0.74699998 7.8301069e-39
0.046304766 -0.090472393 0.74799997 7.5574829e-39
0.047857143 -0.090714298 0.75000006 7.1894052e-39
0.049285714 -0.090714298 0.75000006 7.1886709e-39
-0.037857153 -0.089285754 0.75000006 9.4605261e-39
-0.036282863 -0.088928573 0.74699998 1.0011182e-38
-0.03476667 -0.088690467 0.74500012 1.0469626e-38
-0.033347622 -0.088690497 0.74500006 1.083731e-38
-0.031842861 -0.088452376 0.74299997 1.1296128e-38
-0.030386671 -0.088333316 0.74199998 1.1571633e-38
-0.028895244 -0.08809524 0.74000001 1.1847149e-38
-0.027448576 -0.08797621 0.73900002 1.2214501e-38
-0.025970479 -0.087738104 0.73700005 1.2581841e-38
-0.024533337 -0.087619059 0.73600006 1.3041016e-38
-0.023131432 -0.087619029 0.736 1.3500213e-38
-0.021670479 -0.087380953 0.73400009 1.3867573e-38
-0.020217145 -0.087142862 0.73200005 1.4235263e-38
-0.018822858 -0.087142833 0.73199999 1.4510399e-38
-0.017428573 -0.087142862 0.73200005 1.4694086e-38
-0.016012384 -0.087023817 0.73099995 1.4877772e-38
-0.01462 -0.087023817 0.73100001 1.5153272e-38
-0.01319143 -0.086785711 0.72900003 1.5245099e-38
-0.011786668 -0.086666666 0.72800004 1.5428777e-38
-0.010400001 -0.086666681 0.72800004 1.5612455e-38
-0.0089885714 -0.08642856 0.72599995 1.5796096e-38
-0.0076057152 -0.086428575 0.72600001 1.5979736e-38
-0.0062228581 -0.086428575 0.72599995 1.6255261e-38
-0.004840001 -0.086428575 0.72600001 1.6347113e-38
-0.0034571432 -0.086428545 0.72599995 1.6438962e-38
-0.0020742861 -0.08642859 0.72599995 1.6530808e-38
-0.00069047621 -0.08630953 0.72500002 1.6622644e-38
0.00069047627 -0.08630956 0.72500008 1.6714478e-38
0.002071429 -0.086309545 0.72500002 1.6714479e-38
0.0034523814 -0.086309545 0.72500002 1.6806315e-38
0.0048333337 -0.086309545 0.72500002 1.6898147e-38
0.0062142862 -0.08630956 0.72500002 1.7081816e-38
0.0076057147 -0.08642856 0.72599995 1.7174001e-38
0.0089761922 -0.08630953 0.72500002 1.7081797e-38
0.010357144 -0.08630956 0.72500008 1.6989945e-38
0.011738097 -0.086309545 0.72500002 1.7081764e-38
0.013119049 -0.08630956 0.72500002 1.7173611e-38
0.014500001 -0.08630953 0.72500002 1.7173622e-38
0.015880954 -0.08630956 0.72500002 1.7081802e-38
0.017285718 -0.086428575 0.72599995 1.7173653e-38
0.018668575 -0.086428575 0.72600001 1.717363e-38
0.02010667 -0.086666666 0.72800004 1.7173608e-38
0.021493336 -0.086666681 0.72800004 1.7173634e-38
0.022880003 -0.086666666 0.72800004 1.7265495e-38
0.024300002 -0.086785726 0.72900003 1.7449159e-38
0.025759049 -0.087023817 0.73099995 1.7173644e-38
0.02715143 -0.087023802 0.73099995 1.6989989e-38
0.028582862 -0.087142847 0.73199999 1.6806333e-38
0.030059051 -0.087380953 0.73400003 1.6622656e-38
0.031457145 -0.087380953 0.73400009 1.6347143e-38
0.032944765 -0.087619029 0.73600006 1.6071627e-38
0.03434667 -0.087619029 0.73600006 1.5796109e-38
0.035797145 -0.087738104 0.73700005 1.5612434e-38
0.037200954 -0.087738119 0.73699999 1.4602596e-38
0.038709525 -0.087976195 0.73900002 1.3593121e-38
0.040171426 -0.088095225 0.74000007 1.1211135e-38
0.041693337 -0.088333316 0.74200004 8.9242225e-39
0.043280955 -0.088690482 0.74500006 8.1027309e-39
0.044819999 -0.088928573 0.74699998 7.2794667e-39
0.046428572 -0.089285739 0.75000006 7.0968985e-39
0.047857143 -0.089285739 0.75 7.0057538e-39
0.049417146 -0.08952383 0.75200003 6.8206213e-39
-0.037958104 -0.08809144 0.75199997 9.3686948e-39
-0.036428578 -0.08785715 0.75000006 9.8275247e-39
-0.034860011 -0.087505735 0.74699998 1.0286324e-38
-0.033347625 -0.087271444 0.74500006 1.0745842e-38
-0.031928577 -0.087271444 0.74500006 1.1112828e-38
-0.030386671 -0.086919986 0.74200004 1.1387978e-38
-0.028973337 -0.086919986 0.74199998 1.1663502e-38
-0.027448576 -0.086568587 0.73899996 1.2122695e-38
-0.026040956 -0.086568587 0.73900002 1.2490027e-38
-0.024566669 -0.086334281 0.73700005 1.2949193e-38
-0.023131432 -0.086217143 0.736 1.3316541e-38
-0.021670479 -0.085982867 0.73400003 1.3775722e-38
-0.020272383 -0.085982852 0.73400003 1.4143053e-38
-0.018822858 -0.085748561 0.73199999 1.4418548e-38
-0.017428573 -0.085748576 0.73200005 1.4602238e-38
-0.016034286 -0.085748561 0.73199999 1.4877762e-38
-0.01462 -0.085631438 0.73100001 1.5061431e-38
-0.01319143 -0.085397132 0.72900003 1.5245099e-38
-0.011802858 -0.085397147 0.72900003 1.5336938e-38
-0.010400001 -0.085279979 0.72800004 1.5520614e-38
-0.0090133343 -0.085280024 0.72800004 1.5704264e-38
-0.0076057152 -0.085045703 0.72600001 1.597975e-38
-0.0062228581 -0.085045718 0.72599995 1.6163431e-38
-0.004840001 -0.085045703 0.72600001 1.6255278e-38
-0.0034571432 -0.085045688 0.72599995 1.6255285e-38
-0.0020742861 -0.085045733 0.72599995 1.6438963e-38
-0.00069047627 -0.084928595 0.72500002 1.6530797e-38
0.00069047621 -0.084928595 0.72500002 1.6622631e-38
0.002071429 -0.084928595 0.72500002 1.6622626e-38
0.0034523814 -0.084928595 0.72500002 1.6714455e-38
0.0048333337 -0.084928595 0.72500008 1.680629e-38
0.0062142862 -0.084928595 0.72500002 1.6898122e-38
0.0076057147 -0.085045703 0.72599995 1.6898126e-38
0.0089761922 -0.084928595 0.72500002 1.6898129e-38
0.010357144 -0.08492858 0.72500002 1.6898118e-38
0.011738097 -0.08492858 0.72500002 1.7081776e-38
0.013119049 -0.084928609 0.72500002 1.7265453e-38
0.014500001 -0.084928609 0.72500002 1.7173622e-38
0.015880952 -0.08492858 0.72500002 1.70818e-38
0.017261904 -0.084928609 0.72500002 1.7081813e-38
0.018668573 -0.085045703 0.72600001 1.7081802e-38
0.020106668 -0.085280009 0.72800004 1.708179e-38
0.021493334 -0.085280009 0.72800004 1.7081817e-38
0.022880001 -0.085280009 0.72800004 1.7265515e-38
0.024300002 -0.085397162 0.72900003 1.7449174e-38
0.025688574 -0.085397147 0.72900003 1.7173658e-38
0.027151432 -0.085631423 0.73099995 1.6898157e-38
0.028582862 -0.085748561 0.73199999 1.6714492e-38
0.030059051 -0.085982852 0.73400003 1.6438981e-38
0.03154286 -0.086217158 0.736 1.6163471e-38
0.032944765 -0.086217143 0.73600006 1.5887954e-38
0.03434667 -0.086217128 0.736 1.5704631e-38
0.035797145 -0.086334281 0.73699999 1.5428763e-38
0.037200954 -0.086334296 0.73700005 1.4510406e-38
0.038709521 -0.086568587 0.73900002 1.3502358e-38
0.04017143 -0.08668571 0.74000001 1.1485556e-38
0.041693337 -0.086920001 0.74199998 9.3826699e-39
0.043280959 -0.08727143 0.74500006 8.0119562e-39
0.044819999 -0.087505721 0.74699998 6.6355126e-39
0.046304766 -0.087622873 0.74800003 6.7284369e-39
0.047857147 -0.087857135 0.75000006 6.8202598e-39
0.049417146 -0.088091426 0.75200003 6.5443833e-39
-0.039390486 -0.086659066 0.75199997 8.6347087e-39
-0.037857153 -0.086428605 0.75000006 9.2768621e-39
-0.03633143 -0.086198114 0.74800003 9.7357032e-39
-0.034860007 -0.086082838 0.74699998 1.0286335e-38
-0.033347625 -0.085852392 0.74500006 1.0561819e-38
-0.031928577 -0.085852377 0.74500006 1.0928811e-38
-0.030427622 -0.085621901 0.74300003 1.129616e-38
-0.028973337 -0.085506655 0.74199998 1.1663524e-38
-0.027485717 -0.085276194 0.74000001 1.2030889e-38
-0.026040955 -0.085160948 0.73900002 1.2398212e-38
-0.024566669 -0.084930457 0.73699999 1.285737e-38
-0.023162859 -0.084930487 0.73700005 1.3316539e-38
-0.021729529 -0.084815226 0.736 1.3683871e-38
-0.020272382 -0.08458475 0.73399997 1.4143038e-38
-0.018822858 -0.084354274 0.73200005 1.4326698e-38
-0.017428573 -0.084354289 0.73199999 1.4602225e-38
-0.016034286 -0.084354274 0.73200005 1.4785917e-38
-0.014620001 -0.084239043 0.73099995 1.4969591e-38
-0.01319143 -0.084008582 0.72900003 1.5061428e-38
-0.011802858 -0.084008597 0.72900003 1.5153265e-38
-0.010400001 -0.083893321 0.72800004 1.5336937e-38
-0.0090133343 -0.083893336 0.72800004 1.5520597e-38
-0.0076266676 -0.083893351 0.72800004 1.5796092e-38
-0.0062228581 -0.08366286 0.72599995 1.5979767e-38
-0.0048400005 -0.083662845 0.72599995 1.6163442e-38
-0.0034571432 -0.083662845 0.72599995 1.6347115e-38
-0.0020742861 -0.083662875 0.72599995 1.6438952e-38
-0.00069047627 -0.083547644 0.72500008 1.6530786e-38
0.00069047621 -0.083547644 0.72500002 1.6530784e-38
0.0020714288 -0.083547644 0.72500008 1.6622609e-38
0.0034523811 -0.083547644 0.72500002 1.6714432e-38
0.0048333337 -0.083547629 0.72500002 1.6806266e-38
0.0062142862 -0.083547629 0.72500002 1.6806264e-38
0.0076057147 -0.083662845 0.72599995 1.6898117e-38
0.0089761922 -0.083547644 0.72500008 1.6806297e-38
0.010357145 -0.083547644 0.72500002 1.680629e-38
0.011738098 -0.083547629 0.72500002 1.6898118e-38
0.01311905 -0.083547644 0.72500002 1.7081788e-38
0.014500002 -0.083547644 0.72500002 1.7081786e-38
0.015880954 -0.083547644 0.72500002 1.7081797e-38
0.017285716 -0.08366286 0.72599995 1.7173644e-38
0.018668573 -0.083662845 0.72600001 1.726548e-38
0.020106668 -0.083893336 0.72800004 1.7173644e-38
0.021522857 -0.084008597 0.72900003 1.7081837e-38
0.022911428 -0.084008582 0.72899997 1.7173699e-38
0.0243 -0.084008582 0.72900003 1.7265879e-38
0.025759049 -0.084239043 0.73100001 1.699e-38
0.02715143 -0.084239043 0.73099995 1.6806326e-38
0.028582864 -0.084354274 0.73200005 1.6622651e-38
0.030059049 -0.08458475 0.73400003 1.6438978e-38
0.031542856 -0.084815241 0.73600006 1.6255663e-38
0.032944761 -0.084815226 0.736 1.6071624e-38
0.034346666 -0.084815212 0.736 1.58883e-38
0.035797145 -0.084930457 0.73700005 1.5704271e-38
0.037200954 -0.084930487 0.73699999 1.4602603e-38
0.038709521 -0.085160948 0.73900002 1.3501281e-38
0.04017143 -0.085276164 0.74000001 1.1579536e-38
0.041693337 -0.08550667 0.74200004 9.7521531e-39
0.043397147 -0.086082838 0.74699998 8.1023414e-39
0.044880003 -0.086198114 0.74800003 6.4507359e-39
0.046304766 -0.086198099 0.74800003 6.6354803e-39
0.047857147 -0.086428575 0.75 6.8184367e-39
0.049417142 -0.086659066 0.75199997 6.7283976e-39
-0.040985722 -0.085566662 0.75500005 7.9007379e-39
-0.039442863 -0.085340001 0.75299996 8.5432277e-39
-0.0379581 -0.085226662 0.75199997 9.0931799e-39
-0.036525715 -0.085226662 0.75199997 9.6434894e-39
-0.034906678 -0.084773339 0.74800003 1.0194487e-38
-0.033437148 -0.084659986 0.74700004 1.0469619e-38
-0.032014292 -0.084659986 0.74699998 1.0745131e-38
-0.030427624 -0.084206663 0.74300003 1.1204314e-38
-0.029012384 -0.084206678 0.74300003 1.1663503e-38
-0.027485717 -0.083866663 0.74000001 1.2030858e-38
-0.026040956 -0.08375334 0.73900002 1.2306357e-38
-0.024566671 -0.083526678 0.73700005 1.2765529e-38
-0.02316286 -0.083526678 0.73699999 1.3224701e-38
-0.021759052 -0.083526663 0.73700005 1.3683873e-38
-0.020272382 -0.083186649 0.73400003 1.4051206e-38
-0.018874288 -0.083186679 0.73400003 1.4326706e-38
-0.017428571 -0.082960002 0.73200005 1.4602222e-38
-0.016034285 -0.082959987 0.73200005 1.4694068e-38
-0.01462 -0.082846649 0.73099995 1.4785903e-38
-0.013191431 -0.082620002 0.72900003 1.487774e-38
-0.011802859 -0.082620017 0.72900003 1.4969578e-38
-0.010414287 -0.082620002 0.72900003 1.5153253e-38
-0.0090257162 -0.082620002 0.72900003 1.5336922e-38
-0.0076266672 -0.082506679 0.72799999 1.5612425e-38
-0.0062228576 -0.082280003 0.72599995 1.5796098e-38
-0.0048400005 -0.082279988 0.72599995 1.6071606e-38
-0.0034571432 -0.082279988 0.72599995 1.6347115e-38
-0.0020742861 -0.082280017 0.72599995 1.6438953e-38
-0.00069047627 -0.082166694 0.72500002 1.643895e-38
0.00069047621 -0.082166679 0.72500002 1.6530783e-38
0.002071429 -0.082166679 0.72500002 1.6622613e-38
0.0034523814 -0.082166694 0.72500008 1.6714444e-38
0.0048333337 -0.082166694 0.72500002 1.6714439e-38
0.0062142862 -0.082166679 0.72500002 1.6806269e-38
0.0075952387 -0.082166679 0.72500002 1.6806291e-38
0.0089761922 -0.082166679 0.72500002 1.6714478e-38
0.010357144 -0.082166679 0.72500002 1.6622634e-38
0.011738097 -0.082166664 0.72500002 1.6806297e-38
0.013119049 -0.082166694 0.72500008 1.6898122e-38
0.014500001 -0.082166694 0.72500002 1.6989949e-38
0.015880952 -0.082166694 0.72500002 1.7081793e-38
0.017261904 -0.082166694 0.72500002 1.7265473e-38
0.018668573 -0.082279988 0.72600001 1.73573e-38
0.02010667 -0.082506679 0.72800004 1.7173622e-38
0.021493336 -0.082506664 0.72799999 1.6989969e-38
0.022911429 -0.082620017 0.72900003 1.6989989e-38
0.024300002 -0.082620017 0.72900003 1.6989991e-38
0.025688574 -0.082620002 0.72900003 1.6898159e-38
0.02715143 -0.082846649 0.73099995 1.6714482e-38
0.028582862 -0.082960002 0.73199999 1.6530807e-38
0.029977147 -0.082959987 0.73200005 1.6347848e-38
0.03154286 -0.08341334 0.73600006 1.6256007e-38
0.032989524 -0.083526663 0.73700005 1.6163808e-38
0.034393337 -0.083526693 0.73700005 1.6071969e-38
0.035797145 -0.083526663 0.73699999 1.5888298e-38
0.037301905 -0.08375334 0.73900002 1.4694077e-38
0.038709525 -0.083753355 0.73900002 1.3410524e-38
0.04017143 -0.083866663 0.74000001 1.1762141e-38
0.041693334 -0.084093325 0.74200004 1.0025157e-38
0.043280955 -0.08443334 0.74500006 8.1941853e-39
0.044819999 -0.084660001 0.74700004 6.2674321e-39
0.046304766 -0.084773339 0.74800003 6.5436546e-39
0.047857147 -0.085000016 0.75000006 6.8198828e-39
0.049417146 -0.085226677 0.75200003 7.0042755e-39
-0.040985722 -0.084128566 0.75500005 7.9932839e-39
-0.039442863 -0.083905704 0.75300002 8.5435822e-39
-0.037958097 -0.083794273 0.75200003 9.0931673e-39
-0.036525715 -0.083794273 0.75199997 9.5527105e-39
-0.035000008 -0.083571456 0.75000012 1.0102639e-38
-0.033481911 -0.083348595 0.74800003 1.0378137e-38
-0.032014295 -0.083237149 0.74699998 1.0745124e-38
-0.030509528 -0.083014302 0.74500006 1.1112469e-38
-0.029012382 -0.082791425 0.74300003 1.1479813e-38
-0.027560003 -0.082679994 0.74200004 1.1847155e-38
-0.026076194 -0.082457148 0.74000001 1.2306339e-38
-0.024566669 -0.08212284 0.73699999 1.2857358e-38
-0.023162859 -0.08212287 0.73700005 1.3408369e-38
-0.021670477 -0.081788577 0.73400003 1.3775708e-38
-0.020272382 -0.081788577 0.73400003 1.4234883e-38
-0.018822858 -0.0815657 0.73199999 1.4510744e-38
-0.017428573 -0.081565715 0.73200005 1.478589e-38
-0.016034286 -0.081565715 0.73199999 1.4878082e-38
-0.01462 -0.08145427 0.73099995 1.4969559e-38
-0.01322762 -0.081454284 0.73100001 1.506211e-38
-0.011851429 -0.081565715 0.73200005 1.5245069e-38
-0.010457143 -0.081565715 0.73199999 1.5429463e-38
-0.0090504764 -0.081454284 0.73099995 1.5704258e-38
-0.007658096 -0.081454284 0.73099995 1.5889011e-38
-0.0062400009 -0.081120007 0.72800004 1.6071606e-38
-0.0048533343 -0.081120007 0.72800004 1.6255993e-38
-0.0034666669 -0.081120007 0.72800004 1.6530786e-38
-0.0020742861 -0.08089716 0.72599995 1.6531508e-38
-0.00069047627 -0.080785729 0.72500002 1.6622621e-38
0.00069047621 -0.080785759 0.72500002 1.6714811e-38
0.002071429 -0.080785729 0.72500002 1.680629e-38
0.0034523814 -0.080785744 0.72500002 1.6807008e-38
0.0048333337 -0.080785729 0.72500002 1.6898117e-38
0.0062142862 -0.080785744 0.72500002 1.6898824e-38
0.0075952387 -0.080785729 0.72500008 1.6989972e-38
0.0089761931 -0.080785729 0.72500002 1.6990717e-38
0.010357145 -0.080785744 0.72500002 1.698999e-38
0.011738098 -0.080785729 0.72500002 1.7082892e-38
0.01311905 -0.080785729 0.72500002 1.7265471e-38
0.014500002 -0.080785744 0.72500002 1.7266531e-38
0.015880952 -0.080785759 0.72500002 1.726546e-38
0.017285716 -0.080897145 0.72599995 1.7358376e-38
0.018668573 -0.08089713 0.72600001 1.744912e-38
0.020106668 -0.081120007 0.72799999 1.7358345e-38
0.021493334 -0.081120007 0.72800004 1.7265445e-38
0.022911429 -0.081231438 0.72900003 1.7358726e-38
0.024300002 -0.081231453 0.72900003 1.7540982e-38
0.025759049 -0.081454299 0.73099995 1.7175452e-38
0.02715143 -0.081454284 0.73099995 1.6898146e-38
0.028582862 -0.081565715 0.73199999 1.6624786e-38
0.030059053 -0.081788577 0.73400003 1.6348554e-38
0.031457145 -0.081788577 0.73400003 1.6256709e-38
0.032944765 -0.082011409 0.73600006 1.6071604e-38
0.03434667 -0.082011394 0.736 1.5981564e-38
0.035797145 -0.082122855 0.73700005 1.598013e-38
0.037301902 -0.082345732 0.73900002 1.487918e-38
0.038761903 -0.082457133 0.74000001 1.3868271e-38
0.040171426 -0.082457133 0.74000001 1.1763227e-38
0.041693337 -0.08267998 0.74199998 9.7493014e-39
0.043280955 -0.083014287 0.74500006 7.9179697e-39
0.044700004 -0.083014302 0.74500006 6.1770399e-39
0.046242859 -0.083237149 0.74699998 6.3610683e-39
0.047665719 -0.083237149 0.74700004 6.5458211e-39
0.049417146 -0.083794303 0.75200003 6.8206157e-39
0.050849527 -0.083794273 0.75199997 7.0954047e-39
-0.040985726 -0.082690485 0.75500005 7.9932923e-39
-0.03944286 -0.082471423 0.75300002 8.5443095e-39
-0.037958097 -0.082361899 0.75199997 9.094619e-39
-0.036525715 -0.082361899 0.75199997 9.5545294e-39
-0.035000008 -0.082142852 0.75000006 9.9200581e-39
-0.033481911 -0.08192382 0.74800003 1.0378498e-38
-0.032014292 -0.081814282 0.74700004 1.074548e-38
-0.030509526 -0.081595264 0.74500006 1.1020628e-38
-0.029012382 -0.081376188 0.74300003 1.1296139e-38
-0.027560003 -0.081266664 0.74200004 1.1755319e-38
-0.026076194 -0.081047632 0.74000007 1.2214859e-38
-0.024633337 -0.080938123 0.73900002 1.2857353e-38
-0.023225717 -0.080938108 0.73900002 1.3500562e-38
-0.02175905 -0.080719046 0.73700005 1.3959741e-38
-0.02035524 -0.080719031 0.73699999 1.4327449e-38
-0.018874288 -0.080390491 0.73400003 1.4603681e-38
-0.017428573 -0.080171429 0.73199999 1.4878812e-38
-0.016034286 -0.080171429 0.73200005 1.4970988e-38
-0.014620001 -0.080061905 0.73099995 1.5062835e-38
-0.013227621 -0.080061905 0.73100001 1.5339786e-38
-0.01183524 -0.08006192 0.73099995 1.5522388e-38
-0.010442859 -0.080061905 0.73100001 1.5798976e-38
-0.0090504773 -0.08006192 0.73099995 1.5981934e-38
-0.007658096 -0.080061905 0.73099995 1.6167044e-38
-0.0062400005 -0.07973332 0.72800004 1.634964e-38
-0.0048533338 -0.079733349 0.72800004 1.6533312e-38
-0.0034666669 -0.079733334 0.72800004 1.6624435e-38
-0.0020800002 -0.079733334 0.72800004 1.6716992e-38
-0.00069142866 -0.079514287 0.72600001 1.6715911e-38
0.00069047615 -0.079404779 0.72500002 1.6807744e-38
0.002071429 -0.079404794 0.72500008 1.6899219e-38
0.0034523814 -0.079404779 0.72500002 1.6992131e-38
0.0048333337 -0.079404779 0.72500002 1.6991763e-38
0.0062142862 -0.079404764 0.72500002 1.7084665e-38
0.0075952387 -0.079404794 0.72500002 1.7175799e-38
0.0089761922 -0.079404764 0.72500002 1.7268728e-38
0.01037143 -0.079514287 0.72599995 1.7268008e-38
0.011738097 -0.079404779 0.72500008 1.7453469e-38
0.013137145 -0.079514302 0.72600001 1.7635696e-38
0.014500001 -0.079404779 0.72500002 1.7545285e-38
0.01590286 -0.079514287 0.72600001 1.7359458e-38
0.017333334 -0.079733349 0.72800004 1.7453084e-38
0.018668575 -0.079514287 0.72600001 1.7451637e-38
0.020106668 -0.079733334 0.72800004 1.7452702e-38
0.021522859 -0.079842873 0.72900003 1.745272e-38
0.022911429 -0.079842888 0.72900009 1.7730756e-38
0.024366667 -0.08006192 0.73100001 1.8004122e-38
0.025759049 -0.080061905 0.73099995 1.7548186e-38
0.02715143 -0.08006192 0.73099995 1.7087209e-38
0.028582862 -0.080171444 0.73200005 1.6720938e-38
0.030059051 -0.080390476 0.73400003 1.6351078e-38
0.031542856 -0.080609523 0.736 1.61674e-38
0.032944761 -0.080609523 0.73600006 1.5983016e-38
0.034393333 -0.080719046 0.73699999 1.5985529e-38
0.035797141 -0.080719046 0.73699999 1.5983736e-38
0.037352383 -0.081047617 0.74000001 1.5157934e-38
0.038761906 -0.081047632 0.74000001 1.4240641e-38
0.040280003 -0.081266649 0.74199998 1.1856134e-38
0.041749526 -0.081376202 0.74300003 9.4748684e-39
0.043280959 -0.081595249 0.74500006 7.7350148e-39
0.044820003 -0.081814282 0.74699998 5.9922857e-39
0.046242859 -0.081814267 0.74700004 6.1770273e-39
0.047729526 -0.081923805 0.74799997 6.2688712e-39
0.049285714 -0.082142867 0.75000006 6.7284173e-39
-0.040985722 -0.081252389 0.75500005 7.6256e-39
-0.039442863 -0.081037126 0.75300002 8.2691701e-39
-0.037958097 -0.080929525 0.75199997 8.9106061e-39
-0.036525715 -0.080929525 0.75199997 9.2783292e-39
-0.035000008 -0.080714293 0.75000006 9.6442055e-39
-0.033481911 -0.080499046 0.74799997 1.0103352e-38
-0.032014292 -0.080391444 0.74700004 1.0561449e-38
-0.030509528 -0.080176197 0.74500006 1.0929146e-38
-0.029090481 -0.080176197 0.74500006 1.1204659e-38
-0.027597146 -0.07996095 0.74299997 1.1572366e-38
-0.026146671 -0.079853319 0.74200004 1.2031544e-38
-0.024633337 -0.079530485 0.73900002 1.2307052e-38
-0.023225717 -0.079530485 0.73900002 1.2582206e-38
-0.021759052 -0.079315253 0.73699999 1.2857716e-38
-0.020355241 -0.079315238 0.73700005 1.3225437e-38
-0.018874288 -0.078992389 0.73400003 1.313398e-38
-0.017428573 -0.078777142 0.73200005 1.3042112e-38
-0.016034286 -0.078777142 0.73200005 1.2858407e-38
-0.01462 -0.078669511 0.73099995 1.2582923e-38
-0.01322762 -0.078669526 0.73099995 1.2583303e-38
-0.011835239 -0.078669526 0.73099995 1.2582951e-38
-0.010442858 -0.078669526 0.73100001 1.2766988e-38
-0.0090504764 -0.078669511 0.73099995 1.2950662e-38
-0.0076580956 -0.078669526 0.73100001 1.3410559e-38
-0.0062400005 -0.078346677 0.72800004 1.3871175e-38
-0.0048533338 -0.078346647 0.72800004 1.4145966e-38
-0.0034666669 -0.078346662 0.72800004 1.442076e-38
-0.0020800002 -0.078346662 0.72800004 1.4604076e-38
-0.00069142861 -0.078131445 0.72600001 1.4696268e-38
0.00069047627 -0.078023829 0.72500002 1.4603353e-38
0.0020742859 -0.07813143 0.72599995 1.460335e-38
0.003457143 -0.078131445 0.72600001 1.4695542e-38
0.0048400005 -0.078131415 0.72599995 1.4879563e-38
0.0062228576 -0.07813143 0.72600001 1.4787718e-38
0.0076057147 -0.07813143 0.72599995 1.4696604e-38
0.0089885732 -0.07813143 0.72599995 1.4604414e-38
0.01037143 -0.07813143 0.72599995 1.4512583e-38
0.011754288 -0.07813143 0.72599995 1.442111e-38
0.013137146 -0.078131445 0.72600001 1.4421825e-38
0.014520003 -0.07813143 0.72599995 1.4145239e-38
0.015902858 -0.07813143 0.72600001 1.3960121e-38
0.017333334 -0.078346677 0.72800004 1.405302e-38
0.018720001 -0.078346677 0.72800004 1.4237759e-38
0.020106668 -0.078346677 0.72800004 1.3961885e-38
0.021522861 -0.078454278 0.72900003 1.3687839e-38
0.02297429 -0.078669511 0.73099995 1.3687146e-38
0.024366669 -0.078669541 0.73100001 1.3594242e-38
0.025759051 -0.078669526 0.73099995 1.3045387e-38
0.027188577 -0.078777157 0.73200005 1.2589432e-38
0.028660957 -0.078992404 0.73400003 1.1759678e-38
0.030059051 -0.078992389 0.73400003 1.1024273e-38
0.03154286 -0.079207607 0.73600006 1.0656209e-38
0.032944765 -0.079207607 0.736 1.0289232e-38
0.034393337 -0.079315253 0.73699999 1.0565102e-38
0.035797145 -0.079315253 0.73700005 1.0934237e-38
0.037352383 -0.079638086 0.74000001 1.0658011e-38
0.038866673 -0.079853334 0.74200004 1.038571e-38
0.040280007 -0.079853334 0.74199998 9.3790826e-39
0.041749522 -0.079960965 0.74300003 8.374992e-39
0.043280955 -0.080176212 0.74500012 7.4591482e-39
0.044819999 -0.080391414 0.74699998 6.5425756e-39
0.046242855 -0.080391429 0.74700004 6.5432805e-39
0.047665715 -0.080391414 0.74699998 6.5425771e-39
0.049285714 -0.080714293 0.75000006 6.820966e-39
-0.0379581 -0.079497136 0.75199997 8.6372408e-39
-0.036525719 -0.079497136 0.75199997 9.0035094e-39
-0.035000011 -0.079285733 0.75000006 9.2782802e-39
-0.033481911 -0.079074301 0.74799997 9.8285575e-39
-0.032014292 -0.078968562 0.74699998 1.0378852e-38
-0.030509526 -0.078757145 0.74500006 1.0746192e-38
-0.029090479 -0.078757145 0.74500006 1.111354e-38
-0.027597144 -0.078545712 0.74300003 1.1481964e-38
-0.026146671 -0.078439988 0.74199998 1.1756401e-38
-0.024633335 -0.078122862 0.73900002 1.1664574e-38
-0.023225715 -0.078122862 0.73900002 1.1572021e-38
-0.02175905 -0.077911429 0.73700005 1.1847529e-38
-0.02035524 -0.077911414 0.73699999 1.2031212e-38
-0.018951429 -0.077911444 0.73700005 1.1663883e-38
-0.01754762 -0.077911429 0.73699999 1.1204686e-38
-0.016034286 -0.07738287 0.73199999 1.0653295e-38
-0.014620001 -0.077277131 0.73100001 1.0102643e-38
-0.013227621 -0.077277146 0.73099995 9.9186161e-39
-0.01183524 -0.077277161 0.73099995 9.6434726e-39
-0.010442859 -0.077277146 0.73100001 9.7349522e-39
-0.0090504773 -0.077277146 0.73099995 9.8271506e-39
-0.0076371436 -0.077065729 0.72900003 1.0561481e-38
-0.0062485724 -0.077065744 0.72900003 1.1297956e-38
-0.0048533338 -0.076960005 0.72800004 1.1758209e-38
-0.0034666669 -0.076960005 0.72800004 1.2215954e-38
-0.0020800002 -0.07695999 0.72800004 1.2490386e-38
-0.00069142866 -0.076748587 0.72599995 1.2674414e-38
0.00069047621 -0.076642878 0.72500008 1.2490024e-38
0.0020742859 -0.076748572 0.72599995 1.2214875e-38
0.003457143 -0.076748587 0.72600001 1.2490021e-38
0.004840001 -0.076748557 0.72599995 1.2765882e-38
0.0062228581 -0.076748572 0.72600001 1.2490013e-38
0.0076057152 -0.076748557 0.72599995 1.212339e-38
0.0089885732 -0.076748572 0.72599995 1.1939004e-38
0.01037143 -0.076748542 0.72599995 1.1664216e-38
0.011754287 -0.076748572 0.72599995 1.1387995e-38
0.013137145 -0.076748587 0.72600001 1.1113205e-38
0.014500002 -0.076642878 0.72500002 1.083698e-38
0.015902858 -0.076748557 0.72600001 1.0561825e-38
0.017357145 -0.077065729 0.72900003 1.0745131e-38
0.018745715 -0.077065729 0.72900009 1.0929516e-38
0.02010667 -0.076960005 0.72800004 1.0469617e-38
0.021522859 -0.077065729 0.72900003 9.9196923e-39
0.022974288 -0.077277116 0.73099995 9.5512868e-39
0.024366667 -0.077277161 0.73100001 9.184665e-39
0.02579429 -0.07738287 0.73200005 8.6329374e-39
0.027188575 -0.07738287 0.73200005 7.9918798e-39
0.028660955 -0.077594288 0.73400003 6.8880574e-39
0.030059051 -0.077594273 0.73400003 5.6952707e-39
0.03154286 -0.077805705 0.73600006 5.1431787e-39
0.032944765 -0.07780569 0.736 4.5010505e-39
0.034393337 -0.077911414 0.73699999 5.2350198e-39
0.035797145 -0.077911429 0.73699999 5.8793033e-39
0.037352379 -0.078228571 0.74000001 6.1533734e-39
0.038866669 -0.078439988 0.74199998 6.4349797e-39
0.040334284 -0.078545712 0.74300003 6.8995396e-39
0.041749522 -0.078545712 0.74300003 7.2719025e-39
0.043397147 -0.078968577 0.74700004 7.1836543e-39
0.044820003 -0.078968577 0.74699998 7.092888e-39
0.046242859 -0.078968562 0.74700004 6.9102862e-39
0.047857143 -0.079285733 0.75000006 6.7276928e-39
0.049285714 -0.079285719 0.75000006 6.912084e-39
-0.0379581 -0.078064762 0.75199997 5.4233474e-39
-0.036525719 -0.078064762 0.75199997 5.146029e-39
-0.035000011 -0.077857174 0.75000006 4.7793989e-39
-0.033481915 -0.077649526 0.74799997 5.2367771e-39
-0.032014295 -0.077545725 0.74699998 5.6955972e-39
-0.030509528 -0.077338107 0.74500006 5.6948798e-39
-0.029090481 -0.077338092 0.74500012 5.6941679e-39
-0.027597144 -0.077130489 0.74300003 7.8085423e-39
-0.026146671 -0.077026658 0.74199998 1.0010456e-38
-0.024633337 -0.076715238 0.73900002 8.0822818e-39
-0.023225717 -0.076715238 0.73900002 6.1533748e-39
-0.021759052 -0.076507621 0.73699999 7.0728018e-39
-0.020355241 -0.076507621 0.73700005 8.0819216e-39
-0.018951431 -0.076507621 0.73699999 8.6332989e-39
-0.017547622 -0.076507621 0.73700005 9.2757831e-39
-0.016034286 -0.075988553 0.73200005 8.9120214e-39
-0.01462 -0.075884767 0.73100001 8.6329122e-39
-0.01322762 -0.075884752 0.73099995 7.8063773e-39
-0.011835239 -0.075884782 0.73099995 6.8880223e-39
-0.010414287 -0.075677149 0.72900003 8.1776653e-39
-0.0090257162 -0.075677149 0.72900009 9.4594232e-39
-0.0076371431 -0.075677164 0.72900003 7.6227189e-39
-0.0062485714 -0.075677164 0.72900003 5.7860034e-39
-0.0048533343 -0.075573348 0.72800004 6.2458913e-39
-0.003471429 -0.075677134 0.72900003 6.7961868e-39
-0.0020800002 -0.075573333 0.72800004 8.5410613e-39
-0.00069142866 -0.075365745 0.72599995 1.0285936e-38
0.00069142861 -0.075365715 0.72599995 1.1112814e-38
0.0020742859 -0.075365715 0.72599995 1.1938975e-38
0.003457143 -0.075365715 0.72600001 1.2401381e-38
0.0048400005 -0.075365715 0.72599995 1.285733e-38
0.0062228576 -0.075365715 0.72600001 1.1938975e-38
0.0076057147 -0.0753657 0.72599995 1.102062e-38
0.0089885741 -0.075365715 0.72599995 1.1112455e-38
0.010371431 -0.075365715 0.72600001 1.1296126e-38
0.011754288 -0.07536573 0.72599995 1.11225e-38
0.013137146 -0.07536573 0.72600001 1.0928784e-38
0.014520003 -0.075365715 0.72599995 1.0469607e-38
0.01590286 -0.075365715 0.72600001 1.0010429e-38
0.017333334 -0.075573348 0.72800004 1.1490559e-38
0.018720001 -0.075573333 0.72800004 1.3041001e-38
0.020106668 -0.075573348 0.72800004 1.2589356e-38
0.021522859 -0.075677149 0.72900003 1.2214481e-38
0.022974288 -0.075884752 0.73099995 1.0471759e-38
0.024400001 -0.075988553 0.73200005 8.8165678e-39
0.025794288 -0.075988568 0.73200005 7.3471998e-39
0.027262861 -0.076196201 0.73400003 5.8778319e-39
0.028660957 -0.076196201 0.73400003 7.8164218e-39
0.030059051 -0.076196186 0.73399997 9.7349227e-39
0.031542856 -0.076403774 0.736 7.1642463e-39
0.032944761 -0.076403789 0.73600006 4.5921349e-39
0.034346666 -0.076403804 0.736 6.6143095e-39
0.035797145 -0.076507606 0.73699999 8.7247323e-39
0.037352379 -0.076819055 0.74000001 8.9184478e-39
0.038866673 -0.077026673 0.74200004 9.0967644e-39
0.040334288 -0.077130489 0.74300003 8.2792385e-39
0.041861907 -0.077338092 0.74500006 7.5470642e-39
0.043397147 -0.07754571 0.74699998 7.3659016e-39
0.044820003 -0.07754571 0.74699998 7.1843816e-39
0.046242859 -0.07754571 0.74699998 6.7269949e-39
0.047729526 -0.077649526 0.74800003 6.3621557e-39
-0.033571437 -0.076428585 0.75000006 6.4322963e-40
-0.032014292 -0.076122858 0.74699998 9.1908504e-40
-0.030509526 -0.075919069 0.74500006 6.4321001e-40
-0.029090479 -0.07591904 0.74500006 2.798351e-40
-0.027597146 -0.075715236 0.74300003 4.2309362e-39
-0.026146671 -0.075613342 0.74200004 8.1888295e-39
-0.024666671 -0.075409524 0.74000001 4.4085074e-39
-0.023225717 -0.075307615 0.73900002 6.4397792e-40
-0.021818098 -0.075307615 0.73900002 2.3913719e-39
-0.02035524 -0.075103797 0.73699999 4.1355162e-39
-0.018951429 -0.075103812 0.73700005 5.6956309e-39
-0.01754762 -0.075103812 0.73699999 7.2658012e-39
-0.016121905 -0.075001903 0.736 7.2693857e-39
-0.014640001 -0.074594282 0.73199999 7.1750237e-39
-0.01322762 -0.074492387 0.73099995 5.6941609e-39
-0.011835239 -0.074492387 0.73100001 4.1401461e-39
-0.010442858 -0.074492373 0.73099995 6.6283267e-39
-0.0090504764 -0.074492387 0.73099995 9.0135287e-39
-0.0076371431 -0.074288584 0.72900003 4.6843362e-39
-0.0062485719 -0.074288584 0.72900003 2.8053435e-40
-0.0048600002 -0.074288584 0.72900009 8.268796e-40
-0.0034714288 -0.074288569 0.72900003 1.2860585e-39
-0.0020800002 -0.07418666 0.72800004 4.5921363e-39
-0.00069142861 -0.073982887 0.72599995 7.822205e-39
0.00069142861 -0.073982872 0.72600001 9.736083e-39
0.0020742859 -0.073982857 0.72599995 1.1591806e-38
0.003457143 -0.073982842 0.72600001 1.2319315e-38
0.004840001 -0.073982857 0.72599995 1.2969674e-38
0.0062228581 -0.073982857 0.72599995 1.1388002e-38
0.0076057152 -0.073982842 0.72599995 9.8375524e-39
0.0089885732 -0.073982842 0.72599995 1.0377796e-38
0.010400001 -0.074186675 0.72800004 1.086249e-38
0.011754287 -0.073982857 0.72599995 1.0877602e-38
0.013137145 -0.073982872 0.72600001 1.076993e-38
0.014520002 -0.073982857 0.72599995 1.0102277e-38
0.01590286 -0.073982857 0.72599995 9.485671e-39
0.017333336 -0.074186675 0.72800004 1.2349847e-38
0.018720003 -0.074186675 0.72800004 1.5102037e-38
0.02010667 -0.074186675 0.72799999 1.4816484e-38
0.021522857 -0.074288569 0.72900003 1.4449101e-38
0.022974286 -0.074492387 0.73099995 1.1396248e-38
0.024400001 -0.074594267 0.73200005 8.372834e-39
0.025794288 -0.074594282 0.73199999 6.0615029e-39
0.027262861 -0.0747981 0.73400009 3.6910342e-39
0.028660957 -0.0747981 0.73400003 8.7646216e-39
0.030140955 -0.075001888 0.736 1.370936e-38
0.031542856 -0.075001888 0.73600006 9.1864321e-39
0.032944761 -0.075001888 0.73600006 4.6926193e-39
0.034346666 -0.075001903 0.736 8.0894858e-39
0.035797141 -0.075103797 0.73700005 1.150282e-38
0.037352383 -0.075409524 0.74000001 1.1606491e-38
0.038866673 -0.075613342 0.74200004 1.1689342e-38
0.040334288 -0.075715236 0.74300003 9.7568334e-39
0.04186191 -0.075919054 0.74500006 7.8272132e-39
0.043397143 -0.076122858 0.74699998 7.5488383e-39
0.044879999 -0.076224782 0.74800003 7.2769177e-39
0.046304762 -0.076224796 0.74800003 6.6351454e-39
0.047729522 -0.076224782 0.74800003 5.9022481e-39
-0.033571437 -0.07500001 0.75000006 3.5862899e-39
-0.032057147 -0.074800007 0.74800003 4.224814e-39
-0.030509528 -0.074500002 0.74500006 5.7006181e-39
-0.029090481 -0.074500002 0.74500006 7.0806995e-39
-0.027597146 -0.074300013 0.74300003 9.769078e-39
-0.026146673 -0.074199997 0.74199998 1.2452024e-38
-0.024666669 -0.074000008 0.74000001 6.4435991e-39
-0.023225715 -0.073900022 0.73900002 3.6776938e-40
-0.021818096 -0.073900007 0.73900002 1.4719687e-39
-0.020410478 -0.073900022 0.73899996 2.576475e-39
-0.018951429 -0.073699988 0.73699999 6.6250981e-39
-0.01754762 -0.073699988 0.73700005 1.077133e-38
-0.016121907 -0.073599987 0.736 1.0956437e-38
-0.014640002 -0.073199995 0.73200005 1.114368e-38
-0.01322762 -0.073100023 0.73099995 8.18484e-39
-0.011835239 -0.073100023 0.73100001 5.3394012e-39
-0.010442858 -0.073100008 0.73099995 8.2900018e-39
-0.0090504764 -0.073100008 0.73100001 1.1241268e-38
-0.0076371431 -0.07290002 0.72900003 9.0275038e-39
-0.0062485719 -0.072900005 0.72900003 6.9063191e-39
-0.0048600002 -0.07290002 0.72900003 6.3527936e-39
-0.0034666669 -0.072799988 0.72800004 5.7859978e-39
-0.0020828575 -0.072900005 0.72900003 1.0136347e-38
-0.00069142861 -0.072600029 0.72599995 1.4481038e-38
0.00069142861 -0.072600015 0.72600001 1.5113207e-38
0.0020742859 -0.0726 0.72599995 1.5770405e-38
0.003457143 -0.072599985 0.72600001 1.6311015e-38
0.0048400005 -0.0726 0.72599995 1.6874899e-38
0.0062400009 -0.072800003 0.72800004 1.4458791e-38
0.0076266676 -0.072800003 0.72800004 1.2165401e-38
0.0090133343 -0.072800003 0.72800004 1.3353148e-38
0.010400002 -0.072800003 0.72800004 1.4571853e-38
0.011786669 -0.072800003 0.72800004 1.4747365e-38
0.013173335 -0.072799988 0.72800004 1.5027431e-38
0.014560002 -0.072800003 0.72800004 1.2795293e-38
0.01594667 -0.072799973 0.72800004 1.0622561e-38
0.017333336 -0.072800003 0.72800004 1.4948626e-38
0.018720003 -0.072800018 0.72799999 1.9281749e-38
0.02010667 -0.072800003 0.72800004 1.9083722e-38
0.021522861 -0.072900005 0.72900003 1.8910014e-38
0.02297429 -0.073099993 0.73100001 1.7416171e-38
0.024400001 -0.07319998 0.73199999 1.594067e-38
0.025864763 -0.073399998 0.73400003 1.1605712e-38
0.027262859 -0.073400013 0.73400003 7.3759685e-39
0.028660955 -0.073400013 0.73400003 1.1248912e-38
0.030140955 -0.073599987 0.736 1.5029534e-38
0.03154286 -0.073599987 0.73600006 1.1883751e-38
0.032944765 -0.073599987 0.736 8.7492045e-39
0.03434667 -0.073599987 0.73600006 1.0219347e-38
0.035797145 -0.073700003 0.73699999 1.1713102e-38
0.037352379 -0.073999994 0.74000001 1.1981427e-38
0.038866669 -0.074199997 0.74199998 1.2256516e-38
0.040334284 -0.074300013 0.74300003 1.0686644e-38
0.041861907 -0.074500017 0.74500012 9.1193463e-39
0.043455236 -0.074800022 0.74799997 8.1062902e-39
0.044879999 -0.074800022 0.74800003 7.1879367e-39
0.046428572 -0.075000025 0.75000006 6.7291193e-39
-0.033571433 -0.073571451 0.75000006 6.5379289e-39
-0.032057147 -0.073375233 0.74800003 7.5420153e-39
-0.030509526 -0.073080964 0.74500006 1.0761992e-38
-0.029090479 -0.073080949 0.74500012 1.3900243e-38
-0.027597146 -0.072884761 0.74300003 1.5312633e-38
-0.026146669 -0.072786666 0.74199998 1.6662486e-38
-0.024666671 -0.072590478 0.74000001 8.3624364e-39
-0.023257146 -0.072590478 0.74000001 9.3664191e-41
-0.021818098 -0.072492398 0.73900002 5.5141795e-40
-0.02041048 -0.072492383 0.73899996 9.2449966e-40
-0.018951431 -0.07229621 0.73700005 7.549211e-39
-0.017547622 -0.072296195 0.73699999 1.4170729e-38
-0.016121909 -0.0721981 0.73600006 1.4641062e-38
-0.014680001 -0.072001897 0.73399997 1.4998661e-38
-0.013245715 -0.071805708 0.73200005 1.0745113e-38
-0.01183524 -0.071707644 0.73100001 6.5357653e-39
-0.010414287 -0.071511425 0.72900003 1.0043112e-38
-0.0090257153 -0.07151144 0.72900009 1.3447868e-38
-0.0076371431 -0.07151144 0.72900003 1.3461527e-38
-0.0062485719 -0.07151144 0.72900003 1.3440724e-38
-0.0048533338 -0.071413331 0.72800004 1.1891361e-38
-0.0034666671 -0.071413331 0.72800004 1.0321548e-38
-0.0020800005 -0.071413316 0.72800004 1.5685674e-38
-0.00069142866 -0.071217142 0.72599995 2.1006092e-38
0.00069142861 -0.071217157 0.72600001 2.0465541e-38
0.0020800002 -0.071413346 0.72800004 1.980727e-38
0.0034666669 -0.071413331 0.72800004 2.0279364e-38
0.0048533338 -0.071413316 0.72800004 2.0626926e-38
0.0062485724 -0.07151144 0.72900003 1.749837e-38
0.0076371436 -0.07151144 0.72900003 1.436376e-38
0.0090257162 -0.07151144 0.72900003 1.629804e-38
0.010414287 -0.07151144 0.72900009 1.8142365e-38
0.011786669 -0.071413316 0.72800004 1.869597e-38
0.013173335 -0.071413331 0.72800004 1.9145355e-38
0.014560002 -0.071413346 0.72800004 1.5428782e-38
0.01594667 -0.071413331 0.72800004 1.1707389e-38
0.017333336 -0.071413331 0.72800004 1.7631234e-38
0.018745715 -0.07151144 0.72900003 2.3413663e-38
0.02010667 -0.071413361 0.72800004 2.3325794e-38
0.021581909 -0.071707629 0.73099995 2.3230331e-38
0.023005718 -0.071805708 0.73199999 2.3325713e-38
0.024466671 -0.072001912 0.73400003 2.3397052e-38
0.025864765 -0.072001882 0.73400003 1.7228959e-38
0.027262861 -0.072001912 0.73400003 1.1058421e-38
0.02873905 -0.072198085 0.736 1.3733867e-38
0.030140955 -0.072198085 0.73600006 1.6311675e-38
0.03154286 -0.072198071 0.736 1.4569269e-38
0.032944765 -0.072198085 0.73600006 1.2795717e-38
0.034393333 -0.072296195 0.73699999 1.23258e-38
0.035894286 -0.072492383 0.73900002 1.1789501e-38
0.037453335 -0.072786681 0.74199998 1.2257652e-38
0.038866669 -0.072786666 0.74200004 1.2712849e-38
0.040442862 -0.073080964 0.74500006 1.1522181e-38
0.04203048 -0.073375247 0.74800003 1.0320766e-38
0.043571431 -0.073571451 0.75000006 8.6612506e-39
0.045000002 -0.073571451 0.75000006 7.0057146e-39
0.046428576 -0.073571451 0.75000006 6.915328e-39
-0.032057147 -0.071950488 0.74800003 5.9793798e-39
-0.030509528 -0.071661912 0.74500012 8.650151e-39
-0.029012384 -0.071469523 0.74300003 1.1333911e-38
-0.027597146 -0.071469538 0.74300003 1.3357962e-38
-0.026146671 -0.071373336 0.74200004 1.5462186e-38
-0.024666671 -0.071180947 0.74000001 1.1411279e-38
-0.023257146 -0.071180932 0.74000001 7.3475586e-39
-0.021818098 -0.07108476 0.73900002 4.8733811e-39
-0.02041048 -0.07108476 0.73899996 2.2962784e-39
-0.01900286 -0.07108476 0.73900002 5.33836e-39
-0.01754762 -0.070892386 0.73700005 8.3844255e-39
-0.016121907 -0.070796199 0.73600006 1.1608781e-38
-0.014680001 -0.070603825 0.73400003 1.4924086e-38
-0.01322762 -0.070315249 0.73099995 1.1135773e-38
-0.011835238 -0.070315249 0.73099995 7.3615603e-39
-0.010442857 -0.070315234 0.73099995 8.9292308e-39
-0.0090257153 -0.07012286 0.72900003 1.0596342e-38
-0.0076371436 -0.07012286 0.72900009 9.1177278e-39
-0.0062485724 -0.070122875 0.72900003 7.728723e-39
-0.0048533338 -0.070026673 0.72800004 7.8280974e-39
-0.0034666671 -0.070026658 0.72799999 8.0153543e-39
-0.0020828575 -0.07012286 0.72900003 1.0511053e-38
-0.00069142866 -0.069834284 0.72599995 1.3096471e-38
0.00069333345 -0.070026658 0.72800004 1.2255636e-38
0.0020828571 -0.070122845 0.72899997 1.1509478e-38
0.0034714285 -0.07012286 0.72900003 1.2156278e-38
0.0048600007 -0.07012286 0.72900009 1.2794407e-38
0.0062485724 -0.07012286 0.72900003 1.1228843e-38
0.0076371436 -0.070122875 0.72900003 9.6561641e-39
0.0090257162 -0.07012286 0.72900003 1.196461e-38
0.010414287 -0.07012286 0.72900003 1.4278505e-38
0.011786669 -0.070026673 0.72800004 1.603529e-38
0.013173335 -0.070026658 0.72800004 1.7786155e-38
0.014560002 -0.070026658 0.72800004 1.3154094e-38
0.015946668 -0.070026673 0.72799999 8.5649142e-39
0.017333334 -0.070026673 0.72800004 1.1344456e-38
0.018745715 -0.07012286 0.72900003 1.4222255e-38
0.020106668 -0.070026658 0.72800004 1.6515678e-38
0.021581907 -0.070315234 0.73099995 1.8818741e-38
0.023005717 -0.070411436 0.73199999 1.8904478e-38
0.024466669 -0.070603825 0.73400003 1.9001632e-38
0.025864763 -0.07060381 0.73400003 1.5846878e-38
0.027337145 -0.070796184 0.73600006 1.2782555e-38
0.02873905 -0.070796184 0.736 1.3164933e-38
0.030140955 -0.070796184 0.73600006 1.3648477e-38
0.031542856 -0.070796169 0.736 1.3547646e-38
0.032944761 -0.070796169 0.73600006 1.3426023e-38
0.034393337 -0.070892386 0.73700005 1.22343e-38
0.03589429 -0.07108476 0.73900002 1.1044761e-38
0.037352379 -0.071180932 0.74000001 1.0499505e-38
0.038761903 -0.071180962 0.74000007 9.9477631e-39
0.040334288 -0.071469523 0.74300003 1.0047838e-38
0.04203048 -0.071950503 0.74800003 1.0142859e-38
0.043571431 -0.072142862 0.75000006 8.2939087e-39
0.045120005 -0.072335236 0.75199997 6.4514856e-39
0.046552382 -0.072335236 0.75199997 6.544424e-39
0.048048574 -0.072431438 0.75300002 6.6369643e-39
0.049680002 -0.072720014 0.75600004 6.8199052e-39
-0.030427622 -0.0700543 0.74300003 6.5253831e-39
-0.028973337 -0.069960006 0.74199998 8.6563083e-39
-0.027560003 -0.069959991 0.74200004 1.1506849e-38
-0.026146671 -0.069960006 0.74199998 1.4279489e-38
-0.024666671 -0.069771431 0.74000001 1.4472484e-38
-0.023257146 -0.069771431 0.74000001 1.4639959e-38
-0.021818096 -0.069677137 0.73900002 9.2061862e-39
-0.020410478 -0.069677137 0.73899996 3.6878042e-39
-0.019002859 -0.069677152 0.73900002 3.1227978e-39
-0.01754762 -0.069488578 0.73699999 2.4990364e-39
-0.01614381 -0.069488563 0.73700005 8.6682319e-39
-0.014640001 -0.069017135 0.73200005 1.473542e-38
-0.013245715 -0.069017135 0.73199999 1.1421039e-38
-0.011835239 -0.06892287 0.73099995 8.1020148e-39
-0.010442858 -0.06892287 0.73099995 7.8993002e-39
-0.0090257153 -0.068734281 0.72900003 7.7242794e-39
-0.0076371436 -0.068734281 0.72900003 4.8677339e-39
-0.0062485724 -0.068734296 0.72900003 1.9336868e-39
-0.0048533343 -0.068639986 0.72800004 3.8604638e-39
-0.0034666671 -0.068639986 0.72800004 5.714369e-39
