# .PCD v0.7 - Point Cloud Data file format
VERSION 0.7
FIELDS x y z rgb
SIZE 4 4 4 4
TYPE F F F F
COUNT 1 1 1 1
WIDTH 972
HEIGHT 1
VIEWPOINT 0 0 0 1 0 0 0
POINTS 972
DATA ascii
-0.01618761 0.010557152 0.73900002 1.0561466e-38
-0.014740002 0.010528572 0.73700005 1.0928797e-38
-0.013318087 0.010514297 0.73600006 1.1296126e-38
-0.01191618 0.010514282 0.73600006 1.1571647e-38
-0.010485736 0.010485716 0.73400003 1.1939003e-38
-0.0090876194 0.010485716 0.73400003 1.2214513e-38
-0.007668552 0.010457166 0.73199999 1.2586882e-38
-0.0062742839 0.010457151 0.73200005 1.3041029e-38
-0.0048799599 0.010457166 0.73199999 1.2860219e-38
-0.0034856917 0.010457166 0.73200005 1.2765514e-38
-0.0020828536 0.010414287 0.72899997 1.2949183e-38
-0.00069332949 0.01039999 0.72800004 1.322469e-38
0.000693326 0.010399997 0.7280001 1.2857707e-38
0.002079987 0.01039999 0.72800004 1.2491116e-38
0.0034666443 0.010399982 0.7280001 1.0755959e-38
0.0048399987 0.010371447 0.72600001 9.0218594e-39
0.0062228674 0.010371439 0.72599995 8.5652042e-39
0.0075952476 0.010357164 0.72499996 8.1031401e-39
0.0089761904 0.010357149 0.72500002 1.0299283e-38
0.010371414 0.010371447 0.72600001 1.2399294e-38
0.011754282 0.010371447 0.72599995 1.3041415e-38
0.01311905 0.010357156 0.72500002 1.3683909e-38
0.014519989 0.010371439 0.72600001 1.4148472e-38
0.015880967 0.010357149 0.72500002 1.4531298e-38
0.017333344 0.010400005 0.72800004 1.4906949e-38
0.018720001 0.010399997 0.7280001 1.536936e-38
0.020106662 0.01039999 0.72800004 1.5645588e-38
0.021493319 0.010399997 0.72800004 1.5920382e-38
0.022880007 0.010399997 0.72800004 1.5553042e-38
0.024266664 0.01039999 0.7280001 1.5278614e-38
0.025688594 0.010414295 0.72900003 1.5370808e-38
0.027077148 0.010414287 0.72900003 1.5461562e-38
0.028465731 0.010414295 0.72899997 1.5277884e-38
0.029854285 0.010414295 0.72900003 1.5184968e-38
0.03132857 0.01044286 0.73100001 1.4910532e-38
0.032720942 0.010442853 0.73100007 1.463825e-38
0.034160044 0.010457158 0.73200005 1.4077547e-38
0.035748579 0.010514297 0.73600006 1.3616566e-38
0.037200946 0.010528579 0.73700005 1.2966174e-38
0.038709547 0.010557137 0.73900002 1.2316099e-38
0.040008578 0.010528572 0.73700005 1.1671764e-38
0.041580971 0.010571443 0.74000001 1.102639e-38
0.043106657 0.010600008 0.74200004 8.2781258e-39
0.044519968 0.010600001 0.74200004 5.5277217e-39
0.045995254 0.010614283 0.74300003 5.2493411e-39
0.047665741 0.010671452 0.74700004 4.8848928e-39
0.0491543 0.010685734 0.74800003 5.6228278e-39
0.050714277 0.0107143 0.75000006 6.3546321e-39
0.05228192 0.010742866 0.75200003 5.5284616e-39
0.053785693 0.010757141 0.75300008 4.6997771e-39
-0.027968565 0.012191452 0.75300002 9.5570839e-39
-0.026499061 0.01217524 0.75200003 1.0481883e-38
-0.024933329 0.012110487 0.74800003 1.084706e-38
-0.023477117 0.012094297 0.74700004 1.1116454e-38
-0.021995233 0.012061916 0.74500006 1.1663506e-38
-0.020520937 0.012029536 0.74300003 1.2122671e-38
-0.019080034 0.012013339 0.74200004 1.1387974e-38
-0.017595226 0.011964753 0.73900008 1.065329e-38
-0.016187629 0.011964753 0.73900008 1.0836961e-38
-0.01474001 0.011932388 0.73700005 1.1020625e-38
-0.013318091 0.011916205 0.73600006 1.1296126e-38
-0.01191618 0.011916213 0.73600006 1.1571644e-38
-0.010485726 0.011883825 0.73400003 1.1755326e-38
-0.0090876399 0.011883818 0.73400003 1.1938996e-38
-0.0076685371 0.011851445 0.73199999 1.2214501e-38
-0.006274269 0.011851445 0.73200005 1.2398168e-38
-0.004879971 0.011851452 0.73199999 1.2581836e-38
-0.0034857029 0.011851452 0.73200005 1.2765505e-38
-0.0020828461 0.011802867 0.72899997 1.3224683e-38
-0.00069426827 0.011802875 0.72900003 1.3683859e-38
0.00069333718 0.011786662 0.72800004 1.3132846e-38
0.0020799926 0.011786662 0.7280001 1.2585817e-38
0.0034666797 0.011786662 0.72800004 1.0757037e-38
0.004853311 0.011786662 0.72800004 8.9289491e-39
0.0062228581 0.011754297 0.72600001 8.5680769e-39
0.007605725 0.011754312 0.72599995 8.1953399e-39
0.0089885639 0.011754297 0.72600001 1.0301445e-38
0.010371433 0.011754297 0.72599995 1.2311406e-38
0.011754271 0.011754297 0.72600001 1.3225082e-38
0.013137138 0.011754304 0.72600001 1.405125e-38
0.014520007 0.011754304 0.72599995 1.4326765e-38
0.015902845 0.011754312 0.72600001 1.461847e-38
0.017333325 0.011786655 0.72800004 1.490623e-38
0.01871998 0.011786669 0.7280001 1.5183527e-38
0.0201343 0.011802867 0.72899997 1.5642344e-38
0.021493355 0.011786669 0.72800004 1.6012565e-38
0.022911463 0.011802875 0.72899997 1.573599e-38
0.024300016 0.011802867 0.72900003 1.536937e-38
0.0256886 0.011802875 0.72899997 1.5370449e-38
0.027077153 0.011802867 0.72900003 1.5371169e-38
0.028465737 0.011802875 0.72899997 1.5554486e-38
0.029936193 0.011835255 0.73100001 1.5647386e-38
0.031328563 0.01183524 0.73100007 1.5095646e-38
0.032720964 0.01183524 0.73100001 1.4537775e-38
0.034346666 0.011916213 0.73600006 1.3139754e-38
0.035748601 0.011916205 0.73600006 1.1763291e-38
0.037200939 0.011932395 0.73700005 1.1755392e-38
0.03860477 0.011932395 0.73699999 1.1758607e-38
0.040117156 0.011964761 0.73900002 1.1480573e-38
0.041580979 0.011980966 0.74000001 1.1212232e-38
0.043106657 0.012013346 0.74200004 8.3710614e-39
0.044519991 0.012013346 0.74200004 5.5252428e-39
0.045995276 0.012029521 0.74299997 5.3336853e-39
0.047665745 0.012094297 0.74699998 5.0664436e-39
0.049154293 0.012110487 0.74800003 6.3672214e-39
0.050714288 0.012142867 0.75000006 7.5531823e-39
0.052281927 0.01217524 0.75200003 6.08022e-39
0.053785723 0.012191437 0.75300002 4.5179222e-39
-0.030919049 0.013661914 0.75500005 8.0851474e-39
-0.029480958 0.013661921 0.75500005 8.4506887e-39
-0.027968565 0.013625719 0.75300002 9.1867992e-39
-0.026499053 0.013607614 0.75200003 9.9211427e-39
-0.024999989 0.013571441 0.75 1.0381415e-38
-0.023477117 0.013517156 0.74700004 1.0746229e-38
-0.021995228 0.013480954 0.74500006 1.1112836e-38
-0.020520916 0.013444766 0.74299997 1.1479811e-38
-0.019080007 0.013426676 0.7420001 1.1020624e-38
-0.017619045 0.013390489 0.74000001 1.0561445e-38
-0.016187619 0.013372377 0.73900002 1.0836949e-38
-0.014740014 0.013336197 0.73700005 1.1112814e-38
-0.013318089 0.013318114 0.73600006 1.1387962e-38
-0.011916184 0.013318114 0.73600006 1.1663477e-38
-0.010485721 0.013281927 0.73400003 1.1847155e-38
-0.0090876324 0.013281919 0.73400003 1.2122655e-38
-0.0076685464 0.013245739 0.73199999 1.2306319e-38
-0.0062742783 0.013245724 0.73199999 1.2581827e-38
-0.0048799543 0.013245739 0.73199999 1.2673663e-38
-0.0034856861 0.013245732 0.73200005 1.2857334e-38
-0.002082848 0.013191432 0.72900003 1.3041003e-38
-0.00069426454 0.013191447 0.72899997 1.3316508e-38
0.00069428899 0.013191432 0.72900003 1.2858047e-38
0.0020828722 0.013191432 0.72899997 1.2492901e-38
0.0034714257 0.013191447 0.72900003 1.0757397e-38
0.0048533464 0.013173334 0.72800004 9.0218622e-39
0.0062400037 0.013173327 0.72800004 8.4740904e-39
0.0076266648 0.013173342 0.72800004 8.0127507e-39
0.0089885788 0.013137162 0.72599995 1.0208183e-38
0.010400009 0.013173334 0.72800004 1.2401451e-38
0.011786666 0.013173319 0.72800004 1.3225794e-38
0.013137125 0.013137154 0.72600001 1.4143084e-38
0.014559984 0.013173327 0.72800004 1.4424341e-38
0.015946673 0.013173342 0.72800004 1.4709947e-38
0.017333331 0.013173327 0.7280001 1.4995551e-38
0.018720016 0.013173327 0.72800004 1.5274637e-38
0.020134298 0.013191424 0.72900003 1.5553363e-38
0.021493336 0.013173334 0.72800004 1.5925024e-38
0.022879994 0.013173319 0.7280001 1.5644508e-38
0.024300022 0.013191439 0.72899997 1.5367215e-38
0.025688574 0.013191439 0.72900003 1.5184984e-38
0.027151441 0.013227634 0.73100001 1.5098543e-38
0.028543813 0.013227627 0.73100001 1.5004926e-38
0.029936215 0.013227627 0.73100001 1.5008857e-38
0.031328585 0.013227604 0.73100001 1.4449935e-38
0.032765724 0.013245739 0.73200005 1.3991396e-38
0.034346692 0.013318107 0.73600006 1.3055026e-38
0.035748597 0.013318114 0.73600006 1.2122678e-38
0.037150506 0.013318129 0.736 1.222276e-38
0.038604766 0.013336204 0.73699999 1.2309237e-38
0.040008567 0.013336197 0.73700005 1.2138144e-38
0.041524787 0.013372377 0.73900002 1.195088e-38
0.043106657 0.013426669 0.74200004 8.9238904e-39
0.044519991 0.013426676 0.74200004 5.8983567e-39
0.045995265 0.013444774 0.74300003 4.5093602e-39
0.047665749 0.013517171 0.74699998 3.220799e-39
0.049154293 0.013535254 0.74800003 3.6885903e-39
0.050714277 0.013571434 0.75000006 4.2478485e-39
0.052281931 0.013607629 0.75200003 3.6885777e-39
0.053714309 0.013607621 0.75200003 3.1400534e-39
-0.030919023 0.01510001 0.75500005 8.0858509e-39
-0.029480932 0.01510001 0.755 8.3595623e-39
-0.027968591 0.015060008 0.75300002 8.9102165e-39
-0.02649905 0.015040003 0.75200003 9.3690521e-39
-0.025066674 0.01504001 0.75200003 9.9197218e-39
-0.023477115 0.014940023 0.74700004 1.0378539e-38
-0.021995243 0.014900006 0.74500006 1.0653327e-38
-0.020520924 0.014860012 0.74300003 1.083698e-38
-0.01910569 0.014860004 0.74300003 1.0653292e-38
-0.017619038 0.014800012 0.74000001 1.0469615e-38
-0.016187606 0.014780007 0.73900002 1.0836951e-38
-0.014739995 0.014740005 0.73700005 1.1112459e-38
-0.013318093 0.014720015 0.73600006 1.1387967e-38
-0.011916158 0.014720015 0.73600006 1.1663481e-38
-0.010485741 0.014680013 0.73400003 1.1938994e-38
-0.009087625 0.014680021 0.73400003 1.2214494e-38
-0.0076685315 0.014640011 0.73199999 1.2489993e-38
-0.0062742634 0.014640011 0.73200005 1.2673664e-38
-0.0048799952 0.014640018 0.73200005 1.2857337e-38
-0.0034856955 0.014640018 0.73199999 1.2949179e-38
-0.0020828443 0.014580011 0.72900003 1.2949188e-38
-0.00069617375 0.014619999 0.73100001 1.2857346e-38
0.00069429458 0.014580011 0.72900003 1.2673671e-38
0.0020828778 0.014580011 0.72899997 1.2402507e-38
0.0034714313 0.014580019 0.72899997 1.075704e-38
0.0048600147 0.014580026 0.72899997 9.0211531e-39
0.0062399851 0.014559992 0.7280001 8.3847829e-39
0.0076266723 0.014559992 0.72800004 7.7361737e-39
0.0090133296 0.014559984 0.7280001 1.0116702e-38
0.01039999 0.014560007 0.72800004 1.2403243e-38
0.011786647 0.014559992 0.7280001 1.3316556e-38
0.013173334 0.014559992 0.72800004 1.4144862e-38
0.014560021 0.014559999 0.72800004 1.4517578e-38
0.015946653 0.014559999 0.72800004 1.4802831e-38
0.017357167 0.014580019 0.72900003 1.5090955e-38
0.01874575 0.014580019 0.72899997 1.5274976e-38
0.020134304 0.014580004 0.72900003 1.555478e-38
0.021493316 0.014559984 0.72800004 1.573595e-38
0.022911441 0.014580011 0.72900003 1.5549779e-38
0.024300024 0.014580019 0.72899997 1.5268166e-38
0.02575906 0.014620014 0.73100001 1.5087355e-38
0.027151432 0.014619999 0.73100001 1.4814016e-38
0.028543834 0.014620014 0.73100001 1.4541037e-38
0.029936206 0.014619999 0.73100001 1.4261226e-38
0.031371471 0.014640011 0.73199999 1.3795234e-38
0.032855239 0.014680013 0.73399997 1.3341042e-38
0.034346666 0.014720015 0.73600006 1.2966489e-38
0.035748601 0.014720015 0.73600006 1.2511624e-38
0.037150506 0.014720015 0.73600006 1.2703913e-38
0.038604785 0.01474002 0.73699999 1.2799348e-38
0.040008586 0.014740005 0.73700005 1.2811199e-38
0.041524742 0.014779985 0.73900008 1.2702445e-38
0.042990509 0.014800012 0.74000001 9.4752327e-39
0.044400029 0.014800012 0.74000001 6.1673892e-39
0.045995258 0.014860004 0.74300003 3.7682149e-39
0.047665719 0.014940016 0.74700004 1.2882837e-39
0.049154315 0.014960013 0.74800003 1.1024463e-39
0.050714295 0.015000015 0.75 8.330313e-40
0.052351426 0.01506 0.75300008 1.2864607e-39
0.053785697 0.015060015 0.75300008 1.7499457e-39
-0.030959999 0.016559988 0.75600004 8.176236e-39
-0.029480914 0.016538113 0.75500005 8.5425088e-39
-0.027968561 0.016494304 0.75300002 9.0016933e-39
-0.026499044 0.016472377 0.75200003 9.4601673e-39
-0.024999987 0.016428597 0.75000006 9.8275233e-39
-0.023477111 0.016362883 0.74699998 1.0285997e-38
-0.021995233 0.016319059 0.74500006 1.0561516e-38
-0.020576207 0.016319059 0.74500006 1.0836998e-38
-0.019105697 0.016275235 0.74300003 1.06533e-38
-0.017619036 0.01620952 0.74000001 1.0561456e-38
-0.016187625 0.016187616 0.73900008 1.0836954e-38
-0.01474 0.016143821 0.73700005 1.1112464e-38
-0.013336199 0.016143814 0.73700005 1.1479807e-38
-0.011916188 0.016121916 0.73600006 1.175532e-38
-0.010485734 0.0160781 0.73400003 1.2030833e-38
-0.0090876175 0.016078122 0.73399997 1.2306332e-38
-0.007689531 0.016078115 0.73400003 1.2489996e-38
-0.0062742708 0.016034305 0.73199999 1.2765503e-38
-0.0048799766 0.016034298 0.73200005 1.2857338e-38
-0.0034856787 0.016034305 0.73199999 1.294919e-38
-0.0020885533 0.016012393 0.73100001 1.285737e-38
-0.00069620728 0.016012385 0.73100007 1.2857363e-38
0.00069429644 0.015968584 0.72899997 1.2674401e-38
0.0020828499 0.015968576 0.72900003 1.2492915e-38
0.0034714593 0.015968576 0.72899997 1.0757759e-38
0.0048600128 0.015968584 0.72900003 9.0222391e-39
0.0062399963 0.015946664 0.72800004 8.5652407e-39
0.0076371497 0.015968576 0.72900003 8.011327e-39
0.0090133389 0.015946664 0.72800004 1.0299291e-38
0.010414288 0.015968576 0.72900003 1.258476e-38
0.011802872 0.015968584 0.72899997 1.304177e-38
0.013173315 0.015946664 0.72800004 1.359204e-38
0.014560002 0.015946656 0.72800004 1.4332079e-38
0.015968589 0.015968569 0.72900003 1.5075799e-38
0.017357172 0.015968591 0.72899997 1.5367876e-38
0.018745726 0.015968584 0.72900003 1.5637995e-38
0.020134309 0.015968576 0.72899997 1.4725371e-38
0.021522863 0.015968584 0.72900003 1.3802002e-38
0.022911444 0.015968584 0.72899997 1.3240236e-38
0.024299998 0.015968576 0.72900003 1.2680589e-38
0.025759052 0.016012385 0.73100001 1.3611475e-38
0.027151454 0.016012385 0.73100001 1.462025e-38
0.028543826 0.016012378 0.73100001 1.4353371e-38
0.029977165 0.016034305 0.73200005 1.3974927e-38
0.031371459 0.016034305 0.73199999 1.3527606e-38
0.032855216 0.016078107 0.73400003 1.2978033e-38
0.034346689 0.016121916 0.73600006 1.279903e-38
0.035748597 0.016121916 0.73600006 1.2712595e-38
0.037150506 0.016121931 0.736 1.2994936e-38
0.038604751 0.016143821 0.73700005 1.3281566e-38
0.040008582 0.016143821 0.73700005 1.3090364e-38
0.041524757 0.016187616 0.73900002 1.2898336e-38
0.042990491 0.016209543 0.73999995 9.3905424e-39
0.04458002 0.016275242 0.74300003 5.9872887e-39
0.046119023 0.016319051 0.74500006 3.6810373e-39
0.047729548 0.016384758 0.74800003 1.4697785e-39
0.049154285 0.016384773 0.74800003 1.7488401e-39
0.050849512 0.016472392 0.75200003 2.1129451e-39
0.052351426 0.016494296 0.75300002 2.6675356e-39
0.05378573 0.016494282 0.75300002 3.215348e-39
-0.03091904 0.017976202 0.75500005 8.2673625e-39
-0.029402858 0.017928585 0.75300002 8.7261868e-39
-0.027931413 0.017904773 0.75200003 9.0931743e-39
-0.026499037 0.017904766 0.75200003 9.4605219e-39
-0.024999997 0.017857142 0.75000006 9.827152e-39
-0.023508573 0.017809525 0.74800003 1.0194137e-38
-0.022054242 0.017785735 0.74700004 1.0469645e-38
-0.0205762 0.017738104 0.74500006 1.074514e-38
-0.019105673 0.017690495 0.74300003 1.0653295e-38
-0.017619025 0.017619066 0.73999995 1.0561467e-38
-0.016187612 0.017595232 0.73900008 1.0836982e-38
-0.014740006 0.01754763 0.73700005 1.1112846e-38
-0.013336203 0.017547622 0.73700005 1.1479829e-38
-0.011916162 0.017523825 0.73600006 1.1847176e-38
-0.010514283 0.017523825 0.73600006 1.2122688e-38
-0.0090876361 0.017476209 0.73400003 1.2306347e-38
-0.0076895198 0.017476216 0.73399997 1.2581841e-38
-0.0062742559 0.017428592 0.73199999 1.2765505e-38
-0.0048799878 0.017428592 0.73200005 1.2857335e-38
-0.0034856899 0.017428592 0.73199999 1.2949182e-38
-0.002088557 0.017404765 0.73100001 1.2857359e-38
-0.00069618493 0.017404772 0.73100001 1.2765525e-38
0.00069429644 0.017357148 0.72900003 1.2673691e-38
0.0020828797 0.017357148 0.72900003 1.249507e-38
0.0034714332 0.017357133 0.72900003 1.0759193e-38
0.0048600165 0.017357148 0.72900003 9.0215133e-39
0.00624857 0.017357148 0.72900003 8.6588544e-39
0.0076371534 0.017357148 0.72899997 8.2864524e-39
0.0090257069 0.017357148 0.72900003 1.0576205e-38
0.010414291 0.017357148 0.72899997 1.2770917e-38
0.011802871 0.017357148 0.72900003 1.2857359e-38
0.013173349 0.017333344 0.72800004 1.2949211e-38
0.01455998 0.017333329 0.72800004 1.414309e-38
0.015968591 0.017357148 0.72899997 1.5275328e-38
0.017357145 0.017357156 0.72900003 1.5667143e-38
0.01874573 0.017357163 0.72899997 1.5935434e-38
0.020134283 0.017357148 0.72900003 1.3906046e-38
0.021522867 0.017357163 0.72899997 1.1874176e-38
0.02291142 0.017357148 0.72900003 1.0928906e-38
0.024366673 0.017404765 0.73100001 1.0029228e-38
0.025759077 0.017404772 0.73100001 1.2241553e-38
0.027151449 0.017404765 0.73100001 1.4457451e-38
0.028543849 0.017404772 0.73100001 1.4093345e-38
0.029936196 0.017404765 0.73100001 1.3725299e-38
0.031371448 0.017428592 0.73200005 1.3177889e-38
0.032855224 0.017476209 0.73400003 1.2625437e-38
0.034346685 0.017523825 0.73600006 1.2722649e-38
0.035748594 0.017523825 0.736 1.2815222e-38
0.037200969 0.017547615 0.73700005 1.3280878e-38
0.03860477 0.017547622 0.73700005 1.3647848e-38
0.040008578 0.017547637 0.73699999 1.3370536e-38
0.041524768 0.017595239 0.73900002 1.3077343e-38
0.043106649 0.017666683 0.74200004 9.3848013e-39
0.044699986 0.017738082 0.74500006 5.7067404e-39
0.046304781 0.017809525 0.74800003 3.6827945e-39
0.047729518 0.017809518 0.74800003 1.5702012e-39
0.04928574 0.017857157 0.75 2.4932014e-39
0.05091713 0.017928578 0.75300002 3.4097571e-39
0.052351426 0.017928578 0.75300002 4.05583e-39
-0.030837156 0.019362859 0.75300002 8.3595651e-39
-0.029402858 0.019362867 0.75300002 8.8176692e-39
-0.027931431 0.019337155 0.75200003 9.185014e-39
-0.026499029 0.019337155 0.75200003 9.5527119e-39
-0.025000012 0.019285724 0.75000006 9.8274981e-39
-0.023508547 0.019234292 0.74800003 1.0194111e-38
-0.022054238 0.01920858 0.74700004 1.0469607e-38
-0.020576213 0.019157149 0.74500006 1.0745119e-38
-0.019105684 0.019105725 0.74300003 1.083696e-38
-0.017666679 0.019080006 0.74200004 1.0928821e-38
-0.016187599 0.019002862 0.73900002 1.1300134e-38
-0.014780005 0.019002847 0.73900002 1.1664243e-38
-0.013336183 0.018951431 0.73700005 1.1851138e-38
-0.011932381 0.018951431 0.73700005 1.2122703e-38
-0.01052855 0.018951431 0.73700005 1.2401442e-38
-0.0090876305 0.018874295 0.73400003 1.2673703e-38
-0.0076895421 0.018874303 0.73400003 1.2765522e-38
-0.0062914239 0.01887431 0.73400003 1.2857345e-38
-0.004879971 0.018822871 0.73200005 1.2949166e-38
-0.0034856731 0.018822871 0.73199999 1.304101e-38
-0.0020885663 0.018797144 0.73100001 1.2949183e-38
-0.00069619424 0.018797129 0.73100007 1.2857358e-38
0.00069620751 0.018797152 0.73100001 1.2674414e-38
0.0020885793 0.018797144 0.73100007 1.2584757e-38
0.0034714388 0.018745713 0.72900003 1.0758117e-38
0.0048600221 0.018745728 0.72899997 8.930747e-39
0.0062485756 0.018745728 0.72900003 8.5648511e-39
0.007637159 0.018745728 0.72899997 8.1945958e-39
0.0090257125 0.018745728 0.72900003 1.0391428e-38
0.010414322 0.018745728 0.72899997 1.2677979e-38
0.011802875 0.01874572 0.72900003 1.2858411e-38
0.01317333 0.018719994 0.72800004 1.3041066e-38
0.014559987 0.018720001 0.7280001 1.4799633e-38
0.015968597 0.018745728 0.72899997 1.6673741e-38
0.01735715 0.018745735 0.72900003 1.7699804e-38
0.018745733 0.018745743 0.72899997 1.8713869e-38
0.020134287 0.018745728 0.72900003 1.5392293e-38
0.021522895 0.018745735 0.72899997 1.2073632e-38
0.022911448 0.01874572 0.72900003 1.0771047e-38
0.024366694 0.018797152 0.73100001 9.5004869e-39
0.025759066 0.018797137 0.73100001 1.2448618e-38
0.027151443 0.018797152 0.73100001 1.5405647e-38
0.028543817 0.018797144 0.73100001 1.4753467e-38
0.029977171 0.018822871 0.73200005 1.4206053e-38
0.031371437 0.018822886 0.73200005 1.3093992e-38
0.032944776 0.018925726 0.73600006 1.1989801e-38
0.034346685 0.018925726 0.73600006 1.2357847e-38
0.03574859 0.018925734 0.73600006 1.2728798e-38
0.037200961 0.018951431 0.73700005 1.3280192e-38
0.038604762 0.018951431 0.73700005 1.392373e-38
0.04011713 0.019002855 0.73900002 1.336408e-38
0.041580986 0.019028597 0.74000001 1.2798249e-38
0.043106671 0.019080006 0.74200004 1.0858473e-38
0.044820014 0.019208595 0.74700004 9.0070603e-39
0.046304751 0.019234277 0.74800003 7.9143656e-39
0.047857147 0.019285731 0.75 6.8080306e-39
0.049285728 0.019285731 0.75 6.2616756e-39
0.051052395 0.019414298 0.75500005 5.7117388e-39
0.052699056 0.019491434 0.75800002 4.4210196e-39
-0.030960003 0.020879999 0.75600004 8.5435864e-39
-0.029402854 0.020797148 0.75300002 8.8183754e-39
-0.027931426 0.020769522 0.75200003 9.185e-39
-0.02649905 0.020769536 0.75200003 9.5523504e-39
-0.024999997 0.020714298 0.75000006 9.9193406e-39
-0.023508577 0.020659059 0.74800003 1.0194477e-38
-0.022054235 0.020631447 0.74700004 1.0469614e-38
-0.020576201 0.020576186 0.74500012 1.0745131e-38
-0.019105693 0.020520963 0.74300003 1.1020649e-38
-0.017619012 0.020438105 0.74000001 1.1208282e-38
-0.01618761 0.020410478 0.73900002 1.1678238e-38
-0.014779993 0.020410486 0.73900002 1.2135627e-38
-0.01333619 0.020355247 0.73700005 1.2321815e-38
-0.011932389 0.02035524 0.73700005 1.2407545e-38
-0.010528554 0.020355254 0.73700005 1.277811e-38
-0.0091247531 0.020355247 0.73700005 1.3048933e-38
-0.0076895347 0.020272389 0.73400003 1.2949185e-38
-0.0062914481 0.020272397 0.73400003 1.2857339e-38
-0.0048799822 0.020217158 0.73200005 1.2949166e-38
-0.0034857141 0.020217165 0.73200005 1.3041006e-38
-0.0020885421 0.020189531 0.73100001 1.2949176e-38
-0.00069617003 0.020189524 0.73100001 1.2857345e-38
0.00069620193 0.020189531 0.73100007 1.2765514e-38
0.0020885775 0.020189531 0.73100001 1.2678015e-38
0.0034714406 0.020134293 0.72899997 1.0758112e-38
0.0048599942 0.0201343 0.72900003 8.7463571e-39
0.0062485794 0.020134307 0.72899997 8.3826207e-39
0.007637159 0.020134293 0.72900003 8.01022e-39
0.0090257423 0.0201343 0.72899997 1.0300331e-38
0.010414296 0.020134293 0.72900003 1.2495757e-38
0.011802879 0.020134293 0.72899997 1.2857342e-38
0.013191433 0.0201343 0.72900003 1.3134008e-38
0.014580016 0.0201343 0.72899997 1.5524684e-38
0.01596857 0.020134293 0.72900003 1.7962345e-38
0.017357154 0.020134307 0.72899997 1.9743527e-38
0.018745707 0.020134293 0.72900003 2.1476506e-38
0.020134317 0.0201343 0.72899997 1.6876064e-38
0.021581914 0.020189524 0.73100007 1.2257708e-38
0.022974316 0.020189516 0.73100001 1.0581318e-38
0.024366662 0.020189539 0.73100001 8.9512956e-39
0.025759064 0.020189531 0.73100001 1.2645938e-38
0.027151436 0.020189524 0.73100001 1.6321149e-38
0.028582862 0.020217158 0.73200005 1.5492476e-38
0.02997716 0.020217158 0.73199999 1.4570532e-38
0.031457148 0.020272389 0.73400003 1.2909958e-38
0.032944776 0.020327643 0.73600006 1.1255836e-38
0.034393322 0.020355254 0.73700005 1.1990514e-38
0.035797127 0.02035524 0.73700005 1.2635168e-38
0.037200958 0.02035524 0.73700005 1.3370941e-38
0.038709547 0.020410478 0.73900002 1.4104174e-38
0.040117141 0.020410478 0.73900002 1.3271183e-38
0.04158099 0.020438112 0.74000001 1.2434884e-38
0.043106642 0.020493336 0.7420001 1.2427257e-38
0.044820018 0.020631455 0.74700004 1.2340793e-38
0.046304774 0.020659059 0.74800003 1.2159982e-38
0.047857162 0.020714305 0.75000006 1.1971652e-38
0.049285717 0.020714305 0.75000006 9.9415904e-39
0.050714299 0.020714298 0.75000006 7.9208438e-39
-0.030960018 0.022319995 0.75600004 8.5439353e-39
-0.029402854 0.022231437 0.75300002 8.9105585e-39
-0.027931422 0.022201911 0.75200003 9.2771802e-39
-0.026499046 0.022201918 0.75200003 9.6438229e-39
-0.024999978 0.02214288 0.75 9.9193476e-39
-0.02350858 0.022083811 0.74800003 1.0285961e-38
-0.022054233 0.022054315 0.74699998 1.0561455e-38
-0.020576192 0.021995239 0.74500006 1.0836978e-38
-0.019105671 0.021936201 0.74299997 1.111286e-38
-0.017666681 0.021906681 0.74200004 1.1389091e-38
-0.016209515 0.021847621 0.74000001 1.1862625e-38
-0.014779981 0.021818094 0.73900002 1.2419034e-38
-0.013372361 0.021818101 0.73900002 1.2503711e-38
-0.011964765 0.021818094 0.73900002 1.268342e-38
-0.010528562 0.021759056 0.73699999 1.3242667e-38
-0.0091123534 0.021729529 0.73600006 1.3886209e-38
-0.0077104727 0.021729536 0.73600006 1.3509516e-38
-0.0062914388 0.021670476 0.73400003 1.3132842e-38
-0.0048933225 0.021670491 0.73399997 1.3041001e-38
-0.0034856973 0.021611452 0.73200005 1.3041003e-38
-0.0020885514 0.021581918 0.73100001 1.3041005e-38
-0.00069620542 0.021581903 0.73100007 1.3041003e-38
0.00069619634 0.021581911 0.73100001 1.2857688e-38
0.0020885682 0.021581896 0.73100007 1.2674415e-38
0.0034714164 0.021522857 0.72900003 1.0758463e-38
0.0048599998 0.021522872 0.72899997 8.7499444e-39
0.0062657436 0.021581911 0.73100001 8.4733856e-39
0.0076371627 0.021522872 0.72900003 8.1935463e-39
0.0090257162 0.021522872 0.72900003 1.0390753e-38
0.0104143 0.021522872 0.72900003 1.2585454e-38
0.011802852 0.021522857 0.72900003 1.2858424e-38
0.013191435 0.02152288 0.72899997 1.3132961e-38
0.014619984 0.021581903 0.73100007 1.5543749e-38
0.015968574 0.021522872 0.72899997 1.7979245e-38
0.017357154 0.021522865 0.72900003 1.946123e-38
0.018797161 0.021581911 0.73100001 2.092912e-38
0.020189535 0.021581896 0.73100007 1.6503036e-38
0.021581937 0.021581911 0.73100001 1.1978662e-38
0.022974283 0.021581911 0.73100001 1.0592119e-38
0.024366684 0.021581911 0.73100001 9.2304174e-39
0.025759056 0.021581911 0.73100001 1.2550173e-38
0.027151458 0.021581911 0.73100001 1.5954543e-38
0.028582878 0.021611445 0.73200005 1.5124793e-38
0.030059041 0.021670491 0.73400003 1.429575e-38
0.031457156 0.021670491 0.73400003 1.3003583e-38
0.032944802 0.021729544 0.736 1.1806134e-38
0.034393344 0.021759063 0.73700005 1.2174194e-38
0.035797145 0.021759056 0.73700005 1.2633731e-38
0.037200976 0.021759056 0.73700005 1.3278016e-38
0.038709503 0.021818087 0.73900008 1.3830105e-38
0.040171456 0.021847643 0.74000001 1.3088604e-38
0.041693304 0.021906681 0.74200004 1.2435991e-38
0.043164786 0.021936186 0.74300003 1.382062e-38
0.044580046 0.021936193 0.74299997 1.52175e-38
0.046304774 0.022083819 0.74800003 1.5301778e-38
0.047729537 0.022083804 0.74800003 1.5394704e-38
0.049285706 0.022142865 0.75 1.4284083e-38
0.050714288 0.022142872 0.75000006 1.3182043e-38
0.052838098 0.022438101 0.76000005 1.1426392e-38
0.054357175 0.022467643 0.76099998 9.7733309e-39
0.055806663 0.022467628 0.76100004 9.2136845e-39
-0.032485723 0.023822866 0.75800002 8.2687974e-39
-0.030960001 0.023760006 0.75600004 8.6361366e-39
-0.029402878 0.023665719 0.75300002 9.0023982e-39
-0.027931415 0.023634292 0.75200003 9.3690185e-39
-0.026499039 0.023634307 0.75200003 9.6438159e-39
-0.024999989 0.023571447 0.75 1.0011168e-38
-0.023508554 0.023508579 0.74800003 1.0378147e-38
-0.022054262 0.023477152 0.74700004 1.065329e-38
-0.020576181 0.023414284 0.74500006 1.083697e-38
-0.019105675 0.023351431 0.74300003 1.1204319e-38
-0.017666684 0.023320012 0.74200004 1.1486316e-38
-0.016209507 0.023257144 0.74000001 1.2147852e-38
-0.014799963 0.023257166 0.73999995 1.2696001e-38
-0.013372405 0.02322571 0.73900008 1.277385e-38
-0.011964756 0.02322571 0.73900002 1.2871795e-38
-0.010528541 0.023162864 0.73699999 1.3807022e-38
-0.0091123534 0.023131445 0.736 1.4720307e-38
-0.0076895477 0.023068585 0.73400003 1.4070236e-38
-0.0062914314 0.023068585 0.73400003 1.3417335e-38
-0.0048933448 0.023068585 0.73400003 1.3224687e-38
-0.0034857066 0.023005746 0.73200005 1.2949175e-38
-0.002088557 0.02297429 0.73100001 1.3041005e-38
-0.00069618493 0.02297429 0.73100001 1.3132846e-38
0.00069618889 0.022974283 0.73100007 1.2949182e-38
0.0020885905 0.02297429 0.73100001 1.2679086e-38
0.0034714462 0.022911429 0.72900003 1.075954e-38
0.0048600296 0.022911444 0.72899997 8.7474249e-39
0.0062485831 0.022911437 0.72900003 8.5666392e-39
0.0076581119 0.022974283 0.73100001 8.377192e-39
0.0090504838 0.022974297 0.73100001 1.0575468e-38
0.010442887 0.02297429 0.73100001 1.2678345e-38
0.011835258 0.022974283 0.73100001 1.2949175e-38
0.013227634 0.022974297 0.73100001 1.3137263e-38
0.014620006 0.022974297 0.73100001 1.5538014e-38
0.015968604 0.022911444 0.72899997 1.7879519e-38
0.017357158 0.022911429 0.72900003 1.9193257e-38
0.018797154 0.02297429 0.73100007 2.0374522e-38
0.020189555 0.02297429 0.73100001 1.6044221e-38
0.021581901 0.02297429 0.73100001 1.1704592e-38
0.022974303 0.022974297 0.73100001 1.057741e-38
0.024400033 0.023005746 0.73200005 9.5026995e-39
0.025794303 0.023005731 0.73200005 1.2552693e-38
0.027188601 0.023005731 0.73199999 1.5493577e-38
0.028582869 0.023005731 0.73200005 1.4756019e-38
0.030059051 0.023068585 0.73400003 1.4018811e-38
0.031542893 0.02313146 0.73600006 1.3186179e-38
0.032989535 0.023162864 0.73699999 1.2266387e-38
0.034393337 0.023162872 0.73700005 1.2449695e-38
0.035797138 0.023162864 0.73700005 1.2633729e-38
0.03730192 0.023225725 0.73900002 1.3093628e-38
0.038761947 0.023257151 0.73999995 1.3553158e-38
0.040171463 0.023257166 0.74000001 1.3000705e-38
0.041749578 0.023351438 0.74299997 1.2350275e-38
0.043280948 0.023414291 0.74500006 1.5201433e-38
0.044880006 0.023508579 0.74800003 1.8061236e-38
0.04642858 0.023571439 0.75000006 1.8434308e-38
0.047984768 0.023634292 0.75200003 1.8706958e-38
0.049417142 0.023634292 0.75200003 1.8618006e-38
0.050849546 0.023634285 0.75200003 1.842966e-38
0.052838098 0.023885727 0.76000005 1.8157372e-38
0.05435716 0.023917161 0.76100004 1.7873961e-38
-0.034063786 0.025366686 0.76099998 7.2589741e-39
-0.03248569 0.02526667 0.75799996 8.3617161e-39
-0.030959986 0.025200002 0.75600004 8.7279791e-39
-0.029480962 0.025166683 0.75500005 9.0935204e-39
-0.027968576 0.025100023 0.75300002 9.3686611e-39
-0.026534276 0.025100015 0.75300002 9.7352871e-39
-0.025066655 0.025066681 0.75200003 1.0102629e-38
-0.023571419 0.025000013 0.75 1.0469617e-38
-0.022083821 0.024933338 0.74800003 1.065329e-38
-0.020576196 0.024833344 0.74500006 1.0929154e-38
-0.019157143 0.024833329 0.74500006 1.1112465e-38
-0.01766666 0.024733342 0.74200004 1.1296196e-38
-0.016253352 0.024733335 0.74200004 1.2236135e-38
-0.014840018 0.024733342 0.74200004 1.316704e-38
-0.013390466 0.024666674 0.74000001 1.324488e-38
-0.011964773 0.024633326 0.73900008 1.3324558e-38
-0.010528577 0.024566673 0.73700005 1.389785e-38
-0.0091123572 0.024533361 0.73600006 1.4545649e-38
-0.0076895421 0.024466686 0.73400003 1.4073844e-38
-0.0062914239 0.024466686 0.73399997 1.3608557e-38
-0.0048933355 0.024466679 0.73400003 1.3320843e-38
-0.0034856917 0.024400018 0.73200005 1.3132853e-38
-0.0020885644 0.024366669 0.73100001 1.3408345e-38
-0.00069619238 0.024366662 0.73100007 1.3683867e-38
0.00069620938 0.024366677 0.73100001 1.3042468e-38
0.0020885812 0.024366669 0.73100007 1.2495782e-38
0.0034809569 0.024366669 0.73100001 1.0668779e-38
0.0048733288 0.024366662 0.73100001 8.841403e-39
0.0062657306 0.024366669 0.73100001 8.6570215e-39
0.0076581044 0.024366669 0.73100001 8.4682848e-39
0.009050508 0.024366669 0.73100001 1.066476e-38
0.010442854 0.024366677 0.73100001 1.2858407e-38
0.011835256 0.024366677 0.73100001 1.2765853e-38
0.013191441 0.024300009 0.72900003 1.2673778e-38
0.01462 0.024366654 0.73100007 1.5364749e-38
0.016012402 0.024366669 0.73100001 1.8072161e-38
0.017404774 0.024366654 0.73100007 1.9185006e-38
0.01879715 0.024366654 0.73100001 2.0372371e-38
0.020189522 0.024366669 0.73100001 1.5858044e-38
0.021581924 0.024366669 0.73100001 1.1340839e-38
0.022974296 0.024366662 0.73100001 1.0687181e-38
0.024400024 0.024400026 0.73199999 1.0058379e-38
0.025794292 0.024400026 0.73200005 1.2826773e-38
0.027151445 0.024366669 0.73100001 1.5588647e-38
0.028582884 0.024400011 0.73200005 1.4849292e-38
0.030140987 0.024533354 0.73600006 1.4204277e-38
0.031542864 0.024533346 0.73600006 1.3003945e-38
0.032989528 0.02456668 0.73699999 1.1806848e-38
0.034393333 0.024566673 0.73700005 1.2266377e-38
0.035894282 0.024633326 0.73900008 1.2817397e-38
0.037352379 0.024666667 0.74000001 1.3185821e-38
0.038761925 0.024666697 0.73999995 1.3644988e-38
0.040279992 0.024733342 0.74200004 1.2997825e-38
0.041749544 0.024766669 0.74299997 1.2344915e-38
0.043164801 0.024766669 0.74300003 1.4926696e-38
0.044880029 0.024933338 0.74800003 1.7513518e-38
0.046428565 0.025000013 0.75000006 1.7697908e-38
0.047984771 0.025066666 0.75200003 1.7881234e-38
0.049417149 0.025066674 0.75200003 1.7882323e-38
0.051390469 0.025333337 0.76000005 1.7883392e-38
0.052838091 0.02533333 0.76000005 1.8066696e-38
0.054357156 0.025366686 0.76099998 1.8344713e-38
-0.034019042 0.026780955 0.76000005 7.4458723e-39
-0.032485712 0.026710488 0.75800002 8.3624434e-39
-0.030960001 0.026639998 0.75600004 8.728719e-39
-0.029480914 0.026604779 0.75500005 9.0946064e-39
-0.027968576 0.026534297 0.75300002 9.4604952e-39
-0.026534278 0.026534297 0.75300002 9.8278372e-39
-0.024999987 0.026428588 0.75 1.0194463e-38
-0.02350859 0.026358105 0.74800003 1.0469977e-38
-0.022054261 0.026322871 0.74700004 1.0745133e-38
-0.020576185 0.026252389 0.74500006 1.1020635e-38
-0.019105664 0.026181914 0.74300003 1.1112468e-38
-0.01766666 0.02614668 0.74200004 1.1119705e-38
-0.016253352 0.026146673 0.74200004 1.242448e-38
-0.014840019 0.026146665 0.74200004 1.3622654e-38
-0.013372379 0.026040941 0.73900002 1.3713422e-38
-0.01196476 0.026040949 0.73900008 1.3807075e-38
-0.010528584 0.025970481 0.73700005 1.4097671e-38
-0.0091247493 0.025970496 0.73699999 1.4265489e-38
-0.0076895328 0.02586478 0.73400003 1.3979152e-38
-0.0062914463 0.025864772 0.73400003 1.3697163e-38
-0.0048933299 0.025864772 0.73400003 1.3500195e-38
-0.003485701 0.025794305 0.73200005 1.3316518e-38
-0.0020885402 0.025759056 0.73100001 1.3775692e-38
-0.00069616816 0.025759056 0.73100001 1.4143038e-38
0.00069617771 0.025759049 0.73100007 1.3224688e-38
0.0020885793 0.025759064 0.73100001 1.2220987e-38
0.0034809513 0.025759049 0.73100007 1.0578027e-38
0.0048733531 0.025759056 0.73100001 8.8399737e-39
0.006265725 0.025759056 0.73100007 8.6598956e-39
0.0076581268 0.025759049 0.73100001 8.4682975e-39
0.0090504726 0.025759041 0.73100001 1.0757335e-38
0.010442874 0.025759049 0.73100001 1.3044601e-38
0.011802892 0.025688581 0.72899997 1.267366e-38
0.013191446 0.025688589 0.72900003 1.2219985e-38
0.014580029 0.025688589 0.72899997 1.5175345e-38
0.016012369 0.025759049 0.73100007 1.8156466e-38
0.01740477 0.025759056 0.73100001 1.9285093e-38
0.018797142 0.025759049 0.73100001 2.037201e-38
0.020189544 0.025759041 0.73100001 1.5675086e-38
0.021581916 0.025759049 0.73100007 1.0882017e-38
0.023005743 0.025794297 0.73200005 1.0680007e-38
0.024400041 0.025794312 0.73199999 1.0517198e-38
0.025864746 0.025864772 0.73400003 1.3106941e-38
0.027188607 0.025794305 0.73199999 1.5585778e-38
0.028582875 0.025794305 0.73199999 1.5031891e-38
0.030140955 0.025935248 0.73600006 1.4386157e-38
0.03154289 0.025935262 0.73600006 1.2818842e-38
0.032989521 0.025970474 0.73700005 1.1255839e-38
0.034393352 0.025970474 0.73700005 1.208307e-38
0.035894297 0.026040949 0.73900002 1.2910308e-38
0.037352417 0.026076198 0.73999995 1.3279087e-38
0.03886665 0.026146673 0.7420001 1.364642e-38
0.040279988 0.02614668 0.74200004 1.2999976e-38
0.041749563 0.026181906 0.74300003 1.2257728e-38
0.043164767 0.026181899 0.74300003 1.4554662e-38
0.044999998 0.026428573 0.75000006 1.6865273e-38
0.046552401 0.026499055 0.75200003 1.6961786e-38
0.048048567 0.026534297 0.75300002 1.7053631e-38
0.049482841 0.026534297 0.75300002 1.7238747e-38
0.051458135 0.026816204 0.76099998 1.7330578e-38
0.052907627 0.026816212 0.76100004 1.8065258e-38
0.054500002 0.026886664 0.76300001 1.8709544e-38
0.056099996 0.026957162 0.76500005 1.8617713e-38
-0.034019042 0.028228566 0.76000005 7.7188662e-39
-0.032485709 0.028154299 0.75800002 8.4535726e-39
-0.030959984 0.028080009 0.75600004 8.7283827e-39
-0.029480921 0.028042875 0.75500005 9.0949763e-39
-0.027968572 0.027968585 0.75300002 9.4615686e-39
-0.0265343 0.027968578 0.75300002 9.8285533e-39
-0.025066672 0.027931429 0.75200009 1.0194819e-38
-0.023508562 0.027782865 0.74800003 1.0561815e-38
-0.022054257 0.027745724 0.74700004 1.074514e-38
-0.0205762 0.027671427 0.74500006 1.0928805e-38
-0.019105695 0.027597144 0.74300003 1.1021351e-38
-0.017666666 0.027560018 0.74200004 1.1206526e-38
-0.016253328 0.027560011 0.74200004 1.2142167e-38
-0.014840019 0.027560003 0.74200004 1.3165653e-38
-0.013372368 0.027448572 0.73900002 1.3441541e-38
-0.011964749 0.027448565 0.73900002 1.3724589e-38
-0.010528564 0.027374282 0.73700005 1.3808181e-38
-0.0091123627 0.027337164 0.73600006 1.3888471e-38
-0.0076895254 0.027262881 0.73399997 1.3794058e-38
-0.006291437 0.027262874 0.73400003 1.3608197e-38
-0.0048933504 0.027262874 0.73400003 1.3320455e-38
-0.0034856861 0.027188599 0.73200005 1.3132842e-38
-0.0020885477 0.027151421 0.73100001 1.3316517e-38
-0.00069620169 0.027151428 0.73100007 1.3500542e-38
0.00069429271 0.027077138 0.72900003 1.2858407e-38
0.0020885719 0.027151421 0.73100007 1.2218472e-38
0.0034809737 0.027151443 0.73100001 1.0486555e-38
0.0048733456 0.027151428 0.73100007 8.7499374e-39
0.0062657213 0.027151428 0.73100001 8.564477e-39
0.0076580932 0.027151421 0.73100001 8.4672353e-39
0.009050495 0.027151436 0.73100001 1.0847039e-38
0.010442867 0.027151428 0.73100001 1.331725e-38
0.011835269 0.027151428 0.73100001 1.2765856e-38
0.013227641 0.027151436 0.73100001 1.2214609e-38
0.014619987 0.027151428 0.73100007 1.5276154e-38
0.016012389 0.027151436 0.73100001 1.8348032e-38
0.017404761 0.027151436 0.73100007 1.936796e-38
0.018797163 0.027151436 0.73100001 2.0369856e-38
0.020189535 0.027151428 0.73100007 1.5489974e-38
0.021581938 0.027151436 0.73100001 1.0698704e-38
0.023005733 0.027188584 0.73200005 1.0415982e-38
0.024400031 0.027188592 0.73199999 1.0243485e-38
0.025864756 0.027262874 0.73400003 1.2826053e-38
0.027188594 0.027188584 0.73200005 1.5493585e-38
0.028739046 0.027337164 0.73600006 1.4664195e-38
0.030140983 0.027337156 0.73600006 1.392806e-38
0.031585712 0.027374297 0.73700005 1.2726649e-38
0.032989513 0.02737429 0.73700005 1.1620314e-38
0.034393344 0.02737429 0.73699999 1.226531e-38
0.035894308 0.027448572 0.73900002 1.2910308e-38
0.03735242 0.027485721 0.73999995 1.337307e-38
0.03886665 0.027559996 0.7420001 1.3834752e-38
0.040334295 0.027597144 0.74300003 1.2996745e-38
0.041749556 0.027597144 0.74299997 1.2161932e-38
0.043280955 0.027671434 0.74500006 1.4558939e-38
0.045000013 0.027857162 0.75 1.7053233e-38
0.0466143 0.027968578 0.75300002 1.705326e-38
0.048176225 0.028042868 0.75500005 1.7051472e-38
0.049614314 0.02804286 0.75500005 1.7052912e-38
0.051458102 0.02826573 0.76100004 1.7144389e-38
0.052907649 0.028265737 0.76100004 1.7512807e-38
0.054500017 0.028340012 0.76300001 1.7973068e-38
-0.034019049 0.029676199 0.76000011 8.0851404e-39
-0.032485701 0.029598102 0.75799996 8.4535712e-39
-0.030959999 0.029520005 0.75600004 8.819851e-39
-0.029402843 0.029402867 0.75300002 9.094619e-39
-0.027931442 0.029363811 0.75200003 9.4615812e-39
-0.026499044 0.029363804 0.75200003 9.7363675e-39
-0.025000012 0.029285729 0.75 1.0194825e-38
-0.023508566 0.029207632 0.74800003 1.0653648e-38
-0.022054253 0.029168591 0.74700004 1.074513e-38
-0.020576188 0.029090479 0.74500006 1.0836964e-38
-0.019105703 0.029012375 0.74300003 1.1020635e-38
-0.017666696 0.028973348 0.7420001 1.1209037e-38
-0.016253332 0.028973348 0.74200004 1.1954909e-38
-0.014840022 0.028973348 0.74200004 1.2604561e-38
-0.013372387 0.028856188 0.73900008 1.3070541e-38
-0.011964737 0.028856196 0.73900002 1.3528301e-38
-0.010528569 0.028778106 0.73700005 1.3521143e-38
-0.0091123609 0.028739072 0.736 1.3519313e-38
-0.0076895459 0.02866096 0.73400003 1.3516767e-38
-0.0062914295 0.02866096 0.73399997 1.3508472e-38
-0.004893343 0.028660968 0.73400003 1.3224673e-38
-0.0034856936 0.028582878 0.73199999 1.2857334e-38
-0.0020885533 0.028543815 0.73100001 1.2857338e-38
-0.00069618307 0.028543808 0.73100001 1.2857348e-38
0.0006942983 0.028465718 0.72899997 1.2490016e-38
0.0020885905 0.028543815 0.73100001 1.2129888e-38
0.003471435 0.028465725 0.72899997 1.0399043e-38
0.0048599886 0.028465725 0.72900003 8.6573943e-39
0.0062657138 0.028543815 0.73100001 8.5637623e-39
0.0076581156 0.028543815 0.73100001 8.3739536e-39
0.0090504875 0.028543822 0.73100001 1.0937418e-38
0.010442889 0.028543822 0.73100001 1.3503061e-38
0.011835236 0.028543815 0.73100001 1.2857331e-38
0.013227638 0.028543808 0.73100001 1.2222145e-38
0.01462001 0.028543822 0.73100001 1.5366563e-38
0.016012382 0.028543808 0.73100007 1.8434849e-38
0.017404784 0.028543808 0.73100001 1.9376928e-38
0.018797155 0.028543808 0.73100007 2.0279811e-38
0.020189533 0.028543822 0.73100001 1.5399209e-38
0.021581903 0.028543808 0.73100001 1.0420323e-38
0.023005748 0.028582886 0.73200005 1.0133657e-38
0.024400046 0.028582886 0.73199999 9.873989e-39
0.025864761 0.028660968 0.73399997 1.2643818e-38
0.027188582 0.028582864 0.73200005 1.5399959e-38
0.028660936 0.028660953 0.73400003 1.4386183e-38
0.030140953 0.028739065 0.73600006 1.3373819e-38
0.031585734 0.028778106 0.73700005 1.263158e-38
0.032989509 0.028778099 0.73700005 1.1898336e-38
0.03439334 0.028778113 0.73699999 1.2447558e-38
0.035797141 0.028778099 0.73700005 1.291319e-38
0.037352402 0.028895251 0.73999995 1.346743e-38
0.038866647 0.028973334 0.74200004 1.4014844e-38
0.040334318 0.029012389 0.74299997 1.2989934e-38
0.041749548 0.029012389 0.74299997 1.1979713e-38
0.043164779 0.029012389 0.74300003 1.4557176e-38
0.045120012 0.029363818 0.75200003 1.7141497e-38
0.046738129 0.029480971 0.75500005 1.7146175e-38
0.048367623 0.029598109 0.75799996 1.7052547e-38
0.050008599 0.029715262 0.76099998 1.6959994e-38
0.05145812 0.029715262 0.76099998 1.686852e-38
0.053046685 0.029793344 0.76300001 1.7051835e-38
0.054500025 0.029793344 0.76300001 1.7236589e-38
0.05632 0.029988594 0.76800001 1.7421342e-38
-0.034019053 0.031123802 0.76000011 8.2727645e-39
-0.032485723 0.031041913 0.75799996 8.7312301e-39
-0.030959981 0.030960001 0.75600004 9.0035136e-39
-0.029402869 0.030837148 0.75300002 9.2779341e-39
-0.027968571 0.030837148 0.75300002 9.4608764e-39
-0.026534298 0.030837156 0.75300002 9.7360171e-39
-0.025066661 0.030796193 0.75200003 1.0286664e-38
-0.023508569 0.030632392 0.74800003 1.0745482e-38
-0.022054249 0.030591436 0.74700004 1.0928791e-38
-0.020576209 0.030509531 0.74500006 1.1112466e-38
-0.019105682 0.030427635 0.74299997 1.1298294e-38
-0.017666696 0.030386679 0.7420001 1.1572433e-38
-0.016253332 0.030386686 0.74200004 1.2229698e-38
-0.014839998 0.030386671 0.74200004 1.2870346e-38
-0.013390468 0.030304767 0.74000001 1.3248403e-38
-0.01196478 0.030263811 0.73900008 1.3612901e-38
-0.010557129 0.030263819 0.73900002 1.370548e-38
-0.0091247736 0.030181907 0.73700005 1.3701887e-38
-0.0077104596 0.030140966 0.73600006 1.3508882e-38
-0.0062914519 0.030059054 0.73400003 1.3316555e-38
-0.0048933355 0.030059069 0.73400003 1.3132836e-38
-0.003495249 0.030059062 0.73400003 1.3041003e-38
-0.0020885607 0.029936194 0.73100001 1.3132842e-38
-0.00069618865 0.029936194 0.73100007 1.3316538e-38
0.0006962131 0.029936194 0.73100001 1.2766266e-38
0.0020885589 0.029936202 0.73100001 1.2217799e-38
0.0034809606 0.029936194 0.73100001 1.0396549e-38
0.0048733326 0.029936187 0.73100001 8.5698734e-39
0.0062657343 0.029936209 0.73100001 8.4730044e-39
0.0076581063 0.029936187 0.73100001 8.3746613e-39
0.009050508 0.029936194 0.73100001 1.1029229e-38
0.010442854 0.02993618 0.73100001 1.3593807e-38
0.011835258 0.029936202 0.73100001 1.2949524e-38
0.013227629 0.029936194 0.73100001 1.2398287e-38
0.014620001 0.02993618 0.73100007 1.5555624e-38
0.016012404 0.029936194 0.73100001 1.8811164e-38
0.01740475 0.029936187 0.73100001 1.9369036e-38
0.018797152 0.029936194 0.73100001 1.9912108e-38
0.020189524 0.029936194 0.73100001 1.5117599e-38
0.021611469 0.029977165 0.73199999 1.0408839e-38
0.023005739 0.029977173 0.73200005 1.0872282e-38
0.024400007 0.029977158 0.73200005 1.1342638e-38
0.025864741 0.030059062 0.73400003 1.3651856e-38
0.027188599 0.029977158 0.73200005 1.6045321e-38
0.028660944 0.030059062 0.73400003 1.5492518e-38
0.030140977 0.030140974 0.73600006 1.5028293e-38
0.031585727 0.030181922 0.73700005 1.4659491e-38
0.032989528 0.030181915 0.73700005 1.429216e-38
0.034486681 0.030263819 0.73900002 1.4294682e-38
0.035894275 0.030263811 0.73900002 1.4387951e-38
0.037352409 0.030304775 0.74000001 1.438759e-38
0.038866643 0.030386671 0.74200004 1.438901e-38
0.04033431 0.03042762 0.74300003 1.3083927e-38
0.041749541 0.030427627 0.74300003 1.1791397e-38
0.043280952 0.030509524 0.74500006 1.336442e-38
0.045120019 0.0307962 0.75200003 1.4942484e-38
0.046738118 0.03091906 0.75500005 1.5399509e-38
0.048239987 0.030960009 0.75600004 1.5857965e-38
0.049679998 0.030960001 0.75600004 1.6408615e-38
0.05159336 0.03124667 0.76300001 1.7052545e-38
-0.034019057 0.032571435 0.76000011 8.467182e-39
-0.032485716 0.032485723 0.75800002 9.012835e-39
-0.030959992 0.032399997 0.75600004 9.185049e-39
-0.029480942 0.032357149 0.75500005 9.3694291e-39
-0.027968574 0.032271437 0.75300002 9.552014e-39
-0.026499057 0.032228567 0.75200003 9.7356794e-39
-0.025066679 0.032228574 0.75200003 1.0285969e-38
-0.023571393 0.032142878 0.75 1.0837338e-38
-0.022054246 0.032014303 0.74700004 1.1112482e-38
-0.020576194 0.031928562 0.74500012 1.1298304e-38
-0.01915714 0.031928584 0.74500006 1.1670667e-38
-0.017690459 0.031842865 0.74300003 1.1954138e-38
-0.016275225 0.03184285 0.74300003 1.2612842e-38
-0.01484 0.031800024 0.74200004 1.316097e-38
-0.013372361 0.031671427 0.73900002 1.3439691e-38
-0.011964767 0.031671427 0.73900002 1.3711966e-38
-0.010528556 0.031585716 0.73700005 1.3802007e-38
-0.0091247549 0.031585708 0.73700005 1.3886282e-38
-0.0077104578 0.031542882 0.73600006 1.3500619e-38
-0.0062914426 0.031457156 0.73400003 1.3041047e-38
-0.0049066441 0.031542875 0.736 1.3132846e-38
-0.0034952397 0.031457163 0.73400003 1.3132846e-38
-0.0020885384 0.031328574 0.73100001 1.3408354e-38
-0.0006961663 0.031328581 0.73100001 1.3683883e-38
0.00069617957 0.031328566 0.73100001 1.2949221e-38
0.0020885812 0.031328581 0.73100001 1.2223532e-38
0.0034809532 0.031328574 0.73100007 1.0307928e-38
0.0048733549 0.031328574 0.73100001 8.3829654e-39
0.0062657269 0.031328566 0.73100007 8.3829612e-39
0.0076581025 0.031328581 0.73100001 8.3739564e-39
0.0090504745 0.031328574 0.73100001 1.1027464e-38
0.010442876 0.031328574 0.73100001 1.3686374e-38
0.011835249 0.031328581 0.73100001 1.3132836e-38
0.013227621 0.031328574 0.73100007 1.2498733e-38
0.014620023 0.031328574 0.73100001 1.5830417e-38
0.016012369 0.031328566 0.73100001 1.917241e-38
0.01740477 0.031328581 0.73100001 1.9375134e-38
0.018797146 0.031328574 0.73100007 1.9451504e-38
0.020189548 0.031328574 0.73100001 1.4933946e-38
0.021611432 0.031371437 0.73200005 1.0421782e-38
0.023005756 0.031371452 0.73200005 1.1604496e-38
0.024400024 0.031371452 0.73200005 1.2727733e-38
0.025864748 0.031457148 0.73400003 1.4667087e-38
0.02718859 0.031371437 0.73200005 1.6599941e-38
0.028660953 0.031457156 0.73400003 1.660138e-38
0.030140974 0.031542882 0.73600006 1.6597057e-38
0.031542882 0.031542882 0.73600006 1.6594169e-38
0.032989521 0.031585723 0.73700005 1.6597031e-38
0.034393322 0.031585716 0.73700005 1.6235061e-38
0.03589429 0.031671442 0.73900002 1.57644e-38
0.037352413 0.031714298 0.74000001 1.5213383e-38
0.038866643 0.031800017 0.74200004 1.4648696e-38
0.040334303 0.03184285 0.74300003 1.307382e-38
0.041861884 0.031928577 0.74500006 1.1516577e-38
0.043397162 0.032014303 0.74700004 1.2166257e-38
0.045120027 0.032228574 0.75200003 1.2727316e-38
0.046738114 0.032357149 0.75500005 1.3743249e-38
0.048240006 0.032400005 0.75600004 1.4658025e-38
-0.035606664 0.034153342 0.76300001 6.7283878e-39
-0.034019031 0.034019046 0.76000005 8.1059217e-39
-0.032571461 0.034019046 0.76000011 9.4845695e-39
-0.031041905 0.033929519 0.75800002 1.0117411e-38
-0.029480949 0.033795245 0.75500005 1.0656579e-38
-0.027968567 0.033705734 0.75300002 1.0477922e-38
-0.02649905 0.033660963 0.75200003 1.0286713e-38
-0.025066672 0.033660956 0.75200003 1.0659791e-38
-0.023571406 0.033571444 0.75 1.1021748e-38
-0.022083808 0.033481918 0.74800003 1.0929189e-38
-0.020631405 0.033437163 0.74700004 1.0929541e-38
-0.019157128 0.033347614 0.74500006 1.1211498e-38
-0.017690463 0.033258095 0.74300003 1.1592907e-38
-0.016275203 0.033258103 0.74299997 1.2240496e-38
-0.01484 0.033213347 0.74200004 1.2985602e-38
-0.013372405 0.03307905 0.73900008 1.3255027e-38
-0.011964754 0.03307905 0.73900002 1.3625209e-38
-0.010528562 0.032989539 0.73700005 1.3898534e-38
