# .PCD v0.7 - Point Cloud Data file format
VERSION 0.7
FIELDS x y z rgb
SIZE 4 4 4 4
TYPE F F F F
COUNT 1 1 1 1
WIDTH 971
HEIGHT 1
VIEWPOINT 0 0 0 1 0 0 0
POINTS 971
DATA ascii
0.038160015 0.033840008 0.7560001 1.1988697e-38
0.039861903 0.034063838 0.76100004 1.1622434e-38
0.041419998 0.03415335 0.76300001 1.1435894e-38
0.042985719 0.034242868 0.7650001 1.1252215e-38
0.044442862 0.034242876 0.76500005 1.1158578e-38
-0.039966665 0.03560669 0.76300001 7.7322374e-39
-0.038412388 0.035513341 0.76100004 8.4715835e-39
-0.036914304 0.035466678 0.76000005 9.0150617e-39
-0.035373341 0.035373338 0.75800008 9.4767097e-39
-0.033840004 0.035280026 0.75600004 9.2786487e-39
-0.032271437 0.03514 0.75300002 9.0953281e-39
-0.030796193 0.035093345 0.75200003 9.5523447e-39
-0.029285721 0.035000026 0.75000012 9.9200511e-39
-0.02778287 0.034906678 0.74800003 1.0102293e-38
-0.02632286 0.034860007 0.74700004 1.0286684e-38
-0.024833329 0.034766704 0.74500006 1.2030844e-38
-0.023414291 0.034766681 0.74500012 1.3715137e-38
-0.021995241 0.034766689 0.74500006 1.4008983e-38
-0.020520957 0.034673356 0.74300003 1.4276242e-38
-0.019105712 0.034673363 0.74300003 1.4644666e-38
-0.017666683 0.03462667 0.7420001 1.5015944e-38
-0.016253348 0.034626678 0.7420001 1.3272855e-38
-0.014800007 0.034533352 0.74000007 1.1504248e-38
-0.013390478 0.034533344 0.74000001 8.2655562e-39
-0.011964766 0.034486689 0.73900002 5.066389e-39
-0.01055715 0.034486696 0.73900002 8.570497e-39
-0.0091495309 0.034486674 0.73900002 1.1966287e-38
-0.0077209584 0.034393355 0.73700005 8.4762106e-39
-0.0063171461 0.034393348 0.73700005 4.9731578e-39
-0.0049133394 0.034393355 0.73700005 4.3195179e-39
-0.0035095327 0.034393363 0.73700011 3.5844752e-39
-0.0021028658 0.03434667 0.73600012 4.1344134e-39
-0.00070095336 0.034346677 0.73600012 4.6004334e-39
0.00070190342 0.034393348 0.73700005 8.0923613e-39
0.0021057026 0.034393348 0.73700005 1.1598612e-38
0.0035095164 0.034393363 0.73700011 1.4567481e-38
0.0049133291 0.034393348 0.73700011 1.7396093e-38
0.0063171387 0.034393355 0.73700005 1.5989511e-38
0.0077209529 0.034393348 0.73700005 1.460476e-38
0.0091247512 0.034393348 0.73700005 1.4602205e-38
0.010528564 0.034393355 0.73700011 1.4602205e-38
0.011964758 0.034486681 0.73900002 1.469404e-38
0.013372369 0.034486689 0.73900002 1.4785875e-38
0.01479999 0.034533329 0.74000007 1.451037e-38
0.016209513 0.034533337 0.74000007 1.4234872e-38
0.017619049 0.034533344 0.74000007 1.4326716e-38
0.019028571 0.034533337 0.74000007 1.432673e-38
0.020493317 0.034626678 0.7420001 1.4510415e-38
0.021906652 0.03462667 0.7420001 1.4602231e-38
0.023319986 0.034626685 0.7420001 1.4326703e-38
0.024766671 0.034673356 0.74300003 1.4056638e-38
0.026252389 0.034766681 0.74500006 1.4143153e-38
0.027782852 0.034906678 0.74800009 1.4251816e-38
0.029285714 0.035000019 0.75000012 1.5184849e-38
0.03071429 0.035000011 0.75000012 1.6103213e-38
0.032228578 0.035093345 0.75200003 1.47343e-38
0.033660945 0.035093352 0.75200009 1.3353227e-38
0.035093334 0.035093345 0.75200003 1.2713654e-38
0.036720004 0.035280004 0.7560001 1.2074773e-38
0.038109519 0.035233341 0.75500005 1.1803951e-38
0.039809514 0.035466686 0.76000011 1.1434818e-38
0.041420009 0.035606675 0.76300001 1.1155011e-38
0.042985734 0.035700016 0.76500005 1.0880574e-38
0.044559062 0.035793349 0.76699996 1.0328119e-38
-0.040071424 0.037157163 0.76500005 6.9960625e-39
-0.03851334 0.037060022 0.76300001 7.6424898e-39
-0.036962867 0.036962874 0.76100004 9.2097833e-39
-0.035466686 0.036914289 0.76000011 1.0677365e-38
-0.033839997 0.036720023 0.75600004 1.0118467e-38
-0.032271441 0.036574304 0.75300002 9.4680693e-39
-0.030796194 0.036525719 0.75200009 9.8368308e-39
-0.029285725 0.036428578 0.75000012 1.0106243e-38
-0.027857147 0.036428601 0.75000006 1.0847388e-38
-0.026358105 0.036331438 0.74800003 1.15749e-38
-0.024933349 0.036331438 0.74800009 1.3064359e-38
-0.02341428 0.036185734 0.74500006 1.4644282e-38
-0.021995241 0.036185727 0.74500012 1.3821775e-38
-0.020576192 0.036185734 0.74500006 1.3089578e-38
-0.019105714 0.036088593 0.74300003 1.2990901e-38
-0.017690487 0.036088586 0.74300003 1.2899411e-38
-0.016275242 0.036088578 0.74300003 1.1693696e-38
-0.014860006 0.036088578 0.74300003 1.0491537e-38
-0.013426686 0.036040008 0.7420001 9.2954755e-39
-0.011964771 0.035894297 0.73900002 8.1127544e-39
-0.010557152 0.035894297 0.73900008 1.0415476e-38
-0.0091619119 0.03594286 0.74000007 1.2723618e-38
-0.0077419123 0.035894297 0.73900002 8.1139637e-39
-0.0063342955 0.035894305 0.73900008 3.5127862e-39
-0.0049266731 0.035894305 0.73900002 3.8649844e-39
-0.0035190554 0.035894305 0.73900002 4.2287488e-39
-0.0021057185 0.035797171 0.73700005 4.412787e-39
-0.00070380879 0.035894305 0.73900002 4.6876096e-39
0.00070190063 0.035797156 0.73700005 7.5460231e-39
0.0021056999 0.035797171 0.73700011 1.0406208e-38
0.0035095238 0.035797164 0.73700005 1.2989808e-38
0.0049133366 0.035797171 0.73700005 1.5474034e-38
0.0063171359 0.035797171 0.73700005 1.5639414e-38
0.0077209501 0.035797156 0.73700005 1.5796124e-38
0.0091247493 0.035797149 0.73700011 1.5529889e-38
0.010528573 0.035797164 0.73700005 1.5245054e-38
0.011964747 0.035894312 0.73900008 1.5061382e-38
0.013372384 0.035894305 0.73900002 1.4877712e-38
0.014799993 0.035942867 0.74000007 1.4694041e-38
0.01620953 0.035942867 0.74000007 1.4602214e-38
0.01766666 0.036040008 0.7420001 1.4969563e-38
0.019079994 0.036040001 0.7420001 1.5336909e-38
0.020493329 0.036040001 0.7420001 1.5433054e-38
0.021906661 0.036040008 0.7420001 1.5520574e-38
0.023319995 0.036040008 0.7420001 1.5626748e-38
0.024733327 0.036040016 0.7420001 1.5805102e-38
0.026252382 0.036185727 0.74500012 1.5084832e-38
0.02774572 0.036282875 0.74700004 1.4361974e-38
0.029168576 0.036282882 0.74700004 1.3169533e-38
0.030714279 0.036428593 0.75000012 1.2076096e-38
0.032142848 0.036428571 0.75000012 1.0682399e-38
0.033660952 0.036525726 0.75200009 9.3059937e-39
0.035233334 0.036671437 0.75500011 1.0501699e-38
0.03667143 0.036671445 0.75500005 1.1705633e-38
0.038160007 0.036720015 0.7560001 1.161777e-38
0.039704766 0.036817163 0.75800002 1.1524863e-38
0.041257136 0.036914311 0.76000005 1.1340837e-38
0.042704757 0.036914304 0.76000005 1.1154651e-38
0.044442862 0.037157163 0.76500005 1.0696544e-38
0.045900006 0.037157156 0.76500005 1.0328838e-38
-0.040071432 0.038614299 0.76500005 6.2581499e-39
-0.038614288 0.038614303 0.76500005 6.8188472e-39
-0.03706 0.038513344 0.76300001 9.4117651e-39
-0.035606667 0.038513355 0.76300001 1.187947e-38
-0.033929527 0.038260959 0.75800002 1.0866037e-38
-0.032271441 0.038008571 0.75300002 9.8483046e-39
-0.030796198 0.037958108 0.75200009 1.0128466e-38
-0.029363818 0.037958104 0.75200009 1.0308911e-38
-0.027857153 0.03785716 0.75000006 1.1605373e-38
-0.026358105 0.037756212 0.74800003 1.27953e-38
-0.024933346 0.037756201 0.74800003 1.419114e-38
-0.02341429 0.037604783 0.74500006 1.5473272e-38
-0.021995232 0.037604775 0.74500006 1.3727344e-38
-0.020576183 0.037604775 0.74500006 1.1883817e-38
-0.019105714 0.03750382 0.74300003 1.1329215e-38
-0.017690487 0.037503816 0.74300003 1.0768138e-38
-0.016275242 0.037503831 0.74300003 1.0110563e-38
-0.014860008 0.03750382 0.74300009 9.47992e-39
-0.013426682 0.037453339 0.7420001 1.0311829e-38
-0.01201335 0.037453346 0.7420001 1.1148401e-38
-0.01057143 0.037352391 0.74000007 1.2347295e-38
-0.0091619082 0.037352398 0.74000001 1.3450753e-38
-0.0077419057 0.037301913 0.73900002 7.7422413e-39
-0.0063342946 0.037301913 0.73900002 1.9418592e-39
-0.0049266769 0.03730192 0.73900002 3.3982763e-39
-0.0035190582 0.037301905 0.73900008 4.7794059e-39
-0.0021057213 0.037200958 0.73700005 4.7840806e-39
-0.00070381904 0.037301913 0.73900002 4.6933479e-39
0.00070379913 0.037301913 0.73900008 6.9978715e-39
0.0021057073 0.037200972 0.73700005 9.2062156e-39
0.0035095215 0.03720098 0.73700005 1.1419583e-38
0.0049133343 0.037200958 0.73700005 1.3541142e-38
0.0063171335 0.037200972 0.73700005 1.5297512e-38
0.0077419034 0.03730192 0.73900002 1.7024776e-38
0.0091495151 0.03730192 0.73900008 1.6475883e-38
0.010557136 0.03730192 0.73900002 1.581689e-38
0.011964761 0.03730192 0.73900002 1.5337265e-38
0.013390474 0.037352398 0.74000007 1.4890637e-38
0.014799996 0.037352391 0.74000001 1.4877718e-38
0.016253321 0.037453346 0.7420001 1.488956e-38
0.017666655 0.037453346 0.7420001 1.5612767e-38
0.019079989 0.037453339 0.7420001 1.6270691e-38
0.020493321 0.037453346 0.7420001 1.6363611e-38
0.021906655 0.037453346 0.7420001 1.6468361e-38
0.023351423 0.037503816 0.74300009 1.7038388e-38
0.024766669 0.037503824 0.74300003 1.7487207e-38
0.02632286 0.037705731 0.74700004 1.5936452e-38
0.027745729 0.037705738 0.74700004 1.4363375e-38
0.029285718 0.037857156 0.75000006 1.1238423e-38
0.030714285 0.037857156 0.75000012 8.0101808e-39
0.03222857 0.037958104 0.75200009 6.6136271e-39
0.033705711 0.038008593 0.75300002 5.2469225e-39
0.035233337 0.038109541 0.75500005 8.2815058e-39
0.036671434 0.038109552 0.75500005 1.1242514e-38
0.03816 0.038160026 0.75600004 1.143626e-38
0.039704762 0.038260963 0.75800002 1.1619933e-38
0.041257139 0.038361922 0.76000011 1.1528817e-38
0.042985726 0.038614292 0.76500005 1.1434825e-38
0.044442866 0.038614299 0.76500005 1.1157521e-38
-0.040071428 0.040071435 0.76500005 5.8000472e-39
-0.038614284 0.040071443 0.76500005 6.075202e-39
-0.037157141 0.040071443 0.76500005 6.8217311e-39
-0.035606664 0.039966684 0.76300001 7.4713591e-39
-0.033929527 0.039704777 0.75800008 6.8184297e-39
-0.032357141 0.039547645 0.75500005 6.2677754e-39
-0.030837156 0.039442874 0.75300002 5.8053679e-39
-0.02936382 0.039390482 0.75200009 5.354084e-39
-0.027857145 0.039285719 0.75000012 7.4648669e-39
-0.026428582 0.039285719 0.75000012 9.5849964e-39
-0.024933338 0.039180968 0.74800003 1.1428185e-38
-0.02341428 0.039023839 0.74500006 1.3269537e-38
-0.021995243 0.039023831 0.74500006 1.050046e-38
-0.020576185 0.039023824 0.74500006 7.7357322e-39
-0.019157136 0.039023835 0.74500006 8.098073e-39
-0.017690487 0.038919058 0.74300009 8.3663824e-39
-0.016275242 0.038919058 0.74300003 1.0028007e-38
-0.014859999 0.038919065 0.74300003 1.1781556e-38
-0.01342668 0.038866676 0.7420001 1.3263544e-38
-0.012013346 0.038866684 0.7420001 1.4740085e-38
-0.010600013 0.038866673 0.7420001 1.5204283e-38
-0.0091619045 0.038761914 0.74000001 1.5755592e-38
-0.0077523855 0.03876191 0.74000007 1.2435102e-38
-0.0063342974 0.038709532 0.73900008 9.093512e-39
-0.0049266694 0.038709555 0.73900002 5.880706e-39
-0.0035190508 0.038709544 0.73900002 2.6650413e-39
-0.0021057241 0.03860477 0.73700005 2.5760868e-39
-0.00070191728 0.038604774 0.73700011 2.4871408e-39
0.00070190622 0.038604777 0.73700005 3.774651e-39
0.002105705 0.038604781 0.73700005 5.1535848e-39
0.0035095187 0.038604785 0.73700005 8.1062776e-39
0.0049133329 0.03860477 0.73700011 1.1147279e-38
0.0063342825 0.038709536 0.73900002 1.1611145e-38
0.0077209552 0.038604774 0.73700005 1.2080719e-38
0.0091495141 0.038709536 0.73900002 1.2713514e-38
0.010557139 0.038709536 0.73900002 1.3362103e-38
0.011964762 0.038709544 0.73900002 1.5560413e-38
0.013390477 0.038761929 0.74000001 1.7775216e-38
0.014839984 0.038866684 0.7420001 1.7489295e-38
0.016253317 0.038866684 0.7420001 1.712841e-38
0.017666651 0.038866673 0.7420001 1.5921992e-38
0.019079985 0.03886668 0.7420001 1.483074e-38
0.020493317 0.038866684 0.7420001 1.4822859e-38
0.021936189 0.038919065 0.74300003 1.4838656e-38
0.023351435 0.038919065 0.74300003 1.5476852e-38
0.024766669 0.038919069 0.74300003 1.6118291e-38
0.026252389 0.039023831 0.74500006 1.3537954e-38
0.027745713 0.039128579 0.7470001 1.1048655e-38
0.029285705 0.039285731 0.75000006 9.5727757e-39
0.030796189 0.039390493 0.75200009 8.0818866e-39
0.032228578 0.039390489 0.75200003 5.8799885e-39
0.033705708 0.039442874 0.75300002 3.6738669e-39
0.035233337 0.039547641 0.75500005 7.1809161e-39
0.036671426 0.03954763 0.75500005 1.0699397e-38
0.038160004 0.039600011 0.75600004 1.1069284e-38
0.039600004 0.039600022 0.75600004 1.1438778e-38
0.041257143 0.03980954 0.76000005 1.1437702e-38
0.043154281 0.040228579 0.76800001 1.1438776e-38
0.044559058 0.040176205 0.76700002 1.1251514e-38
-0.04007142 0.041528597 0.76500005 5.4312619e-39
-0.038715232 0.041637156 0.76700002 5.3401467e-39
-0.037254281 0.041637167 0.76700002 4.2366886e-39
-0.035699997 0.04152859 0.76500005 3.0456732e-39
-0.033929527 0.041148577 0.75800008 2.8526527e-39
-0.032357149 0.040985726 0.75500005 2.5807279e-39
-0.030837145 0.040877156 0.75300002 1.4708043e-39
-0.029363813 0.040822875 0.75200003 3.7740751e-40
-0.027857151 0.040714301 0.75000012 3.407281e-39
-0.026428573 0.040714312 0.75000006 6.3582194e-39
-0.024933344 0.040605731 0.74800003 8.7588637e-39
-0.023477137 0.040551446 0.74700004 1.1048629e-38
-0.021995233 0.040442884 0.74500006 7.3615547e-39
-0.020576194 0.040442865 0.74500006 3.5916443e-39
-0.019157138 0.040442877 0.74500006 4.7765472e-39
-0.017690478 0.04033431 0.74300003 5.9797469e-39
-0.016275244 0.04033431 0.74300003 1.0036663e-38
-0.014859999 0.040334303 0.74300003 1.3996763e-38
-0.013444765 0.040334299 0.74300003 1.62206e-38
-0.01201335 0.040280007 0.7420001 1.8334998e-38
-0.010600017 0.040280011 0.7420001 1.8158174e-38
-0.0091619119 0.040171433 0.74000007 1.7970532e-38
-0.0077523831 0.040171441 0.74000007 1.7149011e-38
-0.0063428609 0.040171433 0.74000007 1.6199006e-38
-0.0049333386 0.040171441 0.74000001 8.3652852e-39
-0.0035238098 0.040171444 0.74000001 5.5389825e-40
-0.0021057278 0.040008578 0.73700011 4.5956284e-40
-0.00070191076 0.040008593 0.73700005 2.7768971e-40
0.00070381357 0.040117163 0.73900002 6.4324364e-40
0.0021057012 0.04000859 0.73700005 1.0181064e-39
0.0035095154 0.040008578 0.73700011 4.8877389e-39
0.0049133291 0.040008582 0.73700011 8.7491513e-39
0.0063171377 0.040008593 0.73700005 7.9183453e-39
0.0077418936 0.040117156 0.73900002 7.0039307e-39
0.0091495188 0.040117159 0.73900008 8.934623e-39
0.01055714 0.040117159 0.73900002 1.0873618e-38
0.01196475 0.040117159 0.73900002 1.5766774e-38
0.01339047 0.040171426 0.74000007 2.0633304e-38
0.014799993 0.040171433 0.74000007 1.9992216e-38
0.016253326 0.040280007 0.7420001 1.9340372e-38
0.01766666 0.040280011 0.7420001 1.6299014e-38
0.019079994 0.040280018 0.7420001 1.3257355e-38
0.020493329 0.040280007 0.7420001 1.316663e-38
0.021936189 0.040334303 0.74300003 1.3078387e-38
0.023351433 0.040334307 0.74300003 1.3912447e-38
0.024766667 0.040334307 0.74300003 1.4728216e-38
0.026252389 0.04044288 0.74500006 1.1232021e-38
0.02774572 0.040551435 0.74700004 7.6457437e-39
0.02928571 0.040714301 0.75000012 7.9222983e-39
0.030714277 0.040714294 0.75000012 8.0973513e-39
0.032228574 0.040822864 0.75200009 5.1503576e-39
0.033705704 0.040877156 0.75300002 2.1230625e-39
0.035233341 0.04098573 0.75500005 6.1602832e-39
0.036671426 0.040985737 0.75500005 1.0139039e-38
0.038160011 0.041040018 0.75600004 1.0701943e-38
0.039704759 0.041148577 0.75800008 1.1161119e-38
0.041311435 0.041311447 0.76100004 1.1252236e-38
0.043098107 0.041637156 0.76700002 1.134407e-38
0.044442859 0.041528583 0.76500005 1.1435546e-38
-0.040228579 0.043154296 0.76800001 5.8011052e-39
-0.03871524 0.043098107 0.76700002 6.0758942e-39
-0.037254285 0.043098111 0.76700002 4.1455537e-39
-0.035700001 0.04298573 0.76500005 2.3052467e-39
-0.034019057 0.04270478 0.76000005 2.9477252e-39
-0.032357145 0.042423815 0.75500005 3.5880527e-39
-0.030837154 0.042311441 0.75300002 2.7615235e-39
-0.029363817 0.042255249 0.75200009 1.9303783e-39
-0.027857155 0.042142875 0.75000012 3.5873997e-39
-0.026428577 0.042142868 0.75000006 5.2433001e-39
-0.024933347 0.042030491 0.74800009 7.0878937e-39
-0.023414291 0.041861922 0.74500012 9.0182076e-39
-0.021995235 0.041861922 0.74500006 5.5201827e-39
-0.020576185 0.041861929 0.74500006 2.1154506e-39
-0.019157145 0.041861925 0.74500012 2.9412484e-39
-0.01769048 0.041749544 0.74300003 3.7696078e-39
-0.016275244 0.04174953 0.74300003 7.4610091e-39
-0.014840015 0.041693348 0.7420001 1.1243528e-38
-0.013426682 0.041693352 0.7420001 1.3643492e-38
-0.01198096 0.041580964 0.74000007 1.6048137e-38
-0.010600014 0.041693334 0.7420001 1.6778935e-38
-0.0091866804 0.041693348 0.7420001 1.7512917e-38
-0.0077733458 0.041693352 0.7420001 1.7055188e-38
-0.0063428571 0.041580979 0.74000001 1.6595845e-38
-0.0049333349 0.041580971 0.74000001 1.0678389e-38
-0.0035238154 0.041580953 0.74000007 4.7758171e-39
-0.0021114359 0.041524779 0.73900008 5.4247739e-39
-0.00070381531 0.041524779 0.73900002 6.153351e-39
0.00070380286 0.041524779 0.73900002 6.3466979e-39
0.0021114144 0.041524768 0.73900008 6.5206902e-39
0.0035190503 0.041524787 0.73900002 6.5357639e-39
0.0049333386 0.041580968 0.74000001 6.4514702e-39
0.0063428604 0.041580975 0.74000001 4.9702725e-39
0.0077419081 0.041524787 0.73900002 3.5819753e-39
0.0091618942 0.041580964 0.74000007 4.6018487e-39
0.01057143 0.04158096 0.74000007 5.6139253e-39
0.011980952 0.041580968 0.74000007 1.1523058e-38
0.013390474 0.041580975 0.74000007 1.7519932e-38
0.014839988 0.041693352 0.7420001 1.7698524e-38
0.016253322 0.041693348 0.7420001 1.7972187e-38
0.017666657 0.041693352 0.7420001 1.4916095e-38
0.019079991 0.041693345 0.7420001 1.1855803e-38
0.020520952 0.041749537 0.74300003 1.2054237e-38
0.021936188 0.041749548 0.74300003 1.2324364e-38
0.023351431 0.041749541 0.74300003 1.2610275e-38
0.024766665 0.041749541 0.74300003 1.2965776e-38
0.026252382 0.041861922 0.74500006 9.8444412e-39
0.027745727 0.041974306 0.74700004 6.7170093e-39
0.029207621 0.042030491 0.74800003 7.1840761e-39
0.030796191 0.042255245 0.75200003 7.6532812e-39
0.032271426 0.042311449 0.75300002 7.9255423e-39
0.033705719 0.042311456 0.75300002 8.2932557e-39
0.035233341 0.042423829 0.75500005 1.0226835e-38
0.03667143 0.042423829 0.75500005 1.2259487e-38
0.038160019 0.042480018 0.75600004 1.1527029e-38
0.039704766 0.042592406 0.75800002 1.0700148e-38
0.041311428 0.042760976 0.76100004 1.0974576e-38
0.043098103 0.043098107 0.76700002 1.1249724e-38
0.04444287 0.042985745 0.76500005 1.1158606e-38
0.045900002 0.042985734 0.7650001 1.1159331e-38
-0.040228587 0.044617154 0.76800007 6.2627952e-39
-0.038715236 0.044559065 0.76700002 6.8123634e-39
-0.037254281 0.044559058 0.76700002 4.148048e-39
-0.035699997 0.044442877 0.76500005 1.4812383e-39
-0.03401906 0.044152394 0.76000011 3.0449599e-39
-0.032357141 0.043861922 0.75500005 4.6040025e-39
-0.03083715 0.043745738 0.75300002 4.0569272e-39
-0.029363824 0.043687619 0.75200009 3.498748e-39
-0.027857158 0.043571431 0.75000012 3.7678057e-39
-0.026428573 0.04357145 0.75000006 4.0458191e-39
-0.024933344 0.043455243 0.74800009 5.5144654e-39
-0.023477145 0.043397158 0.74700004 6.8959313e-39
-0.022054281 0.04339717 0.74700004 3.7688483e-39
-0.020576186 0.043280974 0.74500006 6.4500367e-40
-0.019105718 0.043164771 0.74300003 1.1031036e-39
-0.017690482 0.043164782 0.74300003 1.5676858e-39
-0.016275246 0.043164779 0.74300003 4.9781787e-39
-0.014840012 0.043106675 0.7420001 8.3826081e-39
-0.013426678 0.043106683 0.7420001 1.1061322e-38
-0.011980955 0.042990487 0.74000001 1.3637784e-38
-0.010600011 0.043106671 0.7420001 1.5396337e-38
-0.0091866758 0.043106686 0.7420001 1.7045067e-38
-0.0077733435 0.043106675 0.7420001 1.7054032e-38
-0.0063600163 0.043106683 0.7420001 1.6946305e-38
-0.0049333414 0.042990487 0.74000007 1.2976823e-38
-0.0035238136 0.042990483 0.74000007 8.9289127e-39
-0.0021114359 0.042932391 0.73900002 1.049373e-38
-0.00070381718 0.042932395 0.73900002 1.205887e-38
0.00070380332 0.042932402 0.73900002 1.2068904e-38
0.0021114284 0.042932399 0.73900002 1.2057777e-38
0.0035190401 0.042932402 0.73900002 8.0995177e-39
0.0049333302 0.042990487 0.74000007 4.1469845e-39
0.0063428525 0.04299048 0.74000007 2.1125934e-39
0.0077523743 0.042990487 0.74000007 9.2578184e-41
0.0091618961 0.042990495 0.74000007 1.8478082e-40
0.010571433 0.042990483 0.74000001 2.859924e-40
0.011980955 0.042990491 0.74000001 7.283117e-39
0.01342665 0.043106668 0.74200004 1.4284862e-38
0.014839984 0.043106675 0.74200004 1.540196e-38
0.016253319 0.043106686 0.7420001 1.6486355e-38
0.017666653 0.043106679 0.74200004 1.3446046e-38
0.019105706 0.043164767 0.74300003 1.040402e-38
0.020520952 0.043164782 0.74300003 1.105371e-38
0.021936186 0.043164779 0.74300003 1.16015e-38
0.023351431 0.043164779 0.74300003 1.1421422e-38
0.024766665 0.043164775 0.74300009 1.1137667e-38
0.026252387 0.043280959 0.74500006 8.4629613e-39
0.027745713 0.043397166 0.7470001 5.7067992e-39
0.02920761 0.043455239 0.74800009 6.4432544e-39
0.030796189 0.043687634 0.75200009 7.1908612e-39
0.032228578 0.04368763 0.75200003 1.0788957e-38
0.033705704 0.043745723 0.75300002 1.4366995e-38
0.035233334 0.043861918 0.75500011 1.4377799e-38
0.036671434 0.043861933 0.75500005 1.4376389e-38
0.038160004 0.043920007 0.75600004 1.2353879e-38
0.039599992 0.04392001 0.7560001 1.0239518e-38
0.041311432 0.04421049 0.76100004 1.0696191e-38
0.042985734 0.044442873 0.76500005 1.1064612e-38
0.044442873 0.044442873 0.76500005 1.0972779e-38
0.045900017 0.044442877 0.76500005 1.0790903e-38
-0.037302867 0.046080016 0.76800001 4.419949e-39
-0.035699993 0.045900017 0.76500005 2.7626305e-39
-0.034063816 0.045660015 0.76100004 3.4994907e-39
-0.032485716 0.045480005 0.75800002 4.2366788e-39
-0.030837152 0.045180019 0.75300002 6.0801976e-39
-0.029363817 0.045120012 0.75200003 7.8207476e-39
-0.027857155 0.045000013 0.75000012 7.451591e-39
-0.026428577 0.045000009 0.75000006 7.0752807e-39
-0.02500001 0.045000013 0.75000012 7.0777918e-39
-0.023477135 0.044820029 0.74700004 7.0774331e-39
-0.021995233 0.044700027 0.74500006 4.7801107e-39
-0.020576196 0.044700012 0.74500012 2.4802773e-39
-0.019105718 0.044580024 0.74300003 1.929623e-39
-0.017690482 0.044580016 0.74300003 1.2874934e-39
-0.016253343 0.044520009 0.7420001 2.7608088e-39
-0.014840018 0.044520013 0.7420001 4.3181405e-39
-0.013426684 0.044520006 0.7420001 5.6164659e-39
-0.011980963 0.04440001 0.74000007 6.9943893e-39
-0.010600016 0.044520017 0.7420001 8.2004785e-39
-0.0091866814 0.044520013 0.7420001 9.3085819e-39
-0.0077733477 0.04452002 0.7420001 1.0319109e-38
-0.0063600144 0.044520009 0.7420001 1.133176e-38
-0.0049466807 0.044520013 0.7420001 1.0130315e-38
-0.0035333461 0.044520006 0.7420001 8.9379314e-39
-0.0021114387 0.044340018 0.73900008 1.0043947e-38
-0.00070380972 0.044340014 0.73900002 1.1253581e-38
0.00070380798 0.044340014 0.73900002 1.1340742e-38
0.0021114186 0.044340003 0.73900008 1.1531568e-38
0.0035190396 0.044340014 0.73900002 8.4787357e-39
0.0049333344 0.044400014 0.74000007 5.4344863e-39
0.0063428562 0.044400003 0.74000007 3.494055e-39
0.0077418974 0.044340022 0.73900002 1.5619405e-39
0.0091619007 0.04440001 0.74000001 1.0109444e-39
0.010571437 0.044400014 0.74000001 4.5993698e-40
0.011980949 0.044400014 0.74000007 4.6083241e-39
0.01342666 0.044520006 0.74200004 8.853272e-39
0.014839994 0.044520013 0.74200004 1.0594268e-38
0.016253328 0.044520009 0.74200004 1.2328686e-38
0.01766666 0.044520017 0.7420001 1.0405466e-38
0.019105706 0.044580024 0.74300003 8.4751232e-39
0.020520952 0.04458002 0.74300003 8.1052659e-39
0.021936186 0.044580016 0.74300009 7.6572189e-39
0.023351431 0.044580013 0.74300003 7.9244843e-39
0.024766665 0.044580013 0.74300009 8.2100452e-39
0.02618191 0.044580009 0.74300003 7.0922434e-39
0.02774572 0.044820022 0.74700004 6.0708916e-39
0.029207606 0.044880003 0.74800009 5.7053026e-39
0.030714285 0.04500002 0.75000006 5.4391582e-39
0.032228574 0.045120005 0.75200009 8.4805252e-39
0.033705711 0.045180023 0.75300002 1.1610537e-38
0.035233337 0.045300022 0.75500005 1.3085716e-38
0.036671434 0.045300029 0.75500005 1.4657656e-38
0.038109522 0.045300014 0.75500005 1.4198095e-38
0.0396 0.04536001 0.7560001 1.3728531e-38
0.04104 0.045360006 0.7560001 1.2537915e-38
0.042985722 0.04590001 0.76500005 1.124756e-38
-0.037400004 0.047666676 0.7700001 4.689371e-39
-0.035699997 0.047357157 0.76500005 3.9543353e-39
-0.034063812 0.047109541 0.76100004 3.953985e-39
-0.032485716 0.046923824 0.75800008 3.8725766e-39
-0.030959999 0.046800014 0.75600004 8.0227742e-39
-0.029402867 0.046614308 0.75300002 1.215319e-38
-0.027931435 0.046552386 0.75200003 1.114261e-38
-0.026428578 0.046428587 0.75000012 1.012416e-38
-0.025000013 0.046428576 0.75000012 8.7354998e-39
-0.023508588 0.046304774 0.74800009 7.268999e-39
-0.021995235 0.046119068 0.74500006 5.7935298e-39
-0.020576186 0.046119068 0.74500006 4.3248793e-39
-0.019157136 0.046119075 0.74500006 2.6635895e-39
-0.017690483 0.04599525 0.74300003 1.0116366e-39
-0.016275238 0.045995262 0.74300003 6.4322963e-40
-0.014860004 0.045995269 0.74300003 1.844389e-40
-0.013444759 0.045995265 0.74300003 2.7594369e-40
-0.012013346 0.045933347 0.7420001 3.7245813e-40
-0.010600014 0.04593334 0.7420001 1.0106571e-39
-0.0091866795 0.045933351 0.7420001 1.5699125e-39
-0.0077733453 0.045933343 0.7420001 3.5820342e-39
-0.0063600107 0.045933347 0.7420001 5.6167532e-39
-0.004946677 0.045933351 0.7420001 7.2740871e-39
-0.0035333429 0.045933343 0.7420001 8.8388989e-39
-0.0021142941 0.045809537 0.74000007 9.5825722e-39
-0.00070476619 0.045809526 0.74000007 1.031581e-38
0.00070380751 0.045747653 0.73900002 1.0691752e-38
0.0021114182 0.045747638 0.73900002 1.0962949e-38
0.0035190438 0.045747641 0.73900008 8.8485776e-39
0.0049333367 0.045809533 0.74000001 6.7191042e-39
0.0063428585 0.045809537 0.74000001 4.8676498e-39
0.0077419016 0.045747641 0.73900008 2.9470007e-39
0.0091618923 0.045809526 0.74000007 1.7452528e-39
0.01057143 0.04580953 0.74000007 5.5139413e-40
0.011980951 0.04580953 0.74000007 2.0207649e-39
0.013426656 0.045933343 0.74200004 3.4094531e-39
0.01483999 0.045933351 0.74200004 5.7921873e-39
0.016253324 0.045933347 0.74200004 8.1939092e-39
0.017690483 0.045995262 0.74300003 7.3717029e-39
0.019105705 0.045995258 0.74300009 6.545503e-39
0.02052095 0.045995254 0.74300003 5.1431801e-39
0.021936184 0.045995254 0.74300009 3.6896048e-39
0.023351429 0.045995262 0.74300003 4.5003499e-39
0.024766674 0.045995258 0.74300003 5.2573019e-39
0.02618191 0.04599525 0.74300003 5.809059e-39
0.027745727 0.04624287 0.74700004 6.3539413e-39
0.029207617 0.046304766 0.74800009 4.9598763e-39
0.030714288 0.046428591 0.75000006 3.5938499e-39
0.032228578 0.046552405 0.75200003 6.1753149e-39
0.033705711 0.046614304 0.75300002 8.7524976e-39
0.035233337 0.046738118 0.75500005 1.1879617e-38
0.036671426 0.046738107 0.75500005 1.4933893e-38
0.038109522 0.046738122 0.75500005 1.6143927e-38
0.039547626 0.046738114 0.75500005 1.7233404e-38
0.040985711 0.046738114 0.75500005 1.4387587e-38
-0.037400007 0.049133345 0.7700001 5.7060313e-39
-0.035700001 0.048814312 0.76500005 3.5851969e-39
-0.034063809 0.048559073 0.76100004 2.8526569e-39
-0.03248572 0.04836762 0.75800008 2.1230484e-39
-0.030960005 0.048240017 0.75600004 5.811947e-39
-0.029519998 0.04824001 0.75600004 9.5954585e-39
-0.027931442 0.047984771 0.75200009 1.0969722e-38
-0.026499052 0.047984786 0.75200003 1.2440509e-38
-0.025000015 0.047857154 0.75000012 1.1878359e-38
-0.023477143 0.047665738 0.74700004 1.1325907e-38
-0.021995235 0.047538113 0.74500006 9.8515108e-39
-0.020576188 0.047538113 0.74500006 8.3828603e-39
-0.019157138 0.047538109 0.74500006 6.6286588e-39
-0.017690483 0.047410492 0.74300003 4.9616489e-39
-0.016275238 0.047410503 0.74300003 3.9500418e-39
-0.014860004 0.047410488 0.74300003 3.0309525e-39
-0.013444759 0.047410503 0.74300003 4.788007e-39
-0.012013344 0.047346689 0.7420001 6.6164647e-39
-0.010614287 0.047410499 0.74300003 4.6922213e-39
-0.009199053 0.047410484 0.74300009 2.8472661e-39
-0.0077733421 0.047346678 0.74200004 3.1242117e-39
-0.0063600158 0.047346689 0.74200004 3.4015413e-39
-0.0049466807 0.047346681 0.74200004 5.0610655e-39
-0.0035333475 0.047346685 0.74200004 6.714103e-39
-0.0021142913 0.047219064 0.74000007 7.2665495e-39
-0.00070476154 0.047219053 0.74000007 7.7145979e-39
0.0007037968 0.047155257 0.73900002 7.9147607e-39
0.002114282 0.047219053 0.74000001 8.003739e-39
0.0035333289 0.047346685 0.7420001 9.3841525e-39
0.0049333302 0.047219064 0.74000007 1.075556e-38
0.0063428525 0.047219053 0.74000007 1.1141888e-38
0.0077523747 0.04721906 0.74000007 1.1602851e-38
0.0091618961 0.047219053 0.74000007 9.4820164e-39
0.010599983 0.047346678 0.74200004 7.4390367e-39
0.012013318 0.047346681 0.74200004 4.7761661e-39
0.01342665 0.047346689 0.74200004 2.2058498e-39
0.014839985 0.047346681 0.74200004 5.8921854e-39
0.016253319 0.047346685 0.74200004 9.5793071e-39
0.017690483 0.047410492 0.74300003 1.0509212e-38
0.019105703 0.047410496 0.74300009 1.152794e-38
0.020520948 0.047410492 0.74300003 1.1605353e-38
0.021936193 0.047410499 0.74300003 1.1783293e-38
0.023414295 0.047538117 0.74500006 1.0957498e-38
0.024833338 0.047538113 0.74500006 1.0223935e-38
0.026252385 0.047538109 0.74500012 1.0595627e-38
0.027745713 0.04766573 0.7470001 1.0962946e-38
0.029207613 0.047729533 0.74800009 7.8225791e-39
0.030714277 0.047857154 0.75000006 4.7798305e-39
0.032142844 0.047857158 0.75000012 5.6146204e-39
0.033660956 0.04798476 0.75200009 6.5376655e-39
0.035139997 0.048048593 0.75300002 1.0229766e-38
0.036574285 0.048048578 0.75300002 1.3839414e-38
0.038109515 0.048176218 0.75500011 1.5587599e-38
0.0396 0.048240006 0.7560001 1.7326014e-38
0.041039996 0.048240013 0.7560001 1.5398901e-38
-0.037302867 0.050468579 0.76800001 6.7230587e-39
-0.035700001 0.050271437 0.76500005 3.1306899e-39
-0.034063816 0.050008595 0.76100004 1.7484716e-39
-0.032571442 0.049942877 0.76000011 2.8343504e-40
-0.031041902 0.049811441 0.75800002 3.6899846e-39
-0.029519998 0.049680017 0.75600004 7.0100558e-39
-0.02804286 0.049614303 0.75500005 1.0883294e-38
-0.026499055 0.049417157 0.75200009 1.4644599e-38
-0.025066674 0.049417157 0.75200003 1.5010862e-38
-0.023508579 0.049154308 0.74800003 1.5282064e-38
-0.022054292 0.04908859 0.7470001 1.3811978e-38
-0.020576186 0.048957158 0.74500006 1.2340112e-38
-0.019157141 0.048957154 0.74500012 1.0598836e-38
-0.017738096 0.048957165 0.74500006 8.834915e-39
-0.016275238 0.048825741 0.74300003 7.3472194e-39
-0.014860004 0.048825741 0.74300003 5.8958133e-39
-0.01344476 0.048825733 0.74300003 9.4124924e-39
-0.012029533 0.048825722 0.74300003 1.2797461e-38
-0.010614287 0.048825733 0.74300003 8.4779314e-39
-0.009199053 0.048825733 0.74300009 4.0544007e-39
-0.0077733458 0.048760019 0.74200004 2.6661063e-39
-0.0063685705 0.048825741 0.74300003 1.1985558e-39
-0.0049466789 0.048760019 0.74200004 2.9463253e-39
-0.0035333456 0.048760008 0.74200004 4.59973e-39
-0.0021142876 0.048628595 0.74000001 4.8716562e-39
-0.00070475874 0.048628587 0.74000001 5.1518079e-39
0.00070475327 0.048628584 0.74000007 5.1575294e-39
0.0021199901 0.048760023 0.74200004 5.0617899e-39
0.0035333238 0.048760012 0.74200004 9.9280385e-39
0.004933333 0.048628572 0.74000007 1.473579e-38
0.0063428548 0.04862858 0.74000007 1.7524595e-38
0.0077523775 0.048628591 0.74000007 2.0168093e-38
0.0091618998 0.04862858 0.74000001 1.7233302e-38
0.010571436 0.048628591 0.74000001 1.4266508e-38
0.012013327 0.048760019 0.74200004 7.6227077e-39
0.013426661 0.048760012 0.74200004 9.2913655e-40
0.014839996 0.048760019 0.74200004 5.8990335e-39
0.016253328 0.048760008 0.74200004 1.0872913e-38
0.017690482 0.04882573 0.74300003 1.364884e-38
0.019105712 0.048825741 0.74300003 1.6399941e-38
0.020520948 0.048825726 0.74300003 1.8150537e-38
0.021936191 0.048825741 0.74300003 1.9793184e-38
0.023414288 0.048957147 0.74500012 1.7505917e-38
0.024833329 0.048957162 0.74500006 1.5197104e-38
0.026252385 0.048957169 0.74500006 1.5386862e-38
0.02774572 0.049088597 0.74700004 1.5465756e-38
0.02920761 0.049154297 0.74800003 1.0678802e-38
0.030714281 0.049285717 0.75000006 5.893668e-39
0.03222857 0.049417146 0.75200009 5.1496555e-39
0.033660945 0.049417157 0.75200003 4.331443e-39
0.035140008 0.049482871 0.75300002 8.5702826e-39
0.03667143 0.049614307 0.75500005 1.2727695e-38
0.038109519 0.04961431 0.75500005 1.5132342e-38
0.03954763 0.049614307 0.75500005 1.7423924e-38
0.040985718 0.049614318 0.75500005 1.6419475e-38
-0.03886668 0.05206668 0.7700001 1.0969782e-38
-0.037302867 0.051931437 0.76800001 7.5549788e-39
-0.035699993 0.051728599 0.76500005 4.1398098e-39
-0.034063812 0.051458113 0.76100004 3.8617558e-39
-0.032571442 0.051390495 0.76000005 3.4908265e-39
-0.031041905 0.051255256 0.75800002 4.8819907e-39
-0.029519999 0.05112002 0.75600004 6.1670179e-39
-0.028042857 0.05105241 0.75500005 7.005063e-39
-0.026604772 0.051052395 0.75500005 7.8463003e-39
-0.025066677 0.050849546 0.75200009 9.6779978e-39
-0.023571439 0.050714303 0.75000012 1.1612289e-38
-0.022054285 0.050511446 0.74700004 1.2067165e-38
-0.020576186 0.050376203 0.74500006 1.2525649e-38
-0.019157138 0.050376214 0.74500006 1.1149934e-38
-0.017738098 0.050376218 0.74500012 9.7680116e-39
-0.016319051 0.05037621 0.74500006 8.8359393e-39
-0.014860006 0.050240964 0.74300009 7.8333509e-39
-0.013444761 0.050240975 0.74300003 1.0601756e-38
-0.012029534 0.050240964 0.74300009 1.3459e-38
-0.01061429 0.050240971 0.74300003 1.1059736e-38
-0.0091990437 0.050240967 0.74300003 8.6547865e-39
-0.0077838167 0.050240967 0.74300003 4.7829806e-39
-0.0063685724 0.050240979 0.74300003 9.2339964e-40
-0.0049533369 0.050240964 0.74300003 2.7608466e-39
-0.0035380926 0.050240964 0.74300003 4.6015194e-39
-0.0021200078 0.050173357 0.74200004 4.6940878e-39
-0.00070667447 0.050173346 0.74200004 4.6994408e-39
0.0007066527 0.050173339 0.74200004 3.6824064e-39
0.0021199863 0.050173346 0.74200004 2.5765086e-39
0.0035333205 0.050173353 0.74200004 8.8479428e-39
0.0049466537 0.050173342 0.74200004 1.5133359e-38
0.0063599884 0.05017335 0.74200004 1.7427519e-38
0.0077523706 0.050038096 0.74000007 1.970978e-38
0.0091618923 0.050038099 0.74000007 1.8339785e-38
0.01057143 0.05003811 0.74000007 1.6964611e-38
0.011980951 0.050038099 0.74000007 1.1513877e-38
0.013426658 0.050173339 0.74200004 6.1727436e-39
0.014839991 0.050173342 0.74200004 6.9996554e-39
0.016253326 0.05017335 0.74200004 7.9359876e-39
0.017666658 0.050173346 0.74200004 1.0599258e-38
0.019079994 0.05017335 0.74200004 1.327185e-38
0.020520946 0.050240964 0.74300003 1.6309992e-38
0.021936191 0.050240975 0.74300003 1.9427033e-38
0.023414288 0.05037621 0.74500006 1.713116e-38
0.024833344 0.050376218 0.74500006 1.4916637e-38
0.02632286 0.050511442 0.74700004 1.3164519e-38
0.027745729 0.050511453 0.74700004 1.1517547e-38
0.02920761 0.050579067 0.74800003 1.0134242e-38
0.030714286 0.050714295 0.75000012 8.6601871e-39
0.032228578 0.050849542 0.75200003 7.0881964e-39
0.033660956 0.050849531 0.75200009 5.5163179e-39
0.035140008 0.05091716 0.75300002 7.5572334e-39
0.036574282 0.05091716 0.75300002 9.6953234e-39
0.038109519 0.051052399 0.75500005 1.2181382e-38
0.039547622 0.051052406 0.75500005 1.4757085e-38
0.040985718 0.051052403 0.75500005 1.3924113e-38
0.042423807 0.051052395 0.75500005 1.3179355e-38
-0.038866676 0.053533349 0.7700001 1.1517905e-38
-0.037302867 0.053394303 0.76800007 8.3875925e-39
-0.035699997 0.053185727 0.76500005 5.1582553e-39
-0.034063812 0.052907646 0.76100004 5.9754211e-39
-0.032614291 0.052907635 0.76100004 6.7191e-39
-0.031041909 0.052699052 0.75800002 6.0884751e-39
-0.029519994 0.05256002 0.75600004 5.3466066e-39
-0.028080009 0.052560005 0.7560001 3.1231734e-39
-0.026604768 0.052490506 0.75500005 9.3419244e-40
-0.025100015 0.052351441 0.75300002 4.4260993e-39
-0.023634292 0.052281912 0.75200009 7.9252102e-39
-0.022054283 0.051934309 0.74700004 1.0319067e-38
-0.020631421 0.051934306 0.74700004 1.2711435e-38
-0.019208577 0.051934302 0.74700004 1.1706609e-38
-0.017738089 0.051795259 0.74500006 1.0676642e-38
-0.016319051 0.051795259 0.74500012 1.0211319e-38
-0.014900001 0.051795252 0.74500006 9.7651347e-39
-0.013444761 0.051656213 0.74300003 1.1886039e-38
-0.012029525 0.051656205 0.74300003 1.4007927e-38
-0.010614291 0.051656213 0.74300003 1.3647747e-38
-0.0091990456 0.051656205 0.74300003 1.3164469e-38
-0.0077838181 0.051656201 0.74300003 6.8880223e-39
-0.0063685728 0.051656205 0.74300003 5.5282766e-40
-0.0049533383 0.051656201 0.74300003 2.5725093e-39
-0.0035380926 0.051656209 0.74300003 4.6054459e-39
-0.0021200124 0.05158668 0.74200004 4.4203386e-39
-0.0007066782 0.051586684 0.74200004 4.2366535e-39
0.00070666248 0.051586676 0.74200004 2.2044204e-39
0.0021228511 0.051656209 0.74300003 1.0338079e-40
0.0035380968 0.051656216 0.74300003 7.7537656e-39
0.0049466491 0.05158668 0.74200004 1.5394837e-38
0.0063599981 0.051586673 0.74200004 1.734211e-38
0.0077523738 0.051447637 0.74000007 1.9257746e-38
0.0091618961 0.05144763 0.74000007 1.945111e-38
0.010571432 0.051447626 0.74000007 1.9526663e-38
0.012013319 0.051586684 0.74200004 1.5479305e-38
0.013426652 0.051586676 0.74200004 1.1313726e-38
0.01486 0.051656209 0.74300003 8.0819272e-39
0.016253321 0.051586691 0.74200004 4.8795385e-39
0.017666653 0.05158668 0.74200004 7.5399148e-39
0.01910571 0.051656205 0.74300003 1.013684e-38
0.020520944 0.051656201 0.74300003 1.4573347e-38
0.021995248 0.051795255 0.74500006 1.8969956e-38
0.023477145 0.051934306 0.74700004 1.6765889e-38
0.02493332 0.052003816 0.74800009 1.4534876e-38
0.026358085 0.052003819 0.74800003 1.1020679e-38
0.027782856 0.052003816 0.74800009 7.5520851e-39
0.029285723 0.052142873 0.75000006 9.4964063e-39
0.030796185 0.05228192 0.75200009 1.1420273e-38
0.032228574 0.052281916 0.75200009 9.0264346e-39
0.033660948 0.052281912 0.75200003 6.6305071e-39
0.03514 0.052351452 0.75300002 6.6309135e-39
0.036574289 0.05235146 0.75300002 6.557435e-39
0.038109522 0.052490503 0.75500005 9.3247599e-39
0.039547622 0.052490499 0.75500005 1.2081625e-38
0.040877134 0.052351445 0.75300002 1.1524162e-38
0.042311423 0.052351452 0.75300002 1.0974214e-38
-0.037302867 0.054857157 0.76800001 8.2961101e-39
-0.035699993 0.054642875 0.76500005 5.711785e-39
-0.034153331 0.054500021 0.76300001 6.6272519e-39
-0.032614287 0.054357164 0.76100004 7.5560634e-39
-0.031041909 0.05414287 0.75800008 7.9345779e-39
-0.0295981 0.054142874 0.75800008 8.3954832e-39
-0.028080001 0.054000009 0.7560001 6.9091876e-39
-0.026640004 0.05400002 0.7560001 5.4222417e-39
-0.025066676 0.053714298 0.75200009 6.8101774e-39
-0.023571439 0.053571444 0.75000012 8.1906456e-39
-0.022083819 0.053428583 0.74800003 9.3020644e-39
-0.020659056 0.053428583 0.74800003 1.0417305e-38
-0.0192343 0.053428587 0.74800009 1.0035553e-38
-0.017738098 0.053214304 0.74500006 9.643453e-39
-0.016319042 0.0532143 0.74500006 1.0765202e-38
-0.014900003 0.0532143 0.74500012 1.1885253e-38
-0.013444765 0.053071447 0.74300003 1.2897325e-38
-0.012029525 0.053071447 0.74300003 1.3916161e-38
-0.010614291 0.053071443 0.74300003 1.465877e-38
-0.0091990465 0.053071443 0.74300003 1.5386158e-38
-0.007783819 0.053071443 0.74300003 9.7474784e-39
-0.0063685738 0.053071454 0.74300003 4.1333344e-39
-0.0049533397 0.053071439 0.74300009 7.1797068e-39
-0.0035380945 0.053071436 0.74300003 1.0316446e-38
-0.0021200096 0.053000022 0.74200004 1.0039487e-38
-0.0007066754 0.053000011 0.74200004 9.7553705e-39
0.00070665829 0.053000018 0.74200004 5.15104e-39
0.0021199924 0.053000022 0.74200004 5.5141235e-40
0.0035380954 0.053071439 0.74300003 4.7966895e-39
0.0049466603 0.053000018 0.74200004 9.1352777e-39
0.0063599939 0.053000018 0.74200004 1.0972425e-38
0.0077523771 0.052857153 0.74000001 1.2813089e-38
0.0091990391 0.053071454 0.74300003 1.3637822e-38
0.010614285 0.053071447 0.74300003 1.4548519e-38
0.012013329 0.053000007 0.74200004 1.0402882e-38
0.013426663 0.053000014 0.74200004 6.2455424e-39
0.014839998 0.053000022 0.74200004 4.4084836e-39
0.01625333 0.053000014 0.74200004 2.5717652e-39
0.017666664 0.053000018 0.74200004 4.048298e-39
0.01910571 0.05307145 0.74300003 5.6207118e-39
0.020520944 0.053071439 0.74300009 1.0595701e-38
0.0220543 0.053357165 0.74700004 1.5562306e-38
0.023477154 0.053357158 0.74700004 1.4358354e-38
0.024933316 0.053428583 0.74800009 1.3231891e-38
0.026358087 0.053428568 0.74800009 1.0200559e-38
0.027782852 0.053428587 0.74800003 7.1732314e-39
0.029285712 0.053571444 0.75000006 9.2129979e-39
0.030796193 0.053714301 0.75200003 1.1243416e-38
0.03222857 0.053714287 0.75200009 9.6750298e-39
0.033660959 0.053714301 0.75200009 8.1037889e-39
0.03514 0.053785738 0.75300002 6.3538978e-39
0.036671426 0.053928591 0.75500011 4.6191492e-39
0.038109522 0.053928599 0.75500005 8.5817886e-39
0.039547626 0.053928584 0.75500005 1.2536106e-38
0.040985711 0.053928595 0.75500005 1.1893626e-38
0.0424238 0.05392858 0.75500005 1.134298e-38
-0.035793323 0.05624669 0.76700002 6.2649532e-39
-0.034153324 0.055953361 0.76300001 7.2657816e-39
-0.032614287 0.055806696 0.76100004 8.2943529e-39
-0.031041913 0.055586681 0.75800008 9.8818293e-39
-0.029520011 0.05544002 0.7560001 1.1337155e-38
-0.028080003 0.055440012 0.7560001 1.0604573e-38
-0.026640005 0.055440009 0.7560001 9.847618e-39
-0.025066677 0.055146683 0.75200009 9.1093186e-39
-0.023634288 0.055146679 0.75200009 8.3732334e-39
-0.022142863 0.055000015 0.75000012 8.2814315e-39
-0.020714298 0.055 0.75000012 8.1002282e-39
-0.019234296 0.054853354 0.74800009 8.3749752e-39
-0.017785717 0.054780014 0.7470001 8.5608252e-39
-0.016319051 0.054633345 0.74500006 1.132058e-38
-0.014899995 0.054633357 0.74500006 1.399749e-38
-0.013444765 0.054486685 0.74300003 1.3902117e-38
-0.012029528 0.054486685 0.74300003 1.3830421e-38
-0.010614292 0.054486681 0.74300009 1.568476e-38
-0.0091990475 0.054486677 0.74300003 1.7495894e-38
-0.007783819 0.054486681 0.74300009 1.2581869e-38
-0.0063685747 0.054486673 0.74300003 7.6382117e-39
-0.0049533295 0.054486688 0.74300003 1.1788779e-38
-0.0035380945 0.054486688 0.74300003 1.5932857e-38
-0.0021200078 0.05441336 0.74200004 1.5666321e-38
-0.00070667261 0.054413348 0.74200004 1.5281702e-38
0.00070665317 0.054413356 0.74200004 8.0926472e-39
0.0021199877 0.054413348 0.74200004 9.2160457e-40
0.0035380954 0.054486696 0.74300003 1.837468e-39
0.0049466556 0.054413345 0.74200004 2.7680591e-39
0.006342859 0.054266687 0.74000001 4.5075918e-39
0.0077523813 0.05426668 0.74000001 6.2657463e-39
0.0091618914 0.054266676 0.74000007 7.9220223e-39
0.010571429 0.054266669 0.74000007 9.5782534e-39
0.012013325 0.054413348 0.74200004 5.3383586e-39
0.013426658 0.054413352 0.74200004 1.1060084e-39
0.014839992 0.054413363 0.74200004 6.4321842e-40
0.016253326 0.054413356 0.74200004 1.847598e-40
0.01766666 0.054413345 0.74200004 6.4501348e-40
0.01910571 0.054486673 0.74300003 1.1110685e-39
0.020520953 0.054486685 0.74300003 6.6266409e-39
0.022054292 0.054780021 0.74700004 1.2056039e-38
0.023508575 0.054853365 0.74800003 1.1964546e-38
0.024999995 0.055000011 0.75000012 1.1865852e-38
0.026428573 0.055000007 0.75000012 9.3765673e-39
0.02785714 0.055000007 0.75000012 6.8141557e-39
0.029285718 0.055000022 0.75000012 8.9382243e-39
0.030796189 0.055146676 0.75200009 1.105655e-38
0.032228578 0.055146683 0.75200003 1.0325825e-38
0.033660941 0.055146672 0.75200009 9.481341e-39
0.035140011 0.055220019 0.75300002 6.0618756e-39
0.03672 0.055440016 0.7560001 2.5933789e-39
0.038159996 0.055440012 0.7560001 7.8467431e-39
0.039600011 0.055440009 0.7560001 1.2995287e-38
0.041148581 0.055586681 0.75800002 1.2354249e-38
0.042592388 0.055586681 0.75800002 1.161993e-38
-0.035699993 0.057557166 0.76500005 5.8929505e-39
-0.034153339 0.057406679 0.76300001 5.3397333e-39
-0.032614291 0.057256207 0.76100004 4.8925131e-39
-0.031041902 0.057030492 0.75800002 7.7488582e-39
-0.029520003 0.056880008 0.7560001 1.0589624e-38
-0.028080005 0.056880016 0.7560001 9.0269489e-39
-0.026640005 0.056880012 0.7560001 7.4577973e-39
-0.025066674 0.056579068 0.75200003 7.6381823e-39
-0.023634294 0.05657905 0.75200009 7.820061e-39
-0.022142867 0.056428593 0.75000012 6.9888794e-39
-0.020714292 0.056428578 0.75000012 6.153365e-39
-0.019285722 0.056428578 0.75000012 8.74518e-39
-0.017785717 0.056202881 0.74700004 1.1424254e-38
-0.016319042 0.056052405 0.74500006 1.3453305e-38
-0.014900004 0.05605239 0.74500006 1.548374e-38
-0.013444765 0.055901922 0.74300009 1.4556784e-38
-0.012029529 0.055901915 0.74300003 1.3746476e-38
-0.010614293 0.055901922 0.74300009 1.6142518e-38
-0.0091990475 0.055901915 0.74300003 1.8616963e-38
-0.0077838106 0.055901926 0.74300003 1.3441797e-38
-0.0063685756 0.05590193 0.74300003 8.2929614e-39
-0.0049533313 0.055901922 0.74300003 1.2162657e-38
-0.0035380954 0.055901911 0.74300003 1.6040934e-38
-0.0021200115 0.055826683 0.74200004 1.6037366e-38
-0.0007066782 0.05582669 0.74200004 1.6132674e-38
0.00070666388 0.055826679 0.74200004 9.4888351e-39
0.0021199971 0.055826686 0.74200004 2.7554264e-39
0.0035333307 0.055826679 0.74200004 2.1125765e-39
0.0049466649 0.055826683 0.74200004 1.5615636e-39
0.0063428511 0.055676192 0.74000007 4.6900689e-39
0.0077523729 0.055676199 0.74000007 7.8096143e-39
0.0091618951 0.055676207 0.74000007 9.7589732e-39
0.010599986 0.055826683 0.74200004 1.1790168e-38
0.01201332 0.05582669 0.74200004 8.9300463e-39
0.013426643 0.055826668 0.7420001 6.064433e-39
0.014839987 0.05582669 0.74200004 3.5887604e-39
0.016253311 0.055826668 0.7420001 1.1031148e-39
0.017666645 0.055826671 0.7420001 9.1945358e-40
0.019105706 0.05590193 0.74300003 8.2765171e-40
0.020520952 0.055901922 0.74300003 5.978724e-39
0.022054292 0.056202874 0.74700004 1.1131928e-38
0.023477145 0.056202877 0.74700004 1.1966709e-38
0.025 0.056428585 0.75000012 1.2797854e-38
0.026428562 0.056428581 0.75000012 1.1139395e-38
0.027857143 0.05642857 0.75000012 9.5749757e-39
0.029363807 0.056579061 0.75200009 9.9455589e-39
0.030796194 0.056579057 0.75200003 1.0320467e-38
0.032228574 0.056579057 0.75200009 1.0043197e-38
0.033660963 0.056579053 0.75200003 9.8526486e-39
0.035093326 0.056579053 0.75200009 6.8105361e-39
0.036720004 0.056880008 0.7560001 3.8758388e-39
0.038160004 0.056880016 0.7560001 8.117942e-39
0.039704766 0.057030492 0.75800002 1.2448225e-38
0.041148577 0.057030484 0.75800002 1.1987635e-38
0.042592388 0.057030492 0.75800002 1.1619579e-38
-0.035793327 0.059168588 0.76700002 5.4283948e-39
-0.034153342 0.058860004 0.76300001 3.4908503e-39
-0.032571442 0.058628578 0.76000011 1.4837901e-39
-0.03096001 0.058320016 0.7560001 5.6304256e-39
-0.02948096 0.058242876 0.75500005 9.7576238e-39
-0.028080005 0.058320004 0.7560001 7.3637842e-39
-0.026604772 0.058242872 0.75500005 4.9720956e-39
-0.025066676 0.058011439 0.75200009 6.1659375e-39
-0.023634287 0.05801145 0.75200003 7.2661613e-39
-0.022142868 0.057857152 0.75000012 5.700286e-39
-0.020714287 0.057857171 0.75000006 4.1416077e-39
-0.019285727 0.057857156 0.75000012 9.2115882e-39
-0.017785707 0.057625737 0.74700004 1.4281242e-38
-0.016319044 0.057471454 0.74500006 1.5584923e-38
-0.014899995 0.05747145 0.74500006 1.6859497e-38
-0.013444766 0.05731716 0.74300009 1.5186725e-38
-0.012029529 0.057317156 0.74300003 1.355922e-38
-0.010614284 0.057317168 0.74300003 1.6613891e-38
-0.0091990484 0.057317153 0.74300003 1.9622147e-38
-0.0077838115 0.057317168 0.74300003 1.4275165e-38
-0.0063685775 0.057317149 0.74300003 8.8454163e-39
-0.0049533313 0.05731716 0.74300003 1.2435637e-38
-0.0035380973 0.057317164 0.74300009 1.6030173e-38
-0.0021200078 0.05724002 0.74200004 1.6492259e-38
-0.00070667447 0.057240028 0.74200004 1.6954903e-38
0.00070665969 0.057240017 0.74200004 1.0790685e-38
0.0021199933 0.057240013 0.74200004 4.6036214e-39
0.0035333172 0.057240006 0.7420001 2.4799199e-39
0.0049466612 0.057240024 0.74200004 2.798393e-40
0.0063428553 0.057085723 0.74000007 4.7902071e-39
0.0077523771 0.057085726 0.74000007 9.2980455e-39
0.0091618989 0.057085723 0.74000001 1.1697615e-38
0.010599987 0.057240009 0.7420001 1.3995293e-38
0.01201332 0.057240017 0.7420001 1.252664e-38
0.013426654 0.057240006 0.7420001 1.1045784e-38
0.014839988 0.057240017 0.7420001 6.5436841e-39
0.016253322 0.057240006 0.7420001 1.936111e-39
0.017666657 0.057240009 0.7420001 1.2860739e-39
0.019105706 0.057317149 0.74300003 5.5213682e-40
0.020520952 0.05731716 0.74300003 5.3290456e-39
0.0220543 0.05762573 0.74700004 1.0121371e-38
0.023477154 0.057625741 0.74700004 1.1880256e-38
0.024999999 0.05785716 0.75000006 1.3628715e-38
0.026428565 0.05785716 0.75000012 1.2991605e-38
0.027857132 0.057857148 0.75000012 1.2338318e-38
0.029363802 0.058011435 0.75200009 1.0948196e-38
0.030796191 0.058011446 0.75200009 9.4853178e-39
0.032228578 0.058011439 0.75200003 9.8566381e-39
0.033660945 0.058011442 0.75200009 1.0218906e-38
