# .PCD v0.7 - Point Cloud Data file format
VERSION 0.7
FIELDS x y z rgb
SIZE 4 4 4 4
TYPE F F F F
COUNT 1 1 1 1
WIDTH 951
HEIGHT 1
VIEWPOINT 0 0 0 1 0 0 0
POINTS 951
DATA ascii
0.017404739 -0.0076581091 0.73100007 1.6567926e-38
0.018797111 -0.0076581091 0.73100007 1.675159e-38
0.020189481 -0.0076581091 0.73100007 1.6844496e-38
0.021581881 -0.0076581091 0.73100007 1.6844489e-38
0.023005692 -0.0076685771 0.73200011 1.6845558e-38
0.024399968 -0.0076685771 0.73200011 1.6751209e-38
0.02586475 -0.0076895207 0.73400009 1.7028865e-38
0.027262833 -0.0076895207 0.73400003 1.7304738e-38
0.028660946 -0.0076895207 0.73400003 1.6940991e-38
0.03005901 -0.0076895207 0.73400009 1.6478215e-38
0.031457122 -0.0076895207 0.73400009 1.6202338e-38
0.032944728 -0.0077104941 0.73600012 1.5831762e-38
0.034346651 -0.0077104867 0.73600006 1.5182092e-38
0.035797123 -0.0077209622 0.73700011 1.4436237e-38
0.037200902 -0.0077209622 0.73700011 1.3959433e-38
0.038709503 -0.0077419057 0.73900008 1.3507465e-38
0.040117137 -0.0077419057 0.73900002 1.3593956e-38
0.041580927 -0.0077523813 0.74000007 1.3601811e-38
0.043106634 -0.0077733397 0.7420001 1.2122721e-38
0.044579994 -0.0077838153 0.74300009 1.066014e-38
0.046242837 -0.0078257173 0.7470001 8.8294989e-39
0.047729511 -0.0078362003 0.74800009 6.9974596e-39
0.049154293 -0.0078361854 0.74800009 6.9095771e-39
0.050714262 -0.0078571439 0.75000012 6.725553e-39
0.052281853 -0.0078781024 0.75200009 6.6333644e-39
0.053785693 -0.007888563 0.75300008 6.5426023e-39
0.055219997 -0.0078885555 0.75300002 6.8184647e-39
0.056804735 -0.0079095289 0.75500005 7.093974e-39
0.058242828 -0.0079095289 0.75500011 6.7266362e-39
-0.022231454 -0.006454289 0.75300008 9.9262014e-39
-0.020769576 -0.0064457208 0.75200015 9.7353333e-39
-0.019337174 -0.0064457133 0.75200009 1.0868186e-38
-0.01785716 -0.0064285845 0.75000012 1.1979579e-38
-0.016362872 -0.0064028651 0.7470001 8.3783019e-39
-0.014900021 -0.0063857287 0.74500006 4.7841423e-39
-0.013480979 -0.0063857287 0.74500006 6.4464872e-39
-0.012029534 -0.00636857 0.74300003 8.0209862e-39
-0.0106143 -0.0063685626 0.74300003 8.1971462e-39
-0.009186713 -0.0063600093 0.7420001 8.3574898e-39
-0.0077733644 -0.0063600019 0.7420001 6.7130492e-39
-0.0063428772 -0.0063428655 0.74000001 5.1486242e-39
-0.0049333707 -0.0063428655 0.74000007 7.5496272e-39
-0.0035190745 -0.0063342899 0.73900008 9.9560434e-39
-0.0021028896 -0.006308578 0.73600012 1.2261297e-38
-0.00070098834 -0.0063085854 0.73600012 1.4562208e-38
0.00070091849 -0.006308578 0.73600012 1.3451931e-38
0.0020971228 -0.0062914342 0.73400003 1.2439961e-38
0.003495201 -0.0062914342 0.73400009 1.2253792e-38
0.0048799855 -0.0062742829 0.73200011 1.207582e-38
0.0062742406 -0.0062742904 0.73200011 1.3636623e-38
0.0076685441 -0.0062742904 0.73200011 1.5194903e-38
0.0090628183 -0.0062742978 0.73200011 1.4804189e-38
0.01044284 -0.0062657222 0.73100001 1.4418546e-38
0.011835211 -0.0062657222 0.73100001 1.4326705e-38
0.013227609 -0.0062657222 0.73100007 1.4234928e-38
0.014619979 -0.0062657222 0.73100007 1.5353154e-38
0.01601235 -0.0062657222 0.73100007 1.6468847e-38
0.01740475 -0.0062657222 0.73100007 1.6564664e-38
0.01879712 -0.0062657222 0.73100007 1.6749065e-38
0.02018949 -0.0062657148 0.73100007 1.6751947e-38
0.021611407 -0.0062742904 0.73200011 1.6753019e-38
0.023005683 -0.0062742829 0.73200011 1.6752655e-38
0.024466651 -0.0062914267 0.73400003 1.6659026e-38
0.025935229 -0.006308578 0.73600012 1.6843054e-38
0.027262826 -0.0062914267 0.73400009 1.6935265e-38
0.028739024 -0.0063085929 0.73600012 1.6753046e-38
0.030140944 -0.0063085854 0.73600006 1.6572582e-38
0.031542819 -0.0063085854 0.73600012 1.6293825e-38
0.032989465 -0.0063171685 0.73700011 1.6015803e-38
0.034393292 -0.006317161 0.73700011 1.545797e-38
0.035797115 -0.006317161 0.73700011 1.489359e-38
0.037301883 -0.0063342899 0.73900008 1.4426784e-38
0.038761891 -0.0063428655 0.74000001 1.4051257e-38
0.040171411 -0.0063428655 0.74000007 1.4249702e-38
0.041693304 -0.0063600168 0.7420001 1.4532718e-38
0.043106634 -0.0063600168 0.7420001 1.2688091e-38
0.044579972 -0.0063685775 0.74300009 1.0847035e-38
0.046242837 -0.0064028725 0.7470001 8.8309171e-39
0.047729537 -0.0064114332 0.74800003 6.9077666e-39
0.04941709 -0.0064457208 0.75200009 6.9092142e-39
0.050917104 -0.0064542815 0.75300002 6.9081506e-39
0.052490436 -0.0064714402 0.75500011 6.7255684e-39
0.053928528 -0.0064714402 0.75500011 6.5429624e-39
0.055366646 -0.0064714327 0.75500005 6.7262621e-39
0.056879979 -0.0064800158 0.7560001 6.81702e-39
-0.023728602 -0.005033344 0.75500011 9.5606068e-39
-0.022231448 -0.0050199926 0.75300002 9.3676214e-39
-0.020769566 -0.0050133392 0.75200009 9.1961529e-39
-0.019337164 -0.0050133318 0.75200009 1.0972243e-38
-0.017857157 -0.0050000027 0.75000012 1.2617389e-38
-0.016362887 -0.0049800202 0.7470001 6.4432474e-39
-0.014900043 -0.0049666762 0.74500012 2.8164838e-40
-0.013480986 -0.0049666762 0.74500012 1.9289378e-39
-0.012029526 -0.0049533248 0.74300003 3.5992323e-39
-0.010614294 -0.0049533248 0.74300003 4.5158314e-39
-0.0091866963 -0.004946664 0.7420001 5.4287746e-39
-0.007752405 -0.0049333274 0.74000001 3.3983183e-39
-0.0063428856 -0.0049333423 0.74000007 1.2886159e-39
-0.0049266941 -0.0049266666 0.73900008 3.8621663e-39
-0.0035190587 -0.0049266592 0.73900002 6.3561217e-39
-0.0021028775 -0.0049066767 0.73600012 9.1223549e-39
-0.0007009902 -0.0049066842 0.73600012 1.1884966e-38
0.00069903163 -0.0048933327 0.73400009 1.1149936e-38
0.0020971294 -0.0048933253 0.73400003 1.0314445e-38
0.003495228 -0.0048933253 0.73400003 9.3752809e-39
0.0048799855 -0.0048800036 0.73200011 8.4751904e-39
0.006274261 -0.0048800036 0.73200011 1.2078627e-38
0.0076685348 -0.0048799962 0.73200011 1.564654e-38
0.0090628387 -0.0048799962 0.73200011 1.5073246e-38
0.010457112 -0.0048800036 0.73200011 1.4513258e-38
0.011835198 -0.0048733354 0.73100007 1.4418546e-38
0.013227598 -0.0048733428 0.73100007 1.433287e-38
0.014639966 -0.0048799962 0.73200011 1.554473e-38
0.016034272 -0.0048799962 0.73200011 1.6653605e-38
0.017428545 -0.0048799962 0.73200011 1.6656509e-38
0.018797129 -0.0048733354 0.73100001 1.6659397e-38
0.020217124 -0.0048800036 0.73200011 1.6660852e-38
0.021670444 -0.0048933253 0.73400003 1.6660836e-38
0.023068557 -0.0048933253 0.73400003 1.6660463e-38
0.02453329 -0.0049066842 0.73600012 1.6567545e-38
0.02593521 -0.0049066842 0.73600006 1.6565028e-38
0.027337113 -0.0049066916 0.73600012 1.6566467e-38
0.028739007 -0.0049066618 0.73600012 1.6562884e-38
0.030140927 -0.0049066618 0.73600006 1.6568618e-38
0.031585682 -0.0049133375 0.73700011 1.6384943e-38
0.032989491 -0.004913345 0.73700011 1.6108357e-38
0.034393314 -0.0049133375 0.73700011 1.5740294e-38
0.035797093 -0.004913345 0.73700011 1.5361407e-38
0.037301898 -0.0049266592 0.73900002 1.4987181e-38
0.038761869 -0.0049333423 0.74000007 1.4529489e-38
0.040171389 -0.0049333423 0.74000007 1.500486e-38
0.041693304 -0.004946664 0.7420001 1.5456821e-38
0.043106634 -0.0049466789 0.7420001 1.3250217e-38
0.04451998 -0.0049466714 0.7420001 1.0943171e-38
0.046304766 -0.0049866661 0.74800003 8.9227526e-39
0.047729522 -0.0049866661 0.74800003 6.8148634e-39
0.049285706 -0.0050000101 0.75000012 6.9110247e-39
0.051052347 -0.005033344 0.75500011 7.001784e-39
0.052559968 -0.0050400123 0.75600004 6.8181116e-39
0.053999968 -0.0050400048 0.7560001 6.5422351e-39
0.055439964 -0.0050400048 0.7560001 6.5422225e-39
0.056879964 -0.0050400123 0.7560001 6.5425883e-39
-0.023728613 -0.0035952553 0.75500011 9.5523461e-39
-0.022231461 -0.0035857186 0.75300008 9.553051e-39
-0.020797156 -0.0035857186 0.75300002 9.5566734e-39
-0.019337177 -0.0035809651 0.75200009 1.1239162e-38
-0.017857153 -0.0035714358 0.75000012 1.2809656e-38
-0.016362887 -0.0035571605 0.7470001 9.1207728e-39
-0.014900027 -0.0035476163 0.74500012 5.5108486e-39
-0.013480986 -0.0035476163 0.74500006 5.6999006e-39
-0.012029534 -0.0035380796 0.74300003 5.9919606e-39
-0.0106143 -0.003538087 0.74300003 8.3876261e-39
-0.0091866972 -0.003533341 0.7420001 1.0769559e-38
-0.0077733691 -0.003533341 0.7420001 6.7158308e-39
-0.0063600414 -0.003533341 0.7420001 2.755425e-39
-0.0049333549 -0.0035238266 0.74000001 4.1365448e-39
-0.0035190661 -0.0035190508 0.73900008 5.514492e-39
-0.0021028793 -0.0035047755 0.73600006 8.5605449e-39
-0.000700993 -0.0035047829 0.73600012 1.1695174e-38
0.00069902232 -0.0034952387 0.73400009 1.1514397e-38
0.002097121 -0.0034952387 0.73400009 1.1414292e-38
0.0034952187 -0.0034952387 0.73400003 9.5607035e-39
0.0048799771 -0.0034857169 0.73200011 7.8093509e-39
0.0062742787 -0.0034857169 0.73200011 1.1880584e-38
0.0076685338 -0.0034857243 0.73200011 1.583128e-38
0.0090876054 -0.0034952238 0.73400009 1.5167243e-38
0.010457112 -0.0034857094 0.73200011 1.441856e-38
0.011851387 -0.0034857169 0.73200011 1.423488e-38
0.013227605 -0.003480956 0.73100007 1.395944e-38
0.014639965 -0.0034857169 0.73200011 1.5354614e-38
0.016078064 -0.0034952238 0.73400009 1.6750833e-38
0.017476177 -0.0034952313 0.73400003 1.693633e-38
0.01887426 -0.0034952313 0.73400003 1.7122537e-38
0.020272372 -0.0034952313 0.73400003 1.6844902e-38
0.021670436 -0.0034952462 0.73400009 1.6568655e-38
0.023068549 -0.0034952462 0.73400009 1.6567913e-38
0.024533302 -0.003504768 0.73600012 1.6569694e-38
0.025935223 -0.0035047606 0.73600006 1.6567888e-38
0.027337097 -0.003504768 0.73600012 1.6477479e-38
0.028739018 -0.003504768 0.73600012 1.6106541e-38
0.030181879 -0.0035095364 0.73700011 1.5652399e-38
0.031585656 -0.0035095438 0.73700011 1.5275025e-38
0.032989483 -0.0035095289 0.73700011 1.500669e-38
0.034393307 -0.0035095289 0.73700011 1.4812254e-38
0.035894278 -0.0035190508 0.73900002 1.4629981e-38
0.037301864 -0.0035190508 0.73900008 1.4160361e-38
0.038761895 -0.0035238042 0.74000001 1.3798793e-38
0.040171411 -0.0035238117 0.74000001 1.3889586e-38
0.0416933 -0.0035333484 0.7420001 1.4080733e-38
0.043164756 -0.003538087 0.74300003 1.2321809e-38
0.044579986 -0.0035380945 0.74300003 1.0660486e-38
0.046304747 -0.003561914 0.74800003 8.4621401e-39
0.047729529 -0.0035619065 0.74800003 6.3549768e-39
0.049285706 -0.0035714358 0.75000012 6.6333826e-39
0.051119983 -0.0036000162 0.7560001 6.8184745e-39
0.052559983 -0.0036000162 0.7560001 6.634072e-39
0.053999983 -0.0036000162 0.7560001 6.4493136e-39
0.055439953 -0.0036000162 0.7560001 6.4503772e-39
0.056879956 -0.0036000013 0.7560001 6.3596333e-39
0.058474299 -0.0036095232 0.75800002 6.3596473e-39
-0.022231458 -0.0021514222 0.75300002 9.7349255e-39
-0.020797171 -0.0021514222 0.75300008 9.9333676e-39
-0.019337181 -0.0021485835 0.75200009 1.1526203e-38
-0.017904799 -0.0021485835 0.75200009 1.2996648e-38
-0.016384777 -0.0021371469 0.74800009 1.1903235e-38
-0.014940036 -0.0021343008 0.74700016 1.067702e-38
-0.013480992 -0.0021285936 0.74500012 9.4594162e-39
-0.012029525 -0.0021228567 0.74300003 8.2943066e-39
-0.010614293 -0.0021228418 0.74300003 1.2181584e-38
-0.0091867018 -0.0021199957 0.7420001 1.6017458e-38
-0.0077733737 -0.0021199957 0.7420001 1.012415e-38
-0.0063600452 -0.0021200031 0.7420001 4.234134e-39
-0.0049333652 -0.002114296 0.74000007 4.5060644e-39
-0.0035190643 -0.0021114349 0.73900002 4.6929976e-39
-0.0021057581 -0.0021057352 0.73700011 8.0938145e-39
-0.00070099486 -0.0021028668 0.73600012 1.1417518e-38
0.0006990335 -0.0020971298 0.73400003 1.1982212e-38
0.0020971126 -0.0020971447 0.73400009 1.2422701e-38
0.0034952103 -0.0020971447 0.73400009 9.8272389e-39
0.0048799762 -0.0020914376 0.73200011 7.1837117e-39
0.0062914207 -0.0020971373 0.73400003 1.1619411e-38
0.0076895053 -0.0020971298 0.73400003 1.6013155e-38
0.009087597 -0.0020971447 0.73400009 1.5162232e-38
0.010457133 -0.0020914376 0.73200011 1.4328878e-38
0.011916166 -0.0021028742 0.73600012 1.3959365e-38
0.013281877 -0.0020971373 0.73400003 1.3594612e-38
0.01467999 -0.0020971298 0.73400003 1.5162708e-38
0.016078055 -0.0020971522 0.73400009 1.6746179e-38
0.017476166 -0.0020971522 0.73400009 1.7215071e-38
0.018874278 -0.0020971298 0.73400003 1.7582061e-38
0.020272365 -0.0020971298 0.73400003 1.7027109e-38
0.021729494 -0.0021028519 0.73600006 1.6474651e-38
0.023131395 -0.0021028668 0.73600012 1.6564685e-38
0.024533315 -0.0021028593 0.73600012 1.6567548e-38
0.02593521 -0.0021028593 0.73600006 1.6476065e-38
0.027337112 -0.0021028742 0.73600012 1.6383132e-38
0.028739031 -0.0021028668 0.73600012 1.5550136e-38
0.030181874 -0.0021057203 0.73700011 1.4712465e-38
0.031585678 -0.0021057278 0.73700011 1.4238908e-38
0.032989506 -0.0021057203 0.73700011 1.3786903e-38
0.034393284 -0.0021057278 0.73700011 1.3779729e-38
0.035894271 -0.0021114498 0.73900008 1.3783668e-38
0.037352353 -0.002114296 0.74000001 1.3408427e-38
0.038761873 -0.002114296 0.74000001 1.2954993e-38
0.040279966 -0.0021200031 0.7420001 1.2857781e-38
0.041693296 -0.0021200106 0.7420001 1.2681272e-38
0.043164764 -0.0021228492 0.74300003 1.1479866e-38
0.044699971 -0.0021285713 0.74500006 1.0292435e-38
0.046304759 -0.0021371543 0.74800009 8.093736e-39
0.047857117 -0.0021428689 0.75000012 5.8943644e-39
0.049482822 -0.0021514148 0.75300002 6.2649504e-39
0.051119972 -0.0021600053 0.7560001 6.6340748e-39
0.052559968 -0.0021600127 0.7560001 6.5425869e-39
0.054142851 -0.0021657124 0.75800002 6.3585543e-39
0.05558664 -0.0021657199 0.75800008 6.2659986e-39
0.056879971 -0.0021600127 0.7560001 6.1756064e-39
-0.02232003 -0.00072000921 0.7560001 9.8289106e-39
-0.020797165 -0.00071712583 0.75300002 1.0201367e-38
-0.01936288 -0.00071714073 0.75300002 1.1145283e-38
-0.01790479 -0.00071618706 0.75200009 1.2166276e-38
-0.016384758 -0.00071237981 0.74800003 1.1431274e-38
-0.014940015 -0.00071144849 0.7470001 1.059996e-38
-0.013480991 -0.00070953369 0.74500012 8.3753269e-39
-0.012061936 -0.00070953369 0.74500012 6.1867565e-39
-0.010614285 -0.00070761889 0.74300003 1.0883336e-38
-0.0091990512 -0.00070760399 0.74300003 1.5566534e-38
-0.0077733747 -0.00070667267 0.7420001 1.0587993e-38
-0.006360034 -0.00070667267 0.7420001 5.7031572e-39
-0.004933354 -0.00070475787 0.74000001 6.3499742e-39
-0.0035190699 -0.00070380419 0.73900008 7.0861043e-39
-0.0021057636 -0.0007019192 0.73700011 8.9289239e-39
-0.00070098182 -0.00070096552 0.73600012 1.0684632e-38
0.00069902604 -0.00069904327 0.73400003 1.1420822e-38
0.0020971238 -0.00069904327 0.73400003 1.2151152e-38
0.0034952159 -0.00069905818 0.73400009 1.0215024e-38
0.0048932997 -0.00069905072 0.73400009 8.386173e-39
0.0062914123 -0.00069903582 0.73400003 1.2257579e-38
0.007689496 -0.00069903582 0.73400003 1.6204716e-38
0.0090876082 -0.00069903582 0.73400003 1.5259101e-38
0.010485672 -0.00069904327 0.73400009 1.4326727e-38
0.011883785 -0.00069904327 0.73400009 1.4051192e-38
0.013281897 -0.00069904327 0.73400009 1.386761e-38
0.014679981 -0.00069903582 0.73400003 1.5354644e-38
0.016078094 -0.00069904327 0.73400003 1.6845917e-38
0.017476158 -0.00069905072 0.73400009 1.693921e-38
0.018874271 -0.00069905072 0.73400009 1.71261e-38
0.020272356 -0.00069905072 0.73400003 1.6751573e-38
0.021729505 -0.00070095807 0.73600006 1.6380649e-38
0.023131408 -0.00070096552 0.73600012 1.6566118e-38
0.024533298 -0.00070095807 0.73600012 1.6659389e-38
0.025935221 -0.00070095807 0.73600006 1.6660465e-38
0.027337123 -0.00070096552 0.73600012 1.6569316e-38
0.028778069 -0.0007019043 0.73700011 1.5446451e-38
0.030181848 -0.00070191175 0.73700011 1.4234938e-38
0.031585675 -0.00070191175 0.73700011 1.3868955e-38
0.033079039 -0.00070381165 0.73900008 1.3500181e-38
0.034486674 -0.00070380419 0.73900002 1.3779635e-38
0.035894286 -0.00070381165 0.73900002 1.4143055e-38
0.037352357 -0.00070477277 0.74000001 1.4058418e-38
0.038761873 -0.00070477277 0.74000007 1.4051218e-38
0.040279966 -0.00070668012 0.7420001 1.3783218e-38
0.041749511 -0.00070760399 0.74300003 1.3500213e-38
0.043280911 -0.00070954114 0.74500012 1.2038055e-38
0.04481997 -0.00071144104 0.7470001 1.0568666e-38
0.046428546 -0.00071427226 0.75000012 8.2784972e-39
0.047857121 -0.00071428716 0.75000012 6.0780354e-39
0.049482856 -0.00071714073 0.75300002 6.3571306e-39
0.051119957 -0.00072001666 0.75600004 6.6344224e-39
0.052559957 -0.00072000176 0.7560001 6.450743e-39
0.053999957 -0.00072000176 0.7560001 6.3592732e-39
0.05543996 -0.00072000921 0.7560001 5.9912194e-39
0.05687996 -0.00072000921 0.7560001 5.7164317e-39
-0.023760028 0.00072000176 0.7560001 9.5523363e-39
-0.022290505 0.00071902573 0.75500011 1.0010429e-38
-0.020880042 0.00071998686 0.7560001 1.0388595e-38
-0.019362874 0.00071714818 0.75300002 1.0870793e-38
-0.017904781 0.00071619451 0.75200009 1.1332849e-38
-0.016384764 0.00071237981 0.74800003 1.0963004e-38
-0.014940029 0.00071142614 0.7470001 1.0495864e-38
-0.013480978 0.00070951134 0.74500006 7.2557231e-39
-0.012061936 0.00070952624 0.74500006 4.067011e-39
-0.010614292 0.00070762634 0.74300003 9.5987235e-39
-0.0091990596 0.00070761889 0.74300003 1.5010503e-38
-0.0077733626 0.00070666522 0.7420001 1.1049324e-38
-0.0063600349 0.00070665777 0.7420001 7.092525e-39
-0.0049333633 0.00070476532 0.74000007 8.2885599e-39
-0.003519054 0.00070380419 0.73900002 9.4817123e-39
-0.0021028914 0.00070094317 0.73600012 9.7590223e-39
-0.00069906702 0.00069905072 0.73400009 9.9463156e-39
0.00069903163 0.00069905072 0.73400003 1.0865424e-38
0.0020971294 0.00069905072 0.73400003 1.1782329e-38
0.003495228 0.00069905818 0.73400003 1.067957e-38
0.0048799808 0.00069715083 0.73200011 9.4889276e-39
0.0062914048 0.00069905072 0.73400009 1.2911224e-38
0.007689517 0.00069905072 0.73400009 1.6289757e-38
0.0090875989 0.00069905072 0.73400003 1.5342694e-38
0.010485712 0.00069905072 0.73400003 1.4328167e-38
0.011883777 0.00069905072 0.73400009 1.4234865e-38
0.013281889 0.00069905072 0.73400009 1.4056663e-38
0.014679973 0.00069904327 0.73400003 1.5450784e-38
0.016078087 0.00069904327 0.73400003 1.6841246e-38
0.017523801 0.00070095062 0.73600006 1.6753015e-38
0.018874262 0.00069905072 0.73400009 1.6660455e-38
0.020272346 0.00069905818 0.73400009 1.6472115e-38
0.021729518 0.00070094317 0.73600006 1.6289884e-38
0.023131391 0.00070093572 0.73600012 1.656719e-38
0.024533311 0.00070093572 0.73600012 1.6751573e-38
0.02597044 0.00070188195 0.73700011 1.6753721e-38
0.027374238 0.0007018894 0.73700011 1.6740415e-38
0.028778065 0.00070189685 0.73700011 1.5247338e-38
0.03018187 0.0007018894 0.73700011 1.3783678e-38
0.031585697 0.0007018894 0.73700011 1.3501683e-38
0.033079024 0.00070381165 0.73900002 1.3233721e-38
0.03448664 0.00070380419 0.73900002 1.3879452e-38
0.035894256 0.00070379674 0.73900008 1.4436945e-38
0.037352361 0.00070475042 0.74000007 1.4815072e-38
0.038866635 0.00070665777 0.7420001 1.5087335e-38
0.040279962 0.00070666522 0.7420001 1.4723566e-38
0.041749518 0.00070762634 0.74300003 1.4347598e-38
0.043280911 0.00070951134 0.74500012 1.2602708e-38
0.04481997 0.00071141869 0.7470001 1.0759512e-38
0.04642855 0.00071428716 0.75000006 8.5565064e-39
0.04798473 0.00071619451 0.75200009 6.2638532e-39
0.049482841 0.00071714818 0.75300008 6.4507584e-39
0.051119972 0.00071998686 0.7560001 6.5422267e-39
0.052559976 0.00071998686 0.7560001 6.4500241e-39
0.054142848 0.00072190166 0.75800008 6.2663629e-39
0.055586655 0.00072190166 0.75800002 5.715001e-39
0.057030465 0.0007218942 0.75800002 5.1643524e-39
-0.023760039 0.0021599978 0.7560001 9.6438103e-39
-0.022290515 0.0021571368 0.75500011 1.0102982e-38
-0.02079716 0.0021514371 0.75300002 1.0655104e-38
-0.019362887 0.0021514297 0.75300002 1.1231976e-38
-0.017904805 0.0021485686 0.75200009 1.179014e-38
-0.016384766 0.0021371394 0.74800003 1.1048616e-38
-0.014940008 0.0021342784 0.7470001 1.0317154e-38
-0.013480999 0.0021285638 0.74500012 9.3930507e-39
-0.012061943 0.0021285564 0.74500012 8.4708142e-39
-0.010614285 0.0021228641 0.74300003 1.0681386e-38
-0.0091990512 0.0021228641 0.74300003 1.2990487e-38
-0.0077733672 0.0021199882 0.7420001 1.1608588e-38
-0.0063600396 0.0021199882 0.7420001 1.0216007e-38
-0.0049333717 0.0021142736 0.74000007 8.1002198e-39
-0.0035190745 0.00211142 0.73900008 5.9976976e-39
-0.0021028933 0.002102837 0.73600012 8.3854275e-39
-0.0006990754 0.0020971373 0.73400009 1.0863192e-38
0.00069902232 0.0020971373 0.73400009 9.5753415e-39
0.0020971219 0.0020971447 0.73400003 8.2896641e-39
0.0034952196 0.0020971447 0.73400003 6.9950171e-39
0.0048933323 0.0020971447 0.73400003 5.7954285e-39
0.0062913955 0.0020971522 0.73400009 1.1242434e-38
0.0076895081 0.0020971522 0.73400009 1.665999e-38
0.0091123525 0.0021028519 0.73600006 1.5347724e-38
0.010514253 0.0021028444 0.73600012 1.4143066e-38
0.011883789 0.0020971596 0.73400003 1.4143031e-38
0.013281881 0.0020971522 0.73400009 1.4143118e-38
0.014679965 0.0020971447 0.73400009 1.5636249e-38
0.01612189 0.0021028444 0.73600012 1.7029934e-38
0.017523786 0.0021028519 0.73600006 1.6844119e-38
0.018925685 0.0021028444 0.73600012 1.6657934e-38
0.020327607 0.0021028444 0.73600012 1.6381707e-38
0.02172948 0.002102837 0.73600012 1.6106925e-38
0.023131402 0.002102837 0.73600012 1.6383155e-38
0.024533322 0.0021028519 0.73600012 1.6658653e-38
0.025970437 0.0021057054 0.73700011 1.6563938e-38
0.027374264 0.0021057054 0.73700011 1.6554934e-38
0.028778039 0.0021057054 0.73700011 1.5724075e-38
0.030181866 0.0021057054 0.73700011 1.4996937e-38
0.03158569 0.0021057054 0.73700011 1.4530598e-38
0.033079017 0.00211142 0.73900002 1.4073594e-38
0.034486655 0.0021114275 0.73900002 1.4349839e-38
0.035894267 0.00211142 0.73900002 1.4633977e-38
0.037453305 0.0021199957 0.7420001 1.5004211e-38
0.038866628 0.0021199957 0.7420001 1.5382312e-38
0.040334295 0.0021228641 0.74300003 1.4542157e-38
0.041861869 0.0021285713 0.74500006 1.3716288e-38
0.04339714 0.0021342784 0.7470001 1.2049191e-38
0.044879999 0.0021371394 0.74800009 1.0391452e-38
0.04642855 0.0021428615 0.75000006 7.9147257e-39
0.047984727 0.0021485686 0.75200009 5.4398392e-39
0.049482848 0.0021514297 0.75300002 5.9915781e-39
0.051119965 0.0021599904 0.7560001 6.5422239e-39
0.052559964 0.0021599904 0.7560001 6.5418568e-39
0.053999964 0.0021599829 0.7560001 6.5415121e-39
0.055586662 0.0021657199 0.75800002 6.0819885e-39
0.057030473 0.0021657199 0.75800002 5.6221047e-39
-0.025333364 0.0036190376 0.76000011 9.1850098e-39
-0.023822881 0.0036095157 0.75800008 9.6434572e-39
-0.022320038 0.0035999864 0.7560001 1.0285936e-38
-0.020880036 0.0035999864 0.7560001 1.0849188e-38
-0.019362869 0.0035857186 0.75300002 1.1520061e-38
-0.017904796 0.0035809502 0.75200009 1.2153211e-38
-0.016384769 0.0035619065 0.74800009 1.1124355e-38
-0.014940022 0.0035571232 0.7470001 1.0132824e-38
-0.013517158 0.0035571307 0.7470001 1.1529015e-38
-0.012061943 0.0035476163 0.74500012 1.288646e-38
-0.010614311 0.0035381019 0.74300009 1.1848647e-38
-0.0091990437 0.0035381019 0.74300003 1.0870038e-38
-0.0077838111 0.0035381019 0.74300003 1.2086512e-38
-0.0063600424 0.0035333335 0.7420001 1.3253087e-38
-0.0049333605 0.0035238042 0.74000001 7.8982661e-39
-0.0035190596 0.0035190508 0.73900002 2.4968322e-39
-0.0021028942 0.0035047531 0.73600012 7.1054674e-39
-0.00070098741 0.0035047606 0.73600012 1.1691521e-38
0.00069901394 0.0034952462 0.73400009 8.1913869e-39
0.0021028207 0.0035047531 0.73600012 4.6973122e-39
0.0034952103 0.0034952462 0.73400009 3.3983197e-39
0.0048933229 0.0034952462 0.73400003 2.0358807e-39
0.0062914076 0.0034952462 0.73400003 9.5104557e-39
0.0076895007 0.0034952387 0.73400009 1.6929387e-38
0.009087584 0.0034952462 0.73400009 1.5429154e-38
0.010514266 0.0035047531 0.73600012 1.3867558e-38
0.01191616 0.0035047531 0.73600012 1.4051195e-38
0.013281893 0.0034952387 0.73400003 1.4243204e-38
0.01471998 0.0035047457 0.73600012 1.573777e-38
0.016121875 0.0035047457 0.73600006 1.7210012e-38
0.017523777 0.0035047382 0.73600012 1.693487e-38
0.018925697 0.0035047382 0.73600012 1.6567175e-38
0.02032759 0.0035047606 0.73600006 1.6198045e-38
0.021729492 0.0035047531 0.73600012 1.5831423e-38
0.023131415 0.0035047531 0.73600012 1.6200203e-38
0.024566632 0.0035095066 0.73700011 1.6566104e-38
0.025970429 0.0035095066 0.73700011 1.6472109e-38
0.027374256 0.003509514 0.73700011 1.6281936e-38
0.028778061 0.0035095066 0.73700011 1.618898e-38
0.030181859 0.0035095066 0.73700011 1.6096795e-38
0.031671397 0.0035190508 0.73900002 1.5549381e-38
0.033079032 0.0035190582 0.73900002 1.4900451e-38
0.034486648 0.0035190508 0.73900002 1.4903339e-38
0.035894264 0.0035190433 0.73900008 1.4811138e-38
0.037453305 0.0035333186 0.7420001 1.5276767e-38
0.038919047 0.0035380945 0.74300009 1.5639078e-38
0.040334273 0.0035381094 0.74300003 1.4346555e-38
0.041974265 0.0035571232 0.7470001 1.3055812e-38
0.043455243 0.003561914 0.74800003 1.1577451e-38
0.044879999 0.0035619065 0.74800003 1.0021237e-38
0.046428554 0.0035714284 0.75000006 7.3626393e-39
0.047857128 0.0035714209 0.75000012 4.6115261e-39
0.049417101 0.0035809427 0.75200009 5.5334726e-39
0.051052343 0.0035952181 0.75500011 6.4511087e-39
0.052559979 0.0035999864 0.7560001 6.6340608e-39
0.053999979 0.0035999864 0.7560001 6.8166696e-39
0.055439949 0.0035999864 0.7560001 6.4486256e-39
0.056879949 0.0035999864 0.7560001 5.9901782e-39
-0.025266681 0.005053319 0.75800008 1.0383905e-38
-0.023822872 0.005053319 0.75800008 1.0010447e-38
-0.022320036 0.0050399899 0.7560001 1.0379565e-38
-0.020797156 0.0050200075 0.75300002 1.0659788e-38
-0.019362882 0.0050200075 0.75300002 1.0588812e-38
-0.017904807 0.0050133169 0.75200009 1.0504153e-38
-0.016384788 0.0049866587 0.74800009 9.9427367e-39
-0.014940023 0.0049799904 0.7470001 9.3978404e-39
-0.013517173 0.0049799979 0.7470001 1.1611954e-38
-0.012061927 0.0049666613 0.74500006 1.381989e-38
-0.010642887 0.0049666613 0.74500006 1.1692544e-38
-0.0091990503 0.0049533397 0.74300003 9.6772705e-39
-0.0077838176 0.0049533397 0.74300003 1.0138327e-38
-0.0063600433 0.0049466491 0.7420001 1.0689278e-38
-0.0049333577 0.0049333274 0.74000007 6.3474785e-39
-0.0035190643 0.0049266666 0.73900008 2.0265396e-39
-0.002102897 0.0049066618 0.73600012 5.3465996e-39
-0.00070097623 0.0049066618 0.73600012 8.5752291e-39
0.00069902698 0.0048933402 0.73400003 6.7249238e-39
0.0021028188 0.0049066544 0.73600012 4.8795427e-39
0.0035047396 0.0049066618 0.73600012 3.1256369e-39
0.0048933146 0.0048933253 0.73400009 1.2860977e-39
0.0062914002 0.0048933551 0.73400003 8.9418467e-39
0.0076895109 0.0048933551 0.73400003 1.6475579e-38
0.0090875747 0.0048933402 0.73400009 1.5254447e-38
0.010485687 0.0048933402 0.73400009 1.4143062e-38
0.011916171 0.0049066469 0.73600012 1.4234865e-38
0.013318046 0.0049066469 0.73600012 1.4326787e-38
0.014719966 0.0049066693 0.73600012 1.5729159e-38
0.016121889 0.0049066693 0.73600012 1.720929e-38
0.017523762 0.0049066618 0.73600012 1.6935938e-38
0.018925682 0.0049066618 0.73600012 1.6753357e-38
0.020327605 0.0049066693 0.73600006 1.6752293e-38
0.021729477 0.0049066544 0.73600012 1.6748706e-38
0.023131398 0.0049066544 0.73600012 1.6659382e-38
0.024566626 0.0049133226 0.73700011 1.6657226e-38
0.025970452 0.0049133226 0.73700011 1.6378487e-38
0.02737423 0.0049133152 0.73700011 1.6095034e-38
0.028778056 0.0049133301 0.73700011 1.5446031e-38
0.030263778 0.0049266592 0.73900008 1.4805345e-38
0.031671416 0.0049266741 0.73900002 1.470993e-38
0.033079028 0.0049266666 0.73900008 1.4708509e-38
0.034486663 0.0049266741 0.73900002 1.4615252e-38
0.035942819 0.0049333349 0.74000001 1.4521589e-38
0.037453298 0.004946664 0.7420001 1.4707018e-38
0.038919028 0.0049533397 0.74300009 1.4794894e-38
0.040442836 0.0049666613 0.74500012 1.3966924e-38
0.041974284 0.004979983 0.7470001 1.304213e-38
0.043455228 0.0049866661 0.74800003 1.1484532e-38
0.04488001 0.0049866736 0.74800003 1.0018725e-38
0.046428539 0.0049999803 0.75000012 7.7285492e-39
0.047857132 0.0050000027 0.75000012 5.5277273e-39
0.049417105 0.0050133169 0.75200009 5.898658e-39
0.051052373 0.0050333217 0.75500005 6.3596347e-39
0.052559968 0.0050399825 0.7560001 6.3582054e-39
0.053999964 0.005039975 0.7560001 6.3567859e-39
0.055439964 0.0050399899 0.7560001 6.1742065e-39
0.056879964 0.0050399899 0.7560001 5.9916257e-39
-0.026710495 0.0064971447 0.75800008 1.2607318e-38
-0.025266673 0.0064971372 0.75800008 1.1499195e-38
-0.0237286 0.0064714253 0.75500011 1.038461e-38
-0.022231456 0.006454289 0.75300002 1.0470703e-38
-0.020797171 0.006454289 0.75300002 1.048149e-38
-0.019337166 0.0064457059 0.75200009 9.6711398e-39
-0.017857168 0.0064285547 0.75000012 8.8432008e-39
-0.016384758 0.0064114258 0.74800003 8.7445648e-39
-0.014960021 0.0064114183 0.74800009 8.56843e-39
-0.013517172 0.0064028427 0.74700016 1.1700884e-38
-0.012061948 0.0063857064 0.74500012 1.4734655e-38
-0.010642893 0.0063856989 0.74500012 1.1608272e-38
-0.0092238514 0.0063856989 0.74500012 8.3865191e-39
-0.0078047938 0.0063856989 0.74500012 8.1917512e-39
-0.006360048 0.0063599944 0.7420001 8.0073361e-39
-0.0049466998 0.0063600019 0.7420001 4.7758494e-39
-0.0035238252 0.0063428581 0.74000001 1.5644839e-39
-0.0021057571 0.0063171312 0.73700011 3.4955474e-39
-0.00070097717 0.0063085631 0.73600012 5.4359464e-39
0.00070092967 0.0063085705 0.73600006 5.252651e-39
0.0021028318 0.0063085556 0.73600012 5.061043e-39
0.0035047387 0.0063085631 0.73600012 2.8472605e-39
0.0048933071 0.0062914342 0.73400009 5.6288898e-40
0.0062914188 0.0062914342 0.73400009 8.3108279e-39
0.0076895035 0.0062914342 0.73400003 1.6009565e-38
0.0091123413 0.0063085631 0.73600012 1.5153968e-38
0.010514262 0.0063085705 0.73600012 1.4327074e-38
0.011916156 0.0063085705 0.73600006 1.4326699e-38
0.013318055 0.0063085631 0.73600012 1.4334328e-38
0.014719978 0.0063085631 0.73600012 1.5734913e-38
0.016121872 0.0063085631 0.73600006 1.7118545e-38
0.017523775 0.0063085556 0.73600012 1.702994e-38
0.018925695 0.0063085556 0.73600012 1.6846634e-38
0.020327589 0.0063085705 0.73600006 1.7216853e-38
0.02172949 0.0063085631 0.73600012 1.7581321e-38
0.02313141 0.0063085631 0.73600012 1.7123216e-38
0.024566619 0.0063171312 0.73700011 1.6659733e-38
0.025970444 0.0063171387 0.73700011 1.6289522e-38
0.027374251 0.0063171312 0.73700011 1.5905242e-38
0.028778048 0.0063171387 0.73700011 1.4694084e-38
0.030181855 0.0063171312 0.73700011 1.3507051e-38
0.031671409 0.006334275 0.73900008 1.3959426e-38
0.033079043 0.0063342825 0.73900002 1.4422566e-38
0.034533303 0.0063428581 0.74000007 1.4327517e-38
0.035942826 0.0063428581 0.74000007 1.4237813e-38
0.037453294 0.006359987 0.7420001 1.4143085e-38
0.038919035 0.0063685775 0.74300009 1.3961557e-38
0.040442836 0.0063857064 0.74500006 1.3500217e-38
0.04197428 0.0064028502 0.7470001 1.304284e-38
0.04345521 0.0064114258 0.74800003 1.1483438e-38
0.044879995 0.0064114258 0.74800003 9.9268838e-39
0.046304777 0.0064114258 0.74800003 8.1880938e-39
0.047857136 0.0064285621 0.75000012 6.3546167e-39
0.049417101 0.0064457133 0.75200009 6.266014e-39
0.05091713 0.0064542964 0.75300002 6.1738184e-39
0.052559953 0.0064799935 0.7560001 6.0816213e-39
0.053999957 0.0064799935 0.7560001 5.8979615e-39
0.05558667 0.0064971372 0.75800008 5.8994077e-39
0.057180934 0.0065142959 0.76000011 5.8994175e-39
-0.02664003 0.0079199895 0.7560001 1.1332742e-38
-0.025266677 0.007940948 0.75800002 1.0763067e-38
-0.023728607 0.007909514 0.75500011 1.029278e-38
-0.022290513 0.007909514 0.75500011 1.0659414e-38
-0.020797165 0.0078885704 0.75300002 1.1032853e-38
-0.019362878 0.0078885704 0.75300002 9.5728107e-39
-0.017904788 0.0078781024 0.75200009 8.1059847e-39
-0.016428586 0.0078571439 0.75000012 8.5641154e-39
-0.015000007 0.0078571513 0.75000006 9.0225642e-39
-0.013535256 0.0078361928 0.74800003 1.096186e-38
-0.012061935 0.0078047439 0.74500012 1.2993366e-38
-0.010642892 0.0078047588 0.74500012 1.1976363e-38
-0.0091990689 0.0077838227 0.74300009 1.095573e-38
-0.0077838362 0.0077838153 0.74300009 9.2987041e-39
-0.0063600284 0.0077733323 0.7420001 7.7292596e-39
-0.0049467008 0.0077733248 0.7420001 4.3202354e-39
-0.0035238354 0.0077523664 0.74000007 9.1875713e-40
-0.0021057478 0.0077209473 0.73700011 4.9685083e-39
-0.00070097903 0.0077104643 0.73600012 9.1032538e-39
0.00070090732 0.0077104494 0.73600012 8.2853383e-39
0.0021056817 0.0077209473 0.73700011 7.448389e-39
0.0035094875 0.0077209398 0.73700011 4.0436331e-39
0.0049066371 0.0077104717 0.73600012 5.5140534e-40
0.0063085309 0.0077104717 0.73600012 8.3897393e-39
0.0077104517 0.0077104792 0.73600006 1.6199672e-38
0.0091123534 0.0077104717 0.73600012 1.5255097e-38
0.010514245 0.0077104717 0.73600012 1.4418533e-38
0.011916168 0.0077104717 0.73600006 1.4510369e-38
0.013318067 0.0077104643 0.73600012 1.4694142e-38
0.014719961 0.0077104717 0.73600012 1.5822458e-38
0.016121885 0.0077104717 0.73600006 1.6939193e-38
0.017523786 0.0077104643 0.73600012 1.6939193e-38
0.018925678 0.0077104643 0.73600012 1.7029236e-38
0.0203276 0.0077104643 0.73600006 1.721542e-38
0.021729501 0.0077104568 0.73600012 1.7399082e-38
0.023162816 0.0077209398 0.73700011 1.7122131e-38
0.024566643 0.0077209398 0.73700011 1.6753e-38
0.025970418 0.0077209398 0.73700011 1.6561799e-38
0.027374245 0.0077209473 0.73700011 1.6358299e-38
0.028856171 0.0077418983 0.73900002 1.5902968e-38
0.030304734 0.0077523738 0.74000007 1.5528827e-38
0.031714272 0.0077523813 0.74000001 1.5162936e-38
0.033213306 0.0077733397 0.7420001 1.4877764e-38
0.034626637 0.0077733323 0.7420001 1.469447e-38
0.036039967 0.0077733323 0.7420001 1.4418596e-38
0.037503809 0.0077838078 0.74300003 1.4143439e-38
0.038919043 0.0077838078 0.74300003 1.3959405e-38
0.040442813 0.0078047514 0.74500012 1.3501298e-38
0.041974258 0.007825695 0.7470001 1.304391e-38
0.043455221 0.0078361779 0.74800009 1.1392301e-38
0.044879977 0.0078361854 0.74800003 9.8336078e-39
0.046304759 0.0078361854 0.74800003 7.5431e-39
0.047857136 0.0078571513 0.75000012 5.2522432e-39
0.049482826 0.0078885853 0.75300002 5.2533264e-39
0.051052354 0.0079095215 0.75500011 5.2536753e-39
0.05249045 0.007909514 0.75500011 5.3458598e-39
0.05414287 0.007940948 0.75800002 5.3462255e-39
0.055586677 0.007940948 0.75800002 5.4387841e-39
0.057256177 0.0079723746 0.7610001 5.4391512e-39
0.058705699 0.007972382 0.7610001 4.8888627e-39
-0.026710479 0.0093847737 0.75800002 9.9326095e-39
-0.02526667 0.0093847662 0.75800002 1.0110887e-38
-0.023760043 0.0093599856 0.7560001 1.0199142e-38
-0.02229052 0.0093476027 0.75500011 1.0840921e-38
-0.020852428 0.0093476027 0.75500011 1.1492378e-38
-0.019362893 0.0093228593 0.75300008 9.4806053e-39
-0.017904799 0.009310469 0.75200009 7.3687658e-39
-0.016428582 0.0092857108 0.75000012 8.3825632e-39
-0.015000025 0.0092857033 0.75000012 9.3941984e-39
-0.01353526 0.009260945 0.74800009 1.0313998e-38
-0.012061935 0.0092238039 0.74500006 1.1147328e-38
-0.0106429 0.0092237964 0.74500012 1.2347642e-38
-0.0092238579 0.0092237964 0.74500012 1.344319e-38
-0.0077838288 0.009199053 0.74300009 1.0410088e-38
-0.0063685742 0.0091990605 0.74300003 7.3597751e-39
-0.0049467036 0.0091866702 0.7420001 3.8574608e-39
-0.0035333759 0.0091866702 0.7420001 2.8057499e-40
-0.0021057534 0.0091247484 0.73700011 6.5394143e-39
-0.00070098275 0.009112373 0.73600006 1.2701706e-38
0.00070091942 0.0091123804 0.73600012 1.1337075e-38
0.0021056901 0.0091247633 0.73700011 9.8461564e-39
0.003509481 0.0091247559 0.73700011 5.2349834e-39
0.0049066204 0.0091123655 0.73600012 5.6862309e-40
0.006308543 0.009112373 0.73600012 8.4969988e-39
0.0077104638 0.009112373 0.73600006 1.6287215e-38
0.0091123357 0.009112373 0.73600012 1.543198e-38
0.010514258 0.009112373 0.73600012 1.45111e-38
0.01193234 0.0091247559 0.73700005 1.4785876e-38
0.013318052 0.0091123655 0.73600012 1.4977899e-38
0.014719973 0.009112373 0.73600012 1.5828913e-38
0.016121896 0.009112373 0.73600006 1.6663692e-38
0.017547576 0.0091247484 0.73700011 1.6942077e-38
0.018951381 0.0091247484 0.73700011 1.721722e-38
0.020355208 0.0091247484 0.73700011 1.72165e-38
0.021729484 0.009112373 0.73600012 1.7214701e-38
0.02316281 0.0091247633 0.73700011 1.7028873e-38
0.024566635 0.0091247633 0.73700011 1.6844126e-38
0.025970444 0.0091247559 0.73700011 1.6845921e-38
0.027448554 0.009149529 0.73900002 1.6746863e-38
0.028856168 0.0091495216 0.73900008 1.712241e-38
0.03030473 0.0091619045 0.74000001 1.7479312e-38
0.031714249 0.0091619045 0.74000007 1.6468727e-38
0.033213306 0.0091866627 0.7420001 1.5345559e-38
0.034626633 0.0091866627 0.7420001 1.4969633e-38
0.03603996 0.0091866553 0.7420001 1.4602634e-38
0.037503816 0.009199053 0.74300003 1.4235636e-38
0.03891905 0.0091990456 0.74300009 1.3868287e-38
0.040442813 0.0092237964 0.74500012 1.3409101e-38
0.041974273 0.0092485771 0.7470001 1.2951715e-38
0.043455251 0.0092609599 0.74800003 1.130011e-38
0.045000002 0.0092857108 0.75000012 9.6510116e-39
0.04642855 0.0092857033 0.75000012 6.8977333e-39
0.047984719 0.0093104765 0.75200009 4.0555119e-39
0.049482841 0.0093228593 0.75300002 4.2409906e-39
0.051119957 0.0093599856 0.7560001 4.3349588e-39
0.052559961 0.0093599856 0.7560001 4.6097268e-39
0.054142851 0.0093847662 0.75800002 4.7937706e-39
-0.02671049 0.010828562 0.75800008 9.644546e-39
-0.025266681 0.010828562 0.75800008 9.8299952e-39
-0.023760039 0.010799989 0.7560001 1.0103354e-38
-0.022320041 0.010799989 0.7560001 1.0842345e-38
-0.0208524 0.010785706 0.75500011 1.1584561e-38
-0.019362887 0.010757141 0.75300002 8.9256336e-39
-0.017904788 0.010742851 0.75200009 6.2602603e-39
-0.016428579 0.010714285 0.75000012 6.6344266e-39
-0.015000023 0.010714285 0.75000012 7.1022444e-39
-0.013535243 0.010685712 0.74800003 7.8322943e-39
-0.012061942 0.010642856 0.74500012 8.5669657e-39
-0.0106429 0.010642856 0.74500012 9.1211932e-39
-0.0092238439 0.010642856 0.74500012 9.6815333e-39
-0.0077838222 0.010614283 0.74300009 7.0904077e-39
-0.0063685882 0.010614298 0.74300009 4.5035589e-39
-0.0049533364 0.010614306 0.74300003 2.3891592e-39
-0.0035333787 0.010599986 0.7420001 2.7591427e-40
-0.0021114401 0.010557152 0.73900002 4.8838797e-39
-0.00070096971 0.010514282 0.73600012 9.500386e-39
0.00070091756 0.010514274 0.73600012 9.8644784e-39
0.002105664 0.010528557 0.73700011 1.0312867e-38
0.0035094903 0.010528557 0.73700011 7.8225203e-39
0.0049066334 0.010514282 0.73600012 5.3483723e-39
0.0063085542 0.010514282 0.73600012 1.096938e-38
0.0077104485 0.010514282 0.73600006 1.6570626e-38
0.0091123478 0.010514274 0.73600012 1.54399e-38
0.010528536 0.010528572 0.73700011 1.4326727e-38
0.011932342 0.010528557 0.73700011 1.4602205e-38
0.013318063 0.010514267 0.73600012 1.4877813e-38
0.014719985 0.010514282 0.73600012 1.5449373e-38
0.016143773 0.010528564 0.73700011 1.6025513e-38
0.017547598 0.010528572 0.73700011 1.6110906e-38
0.018951377 0.010528557 0.73700011 1.6303537e-38
0.020355202 0.010528557 0.73700011 1.6199855e-38
0.021759007 0.01052855 0.73700011 1.6204519e-38
0.023162834 0.010528557 0.73700011 1.6010084e-38
0.024566611 0.010528557 0.73700011 1.5830357e-38
0.025970437 0.010528557 0.73700011 1.5733137e-38
0.02744855 0.010557137 0.73900008 1.5742111e-38
0.028856182 0.010557145 0.73900002 1.5921842e-38
0.030304734 0.010571428 0.74000007 1.6205151e-38
0.031714253 0.010571428 0.74000007 1.5541047e-38
0.033213299 0.010600008 0.7420001 1.4974281e-38
0.034626629 0.010600001 0.7420001 1.4695577e-38
0.03603996 0.010600001 0.7420001 1.451045e-38
0.037503798 0.010614291 0.74300003 1.4143803e-38
0.038919028 0.010614291 0.74300003 1.377681e-38
0.040334258 0.010614283 0.74300003 1.331798e-38
0.041974276 0.010671422 0.7470001 1.2952074e-38
0.043455232 0.010685712 0.74800003 1.1393383e-38
0.044999976 0.010714285 0.75000006 9.7453554e-39
0.04642855 0.010714278 0.75000012 6.9902793e-39
0.047984723 0.010742843 0.75200009 4.2384654e-39
0.049614247 0.010785699 0.75500011 5.1632986e-39
0.05111995 0.010799997 0.7560001 6.1734582e-39
0.052699033 0.01082857 0.75800008 5.529144e-39
0.054357108 0.010871418 0.7610001 4.8841641e-39
-0.028414307 0.012385719 0.7650001 8.8201901e-39
-0.026780959 0.012304768 0.76000011 9.2779173e-39
-0.025266673 0.012272388 0.75800008 9.6448865e-39
-0.023822865 0.012272388 0.75800008 1.0012234e-38
-0.022320054 0.012239978 0.7560001 1.0839834e-38
-0.020852407 0.012223795 0.75500011 1.1676399e-38
-0.019362889 0.012191437 0.75300008 8.3764199e-39
-0.017904794 0.012175232 0.75200009 5.0678295e-39
-0.016428579 0.012142859 0.75000012 4.9767101e-39
-0.014960016 0.012110464 0.74800003 4.7952097e-39
-0.013535246 0.012110472 0.74800003 5.3458822e-39
-0.012061941 0.012061894 0.74500006 5.8954504e-39
-0.010642884 0.012061894 0.74500006 5.8889834e-39
-0.0092238439 0.012061894 0.74500006 5.7985829e-39
-0.0077838288 0.012029529 0.74300009 3.6741695e-39
-0.0063685947 0.012029514 0.74300009 1.5637328e-39
-0.004953329 0.012029529 0.74300003 9.2015423e-40
-0.0035333666 0.012013331 0.7420001 1.8585141e-40
-0.0021114456 0.011964761 0.73900008 3.2196724e-39
-0.00070194574 0.011932373 0.73700011 6.1781624e-39
0.0007009157 0.011916175 0.73600012 8.4912942e-39
0.0021056724 0.011932373 0.73700011 1.0774577e-38
0.0035094977 0.011932373 0.73700011 1.0394273e-38
0.0049133035 0.011932366 0.73700011 1.003987e-38
0.0063085384 0.011916175 0.73600012 1.3461484e-38
0.0077209068 0.011932373 0.73700011 1.6745326e-38
0.0091123609 0.011916183 0.73600012 1.54295e-38
0.01052853 0.011932366 0.73700005 1.4143425e-38
0.011932336 0.011932366 0.73700011 1.4510387e-38
0.013318077 0.01191619 0.73600012 1.478702e-38
0.014719971 0.01191619 0.73600012 1.5065447e-38
0.016121874 0.011916175 0.73600012 1.5262403e-38
0.01754757 0.011932373 0.73700011 1.5264211e-38
0.018951397 0.01193238 0.73700011 1.5265282e-38
0.020355223 0.01193238 0.73700011 1.5166985e-38
0.021759002 0.011932373 0.73700011 1.5076935e-38
0.023162829 0.01193238 0.73700011 1.4885004e-38
0.024566634 0.011932373 0.73700011 1.4705279e-38
0.026040949 0.011964761 0.73900002 1.4697387e-38
0.027448561 0.011964776 0.73900002 1.4708145e-38
0.028895222 0.011980943 0.74000007 1.4800695e-38
0.030304741 0.011980936 0.74000007 1.4801741e-38
0.031799972 0.012013339 0.7420001 1.4700187e-38
0.033213299 0.012013331 0.7420001 1.4605496e-38
0.034626629 0.012013324 0.7420001 1.4511881e-38
0.03603996 0.012013316 0.7420001 1.4327128e-38
0.037503805 0.012029529 0.74300003 1.3959782e-38
0.038919035 0.012029529 0.74300003 1.359315e-38
0.040442821 0.012061901 0.74500012 1.3317995e-38
0.041974247 0.012094267 0.7470001 1.295279e-38
0.043455217 0.012110479 0.74800003 1.139193e-38
0.044999979 0.012142859 0.75000006 9.8339623e-39
0.04642855 0.012142859 0.75000012 7.0796233e-39
0.047984716 0.012175225 0.75200009 4.3328247e-39
0.049614251 0.012223795 0.75500011 6.183542e-39
0.051119965 0.012239993 0.7560001 7.9219284e-39
0.052907597 0.012320951 0.7610001 6.4489423e-39
0.0543571 0.012320943 0.7610001 4.8866865e-39
-0.031533379 0.013933323 0.7700001 7.6248587e-39
-0.030066721 0.013933323 0.7700001 8.4513936e-39
-0.028488591 0.013879053 0.76700002 8.9109438e-39
-0.026957171 0.013842851 0.7650001 9.3690325e-39
-0.025333349 0.013752386 0.76000011 9.7360017e-39
-0.02382287 0.013716184 0.75800002 1.0102992e-38
-0.022379046 0.013716184 0.75800002 1.0934898e-38
-0.020880051 0.013679981 0.7560001 1.1772542e-38
-0.019414321 0.013661884 0.75500011 9.4798864e-39
-0.017904805 0.013607614 0.75200009 7.0864126e-39
-0.016428588 0.013571434 0.75000012 8.0973093e-39
-0.015000017 0.013571434 0.75000012 9.1021258e-39
-0.01353525 0.013535239 0.74800003 9.3891173e-39
-0.012061947 0.013480939 0.74500012 9.6570848e-39
-0.010642907 0.013480939 0.74500012 7.4476449e-39
-0.0092238486 0.013480939 0.74500012 5.2349834e-39
-0.0077838213 0.013444759 0.74300009 3.0320077e-39
-0.0063685873 0.013444759 0.74300009 8.3082986e-40
-0.004946698 0.013426661 0.7420001 2.3005607e-39
-0.0035333694 0.013426654 0.7420001 3.6745016e-39
-0.0021057618 0.013336182 0.73700011 4.8766097e-39
-0.00070193643 0.013336182 0.73700011 6.1645291e-39
0.00070091477 0.013318084 0.73600012 6.9093263e-39
0.0021056808 0.013336174 0.73700011 7.6547036e-39
0.0035094717 0.013336167 0.73700011 8.9331558e-39
0.0049132979 0.013336182 0.73700011 1.0311784e-38
0.0063085514 0.013318092 0.73600012 1.3354213e-38
0.0077104238 0.013318084 0.73600012 1.6377262e-38
0.0091123451 0.013318092 0.73600012 1.5436677e-38
0.010528532 0.013336182 0.73700011 1.4418582e-38
0.011932358 0.013336189 0.73700011 1.4602239e-38
0.013318061 0.013318084 0.73600012 1.478591e-38
0.014719983 0.013318092 0.73600006 1.4878822e-38
0.016121857 0.013318084 0.73600012 1.4969592e-38
0.017547566 0.013336174 0.73700011 1.4974267e-38
0.018951392 0.013336182 0.73700011 1.5061439e-38
0.020355197 0.013336167 0.73700011 1.4973189e-38
0.021759022 0.013336174 0.73700011 1.4877751e-38
0.023162801 0.013336167 0.73700011 1.4787692e-38
0.024566626 0.013336189 0.73700011 1.4602231e-38
0.026040941 0.013372377 0.73900008 1.460295e-38
0.027448555 0.013372377 0.73900008 1.4602221e-38
0.028895196 0.013390474 0.74000007 1.451396e-38
0.030304737 0.013390474 0.74000001 1.4510399e-38
0.031799968 0.013426654 0.7420001 1.451222e-38
0.033213299 0.013426654 0.7420001 1.4510782e-38
0.034626625 0.013426669 0.7420001 1.4327107e-38
0.036039975 0.013426676 0.7420001 1.4234925e-38
0.037503809 0.013444774 0.74300003 1.4051983e-38
0.038919043 0.013444774 0.74300003 1.3776832e-38
0.040442821 0.013480946 0.74500012 1.3505626e-38
0.041974265 0.013517149 0.7470001 1.3230446e-38
0.043455224 0.013535246 0.74800009 1.1670287e-38
0.044999965 0.013571419 0.75000012 1.0200228e-38
0.046552341 0.013607621 0.75200009 6.5282698e-39
0.04804856 0.013625719 0.75300008 2.8606009e-39
0.049679954 0.013679981 0.7560001 3.6907175e-39
0.051255237 0.013716199 0.75800002 4.524022e-39
0.052907586 0.013770469 0.7610001 3.8732506e-39
0.054357111 0.013770469 0.7610001 3.2340189e-39
-0.031615239 0.015440017 0.77200001 7.7167138e-39
-0.030066716 0.015399985 0.7700001 8.5439494e-39
-0.028488602 0.015339993 0.76700002 9.0034842e-39
-0.026957165 0.015299998 0.7650001 9.3697486e-39
-0.025333352 0.015199989 0.76000011 9.7356556e-39
-0.023822861 0.015160002 0.75800002 1.0104084e-38
-0.022379052 0.015160009 0.75800002 1.1024601e-38
-0.020880049 0.015119985 0.7560001 1.1867262e-38
-0.01941433 0.015099987 0.75500011 1.0499772e-38
-0.017904796 0.015040003 0.75200009 9.1139948e-39
-0.016428586 0.015000008 0.75000006 1.1315184e-38
-0.014960003 0.014959998 0.74800003 1.3438158e-38
-0.013535254 0.014960006 0.74800009 1.3451786e-38
-0.012110484 0.014959998 0.74800003 1.3440288e-38
-0.010642891 0.014899999 0.74500012 9.1014027e-39
-0.0092238486 0.014899999 0.74500012 4.6940149e-39
-0.0077838278 0.014860004 0.74300003 2.388083e-39
-0.0063685938 0.014860004 0.74300003 9.5785757e-41
-0.0049467017 0.014839999 0.7420001 3.6841874e-39
-0.0035333722 0.014839992 0.7420001 7.1750377e-39
-0.0021114503 0.01478 0.73900008 6.6312232e-39
-0.00070192898 0.014739998 0.73700011 6.0773488e-39
0.00070186285 0.014739983 0.73700011 5.2350535e-39
0.0021056882 0.01473999 0.73700011 4.4235812e-39
0.0035047201 0.014719993 0.73600012 7.4641788e-39
0.0049132924 0.01473999 0.73700011 1.0503008e-38
0.0063170982 0.014739983 0.73700011 1.3266332e-38
0.007720924 0.01473999 0.73700011 1.6004904e-38
0.0091123572 0.014719993 0.73600012 1.5336954e-38
0.010528527 0.014739983 0.73700011 1.4694082e-38
0.011932353 0.014739998 0.73700011 1.4694058e-38
0.01333616 0.01473999 0.73700011 1.4694061e-38
0.014719967 0.014719993 0.73600006 1.4694065e-38
0.016121868 0.014719985 0.73600012 1.4694077e-38
0.017547591 0.014739998 0.73700011 1.4785927e-38
0.018951416 0.014739998 0.73700011 1.4785914e-38
0.020355193 0.01473999 0.73700011 1.4785903e-38
0.02175902 0.014739998 0.73700011 1.4694062e-38
0.023162825 0.014739983 0.73700011 1.4602222e-38
0.024566622 0.01473999 0.73700011 1.4510388e-38
0.025970429 0.01473999 0.73700011 1.451039e-38
0.027448544 0.014780007 0.73900002 1.4510381e-38
0.028895222 0.014800005 0.74000007 1.4326703e-38
0.030386636 0.014840007 0.7420001 1.4143049e-38
0.031799965 0.014840007 0.7420001 1.4234903e-38
0.033213291 0.014839999 0.7420001 1.4326742e-38
0.034626622 0.014839992 0.7420001 1.4234912e-38
0.036039971 0.014839999 0.7420001 1.414345e-38
0.03750382 0.014860012 0.74300003 1.4051988e-38
0.03891905 0.014860012 0.74300003 1.3966251e-38
0.040334284 0.014860012 0.74300003 1.3788679e-38
0.041861892 0.014899999 0.74500006 1.3512437e-38
0.04345521 0.014959984 0.74800009 1.2041974e-38
0.044999968 0.015000001 0.75000012 1.0479329e-38
0.046552334 0.015039995 0.75200009 5.8807298e-39
0.048176158 0.015099995 0.75500005 1.2903955e-39
0.049679969 0.015119985 0.7560001 1.1942608e-39
0.051255245 0.015159994 0.75800002 1.0166799e-39
