# .PCD v0.7 - Point Cloud Data file format
VERSION 0.7
FIELDS x y z rgb
SIZE 4 4 4 4
TYPE F F F F
COUNT 1 1 1 1
WIDTH 978
HEIGHT 1
VIEWPOINT 0 0 0 1 0 0 0
POINTS 978
DATA ascii
-0.013372384 0.045747645 0.73900002 1.1894559e-38
-0.011964764 0.045747649 0.73899996 1.3361053e-38
-0.010557146 0.045747638 0.73900002 1.2992989e-38
-0.0091495253 0.045747645 0.73899996 1.2610194e-38
-0.0077419053 0.045747645 0.73900002 1.2054848e-38
-0.0063342862 0.045747645 0.73899996 1.1501331e-38
-0.0049266671 0.045747641 0.73900002 1.0212055e-38
-0.003519048 0.045747656 0.73899996 8.8353003e-39
-0.002102857 0.045561917 0.736 1.2804377e-38
-0.00070095243 0.045561921 0.73600006 1.6676924e-38
0.00070095231 0.045561913 0.73600006 1.6785294e-38
0.0021028572 0.045561917 0.73600006 1.6867794e-38
0.0034952385 0.045438126 0.73400003 1.658403e-38
0.0049066665 0.045561925 0.736 1.6222067e-38
0.0063085719 0.045561925 0.73600006 1.7150825e-38
0.0077104764 0.045561932 0.736 1.7959344e-38
0.0091123814 0.045561917 0.73600006 1.4269717e-38
0.010514287 0.045561925 0.736 1.0490084e-38
0.011916191 0.045561928 0.73600006 8.1737207e-39
0.013318097 0.045561921 0.736 5.8940239e-39
0.014720001 0.045561917 0.73600006 9.1201535e-39
0.016121903 0.045561932 0.736 1.2250094e-38
0.017523808 0.045561917 0.73600006 1.2986931e-38
0.018925715 0.045561932 0.736 1.3635178e-38
0.02032762 0.045561925 0.73600006 1.3819583e-38
0.021729527 0.045561925 0.736 1.3908184e-38
0.023162857 0.045623824 0.73700005 1.28101e-38
0.024566669 0.045623824 0.73700005 1.160041e-38
0.025970478 0.045623824 0.73700005 6.0615365e-39
0.027448574 0.045747645 0.73900002 5.5608147e-40
0.028895237 0.04580953 0.74000001 6.9989281e-39
0.03038667 0.045933336 0.74200004 1.3353918e-38
0.031800002 0.045933351 0.74199998 1.383287e-38
0.033258099 0.045995273 0.74299997 1.4279111e-38
0.034673337 0.045995254 0.74299997 1.4005734e-38
0.036185715 0.046119068 0.745 1.3718353e-38
0.037604764 0.04611906 0.74500006 1.1964115e-38
0.039285719 0.046428587 0.75000006 1.0226148e-38
0.040714297 0.046428591 0.75000006 1.1153562e-38
0.042142868 0.046428576 0.75000006 1.1986176e-38
0.04368763 0.046552405 0.75200003 1.1709232e-38
0.045120005 0.046552397 0.75200003 1.1434094e-38
0.046552382 0.046552405 0.75200003 1.1526658e-38
0.047984768 0.04655239 0.75200003 1.1527015e-38
-0.027931435 0.047984786 0.75199997 3.9547137e-39
-0.026428573 0.047857143 0.75000006 3.2203688e-39
-0.025000002 0.04785715 0.75000006 3.86499e-39
-0.023508573 0.047729526 0.74800003 4.5096601e-39
-0.02208381 0.047729533 0.74800003 4.972453e-39
-0.020631434 0.047665734 0.74700004 5.4345101e-39
-0.019208575 0.047665734 0.74699998 5.3423257e-39
-0.017690478 0.047410499 0.74299997 5.250458e-39
-0.016253334 0.047346674 0.74200004 7.7378762e-39
-0.0148 0.047219045 0.74000001 1.0222126e-38
-0.013390477 0.04721906 0.74000001 1.0594877e-38
-0.011964763 0.047155257 0.73900002 1.1063708e-38
-0.010557145 0.047155272 0.73899996 1.0404326e-38
-0.0091495244 0.047155254 0.73900002 9.7535838e-39
-0.0077419062 0.047155254 0.73900002 9.202568e-39
-0.0063342871 0.04715525 0.73899996 8.7477024e-39
-0.004926668 0.047155254 0.73900002 6.8073244e-39
-0.003519048 0.047155261 0.73899996 4.8698737e-39
-0.0021028572 0.046963837 0.736 9.3960621e-39
-0.00070095249 0.046963826 0.73600006 1.3825021e-38
0.00070095231 0.046963833 0.736 1.5394882e-38
0.0021028572 0.046963833 0.73600006 1.6957837e-38
0.0035047622 0.046963826 0.736 1.6494672e-38
0.0049066674 0.04696383 0.73600006 1.5940452e-38
0.0063085714 0.046963833 0.736 1.5388743e-38
0.0077104769 0.046963822 0.73600006 1.4837688e-38
0.0091123814 0.046963837 0.736 1.3360745e-38
0.010514287 0.046963833 0.73600006 1.1986386e-38
0.01191619 0.046963833 0.736 1.0777761e-38
0.013318096 0.046963826 0.73600006 9.5846461e-39
0.01472 0.046963833 0.736 1.0499443e-38
0.016121905 0.046963822 0.73600006 1.1521149e-38
0.01752381 0.046963833 0.736 1.2716481e-38
0.018925717 0.046963822 0.73600006 1.3918248e-38
0.020327622 0.04696383 0.736 1.391288e-38
0.021729527 0.046963833 0.73600006 1.3913944e-38
0.023162859 0.047027629 0.73700005 1.2532453e-38
0.024566669 0.047027636 0.73699999 1.1150572e-38
0.026040955 0.047155268 0.73900002 5.7038943e-39
0.027485715 0.047219064 0.74000001 3.6776097e-40
0.028895237 0.047219053 0.74000001 4.1488104e-39
0.030386668 0.047346678 0.74200004 7.9410463e-39
0.031800002 0.047346678 0.74199998 1.0147325e-38
0.033258095 0.047410503 0.74299997 1.2258092e-38
0.03476667 0.047538109 0.74500006 1.2534302e-38
0.036185719 0.047538109 0.74500006 1.2811537e-38
0.037705716 0.047665745 0.74700004 1.1882352e-38
0.039285723 0.047857165 0.75000006 1.096693e-38
0.040714297 0.047857154 0.75000006 1.1891445e-38
0.042255249 0.047984771 0.75200003 1.2814112e-38
0.04368763 0.047984779 0.75200003 1.2169834e-38
0.045180012 0.048048582 0.75300002 1.1526641e-38
0.046923812 0.048367634 0.75800002 1.143482e-38
0.048367627 0.048367627 0.75800002 1.1342265e-38
-0.027931437 0.049417157 0.75200003 4.4131513e-39
-0.026428575 0.049285717 0.75000006 8.3191446e-40
-0.025000004 0.049285728 0.75000006 2.4860198e-39
-0.023477146 0.04908859 0.74700004 4.050833e-39
-0.022054287 0.049088594 0.74700004 4.7001624e-39
-0.020631434 0.049088597 0.74700004 5.2508279e-39
-0.019208575 0.049088597 0.74699998 5.433794e-39
-0.017690478 0.048825748 0.74300003 5.5288301e-39
-0.016253334 0.048760012 0.74200004 7.7428999e-39
-0.014840001 0.048760012 0.74199998 9.9415792e-39
-0.013426669 0.048760012 0.74200004 9.3826839e-39
-0.011964763 0.048562866 0.73900002 8.7401788e-39
-0.010557145 0.048562877 0.73899996 7.807099e-39
-0.0091495244 0.048562877 0.73900002 6.804809e-39
-0.0077209524 0.048431441 0.73700005 6.3459973e-39
-0.0063342862 0.048562873 0.73900002 5.8879058e-39
-0.0049266671 0.048562884 0.73899996 3.3990316e-39
-0.003519048 0.048562869 0.73900002 9.2522833e-40
-0.0021028572 0.048365727 0.73600006 5.992339e-39
-0.0007009526 0.048365742 0.736 1.0963705e-38
0.00070095237 0.048365727 0.73600006 1.4010831e-38
0.002102857 0.048365735 0.736 1.7044628e-38
0.0035047622 0.048365735 0.73600006 1.6404288e-38
0.0049066674 0.048365731 0.736 1.5659191e-38
0.0063085728 0.048365731 0.73600006 1.3626244e-38
0.0077104773 0.048365727 0.736 1.1613736e-38
0.0091123814 0.048365727 0.73600006 1.2533146e-38
0.010514287 0.048365735 0.736 1.3452569e-38
0.011916191 0.04836572 0.73600006 1.3366465e-38
0.013318097 0.048365731 0.736 1.3169849e-38
0.01472 0.048365727 0.73600006 1.195515e-38
0.016121902 0.048365727 0.736 1.077426e-38
0.017523808 0.048365727 0.73600006 1.2531746e-38
0.018925713 0.048365735 0.736 1.4184774e-38
0.02032762 0.04836572 0.73600006 1.3999657e-38
0.021759052 0.048431441 0.73699999 1.381813e-38
0.023162857 0.048431434 0.73700005 1.2254767e-38
0.024566667 0.048431445 0.73699999 1.0584826e-38
0.026040955 0.048562877 0.73900002 5.3268427e-39
0.027485717 0.048628587 0.74000001 9.258379e-41
0.028973334 0.048760019 0.74200004 1.2868096e-39
0.03038667 0.048760001 0.74200004 2.5000958e-39
0.031800002 0.048760016 0.74199998 6.3730241e-39
0.033258099 0.048825741 0.74300003 1.0225816e-38
0.03476667 0.048957162 0.74500006 1.1061669e-38
0.036282863 0.049088597 0.74700004 1.1792365e-38
0.037756193 0.049154311 0.74800003 1.1695107e-38
0.039285723 0.049285728 0.75 1.1609427e-38
0.040714297 0.049285732 0.75000006 1.2630437e-38
0.042142868 0.049285721 0.75000006 1.3549162e-38
0.043571442 0.049285721 0.75000006 1.2629741e-38
0.045480005 0.049811449 0.75800002 1.1619203e-38
0.046923816 0.049811438 0.75799996 1.1435184e-38
0.048367627 0.049811445 0.75799996 1.1159678e-38
-0.027931437 0.050849553 0.75199997 3.6766498e-39
-0.026428577 0.050714299 0.75000006 1.8402986e-39
-0.025066672 0.050849549 0.75199997 2.8526415e-39
-0.023634288 0.050849557 0.75199997 3.9561206e-39
-0.022083811 0.05057906 0.74800003 4.3295779e-39
-0.02065905 0.050579064 0.74800003 4.6998051e-39
-0.019157147 0.050376207 0.745 5.0671611e-39
-0.017690478 0.050240993 0.74299997 5.4330457e-39
-0.016253334 0.050173335 0.74200004 7.736084e-39
-0.014840001 0.05017335 0.74199998 9.93941e-39
-0.013426669 0.05017335 0.74200004 9.6603064e-39
-0.011980954 0.050038107 0.74000001 9.4622861e-39
-0.010571431 0.050038103 0.74000001 9.0099245e-39
-0.0091495244 0.049970496 0.73899996 8.6386547e-39
-0.0077209519 0.049835254 0.73700005 6.7112023e-39
-0.0063342866 0.049970493 0.73900002 4.7826709e-39
-0.0049266675 0.049970493 0.73900002 2.7587167e-39
-0.003519048 0.049970493 0.73900002 7.3507633e-40
-0.002102857 0.049767632 0.736 3.4079593e-39
-0.00070095249 0.049767628 0.73600006 6.0769858e-39
0.00070095237 0.049767643 0.736 9.1251925e-39
0.0021028572 0.049767628 0.73600006 1.2264496e-38
0.0035047624 0.049767636 0.736 1.3086387e-38
0.0048933332 0.049632411 0.73399997 1.3911072e-38
0.0062914286 0.049632393 0.73400003 1.2805418e-38
0.0077104769 0.049767632 0.73600006 1.1794153e-38
0.0091123814 0.049767643 0.736 9.6726112e-39
0.010514287 0.049767621 0.73600006 7.658368e-39
0.011916191 0.049767636 0.736 1.1068157e-38
0.013318097 0.049767636 0.73600006 1.4558174e-38
0.014720001 0.049767632 0.736 1.1693604e-38
0.016121903 0.049767632 0.73600006 8.9257037e-39
0.017523808 0.049767643 0.736 1.0773611e-38
0.018925715 0.049767625 0.73600006 1.2708219e-38
0.02032762 0.049767636 0.736 1.4184725e-38
0.021729527 0.049767636 0.73600006 1.5655526e-38
0.023162857 0.049835246 0.73700005 1.3539002e-38
0.024566669 0.04983525 0.73700005 1.1310875e-38
0.026040953 0.049970496 0.73899996 6.6161032e-39
0.027448574 0.049970493 0.73900002 1.9289056e-39
0.028973334 0.050173342 0.74200004 3.9496452e-39
0.030386668 0.050173339 0.74200004 6.0626113e-39
0.031799998 0.050173353 0.74199998 7.6403487e-39
0.033258099 0.050240986 0.74299997 9.2812173e-39
0.034860007 0.050511446 0.74699998 9.3867099e-39
0.036282863 0.050511446 0.74700004 9.4889318e-39
0.037756193 0.050579056 0.74800003 1.0776045e-38
0.039285719 0.050714292 0.75000006 1.2155066e-38
0.040714294 0.05071431 0.75 1.2627211e-38
0.042255249 0.050849542 0.75199997 1.3091426e-38
0.04368763 0.050849546 0.75200003 1.2354604e-38
0.045480002 0.051255241 0.75800002 1.1619211e-38
0.046923816 0.051255245 0.75800002 1.1435548e-38
0.048367627 0.051255252 0.75800002 1.1344074e-38
-0.026499052 0.052281916 0.75199997 2.7604501e-39
-0.02506667 0.052281924 0.75200003 3.3121819e-39
-0.023634287 0.052281931 0.75200003 3.8671606e-39
-0.02208381 0.052003827 0.74800003 4.0533637e-39
-0.02065905 0.052003816 0.74800003 4.1484404e-39
-0.019234287 0.052003823 0.74800003 4.7930966e-39
-0.017690478 0.051656228 0.74299997 5.34482e-39
-0.016253332 0.051586673 0.74200004 7.6450038e-39
-0.014840002 0.051586688 0.74199998 9.9433939e-39
-0.013426669 0.051586673 0.74200004 1.0040243e-38
-0.011980954 0.051447637 0.74000001 1.0126349e-38
-0.010557145 0.051378105 0.73900002 1.0315771e-38
-0.0091495244 0.05137812 0.73900002 1.0395388e-38
-0.0077419053 0.051378116 0.73900002 6.9856158e-39
-0.0063428581 0.051447622 0.74000001 3.586992e-39
-0.0049266671 0.051378112 0.73900002 2.0254368e-39
-0.0035190478 0.051378127 0.73899996 4.6207116e-40
-0.002102857 0.051169537 0.73600006 8.2725234e-40
-0.0006990477 0.051030505 0.73399997 1.2025089e-39
0.00069904758 0.051030494 0.73400003 4.3321114e-39
0.0021028572 0.051169544 0.736 7.3709687e-39
0.0034952385 0.051030498 0.73400003 9.764825e-39
0.0048933341 0.051030494 0.73400003 1.2069674e-38
0.0063085719 0.051169541 0.73600006 1.1982495e-38
0.0077104773 0.051169552 0.736 1.1873774e-38
0.0091123814 0.051169533 0.73600006 6.7962499e-39
0.010514287 0.051169541 0.736 1.7683027e-39
0.011916191 0.051169544 0.73600006 8.8730443e-39
0.013318097 0.051169537 0.73600006 1.5938237e-38
0.014720001 0.051169537 0.73600006 1.1519687e-38
0.016121902 0.051169548 0.73600006 7.0039952e-39
0.017523808 0.051169537 0.73600006 9.1119405e-39
0.018925713 0.051169544 0.73600006 1.1148822e-38
0.02032762 0.051169552 0.736 1.437526e-38
0.021759052 0.051239055 0.73700005 1.7504138e-38
0.023225714 0.051378123 0.73900002 1.4843433e-38
0.024633335 0.051378109 0.73900002 1.2061384e-38
0.026076192 0.051447634 0.74000001 7.8982128e-39
0.027485717 0.05144763 0.74000001 3.6745339e-39
0.028973335 0.05158668 0.74200004 6.6125873e-39
0.03038667 0.051586676 0.74200004 9.5717892e-39
0.031799998 0.051586676 0.74199998 8.9368524e-39
0.033258099 0.051656216 0.74299997 8.28503e-39
0.03476667 0.051795244 0.74500006 7.7146413e-39
0.03628286 0.051934309 0.74700004 7.0918748e-39
0.037756197 0.052003816 0.74800003 9.9488141e-39
0.039180961 0.052003827 0.74800003 1.2713259e-38
0.040714294 0.052142877 0.75000006 1.2723357e-38
0.042255249 0.052281916 0.75200003 1.2631536e-38
0.04368763 0.05228192 0.75200003 1.2169862e-38
0.045360003 0.052560028 0.75599998 1.1619214e-38
0.046800002 0.052560035 0.75599998 1.1527744e-38
0.048495248 0.052838113 0.76000005 1.1435908e-38
0.050271433 0.053185742 0.76499999 1.1527745e-38
0.05172858 0.053185735 0.76499999 1.1620656e-38
-0.031041907 0.054142863 0.75800002 8.6644736e-39
-0.029598098 0.054142874 0.75800002 6.0801612e-39
-0.028154287 0.054142881 0.75800002 3.9568198e-39
-0.026534289 0.053785723 0.75300002 1.939313e-39
-0.025066668 0.053714305 0.75200003 3.4097613e-39
-0.023634287 0.053714313 0.75199997 4.8820216e-39
-0.022142859 0.05357144 0.75000006 4.6065375e-39
-0.020714289 0.05357144 0.75000006 4.4250315e-39
-0.019208575 0.053357154 0.74700004 5.0689688e-39
-0.017738098 0.053214289 0.74500006 5.7125431e-39
-0.016275238 0.053071454 0.74300003 7.459577e-39
-0.014860002 0.053071462 0.74299997 9.3013021e-39
-0.013426669 0.053000011 0.74200004 9.6704294e-39
-0.012013334 0.053000011 0.74200004 1.0043532e-38
-0.01057143 0.052857153 0.74000001 1.0592054e-38
-0.0091619054 0.052857153 0.74000001 1.1141573e-38
-0.0077523813 0.052857161 0.74000001 7.8218028e-39
-0.0063428576 0.052857153 0.74000001 4.5028106e-39
-0.004933334 0.052857153 0.74000001 3.3100253e-39
-0.0035190478 0.052785732 0.73900002 2.209807e-39
-0.0021028572 0.052571457 0.736 2.6682811e-39
-0.00070095249 0.052571438 0.73600006 3.1249334e-39
0.00070095237 0.052571449 0.736 4.9648579e-39
0.002102857 0.052571453 0.73600006 6.7962205e-39
0.0035047622 0.052571446 0.736 9.5771477e-39
0.0048933337 0.052428592 0.73400003 1.2435914e-38
0.0063085728 0.052571453 0.73600006 1.1238133e-38
0.007689524 0.052428585 0.73400003 1.012637e-38
0.0091123804 0.052571453 0.73600006 5.5169653e-39
0.010514286 0.052571461 0.736 9.191467e-40
0.01191619 0.052571442 0.73600006 6.6445692e-39
0.013318096 0.052571457 0.736 1.2455322e-38
0.01472 0.052571457 0.73600006 9.8645625e-39
0.016121903 0.052571453 0.736 7.2752193e-39
0.017523808 0.052571449 0.73600006 1.0039599e-38
0.018925715 0.052571446 0.736 1.2808329e-38
0.02032762 0.052571446 0.73600006 1.5299042e-38
0.021759052 0.052642871 0.73700005 1.7703297e-38
0.023225714 0.052785732 0.73900002 1.6409021e-38
0.024633335 0.052785739 0.73899996 1.5111366e-38
0.02607619 0.052857149 0.74000001 8.9216764e-39
0.027485715 0.052857164 0.74000001 2.8498431e-39
0.028973332 0.053000018 0.74200004 7.8305553e-39
0.030386668 0.052999999 0.74200004 1.2909136e-38
0.031842854 0.053071454 0.74299997 1.2165846e-38
0.033258095 0.053071454 0.74299997 1.1524039e-38
0.034766674 0.053214297 0.74500006 9.0164644e-39
0.036185719 0.0532143 0.74500006 6.5415737e-39
0.037756193 0.053428583 0.74800003 1.0045317e-38
0.039180957 0.05342859 0.74800003 1.3454405e-38
0.040714297 0.05357144 0.75000006 1.2998509e-38
0.042255249 0.053714313 0.75199997 1.2541858e-38
0.04368763 0.053714316 0.75199997 1.2171302e-38
0.045359999 0.054000027 0.75599998 1.180253e-38
0.047047626 0.054285727 0.75999999 1.1803252e-38
0.048814289 0.054642864 0.76500005 1.1802533e-38
0.050271433 0.054642878 0.76500005 1.1620294e-38
0.051931441 0.054857168 0.76799995 1.1437694e-38
-0.030960005 0.055440031 0.75599998 1.1899214e-38
-0.029519999 0.055440038 0.75599998 9.2061806e-39
-0.028080005 0.055440031 0.75599998 5.1431479e-39
-0.026534289 0.055220004 0.75300002 1.0180938e-39
-0.02506667 0.05514669 0.75199997 3.5055527e-39
-0.023634288 0.055146698 0.75200003 5.8925735e-39
-0.022142857 0.055000003 0.75000006 5.2493832e-39
-0.020714289 0.055000007 0.75000006 4.6083396e-39
-0.019208577 0.054780014 0.74700004 5.3444711e-39
-0.017738098 0.054633345 0.74500006 5.986958e-39
-0.016275236 0.054486696 0.74299997 7.3630513e-39
-0.014860001 0.054486696 0.74299997 8.6562844e-39
-0.013444764 0.054486688 0.74299997 9.2966246e-39
-0.012029525 0.054486699 0.74299997 9.9477617e-39
-0.01057143 0.054266669 0.74000001 1.0959425e-38
-0.0091619054 0.05426668 0.74000001 1.1875939e-38
-0.0077523813 0.054266684 0.74000001 8.6566264e-39
-0.0063342857 0.05419334 0.73900002 5.4308793e-39
-0.0049266671 0.054193351 0.73899996 4.686127e-39
-0.0035190478 0.054193355 0.73900002 3.8628502e-39
-0.0021028572 0.053973347 0.73600006 4.4192568e-39
-0.00070095243 0.053973358 0.73600006 4.9659649e-39
0.00070095237 0.053973354 0.736 5.6055862e-39
0.002102857 0.053973354 0.73600006 6.1662864e-39
0.0034952385 0.05382669 0.73399997 9.4953259e-39
0.0048933337 0.053826693 0.73400003 1.2799268e-38
0.006291429 0.053826697 0.73399997 1.059057e-38
0.0076895244 0.053826682 0.73400003 8.2824544e-39
0.0090876194 0.053826693 0.73400003 4.2255202e-39
0.010514287 0.053973354 0.73600006 9.6179521e-41
0.011916191 0.053973347 0.736 4.5147146e-39
0.013318097 0.053973347 0.73600006 8.8449819e-39
0.014720001 0.053973358 0.736 8.2078815e-39
0.016121903 0.053973343 0.73600006 7.552853e-39
0.017547619 0.054046676 0.73700005 1.1054816e-38
0.018951427 0.054046687 0.73700005 1.4465318e-38
0.02035524 0.054046683 0.73700005 1.6217401e-38
0.02175905 0.054046683 0.73700005 1.7879791e-38
0.023225712 0.054193359 0.73899996 1.797775e-38
0.024666667 0.05426668 0.74000001 1.8047254e-38
0.02607619 0.054266684 0.74000001 1.0010484e-38
0.027485715 0.054266684 0.74000001 1.9422585e-39
0.028973334 0.054413341 0.74200004 9.134151e-39
0.030427622 0.054486699 0.74299997 1.6211619e-38
0.031842858 0.054486688 0.74299997 1.5476254e-38
0.033258099 0.054486688 0.74300003 1.4636764e-38
0.03476667 0.054633353 0.745 1.0286e-38
0.036282863 0.054780032 0.74699998 5.9905593e-39
0.037756197 0.054853342 0.74800003 1.0143983e-38
0.039180961 0.054853346 0.74800003 1.4189814e-38
0.040714297 0.055000003 0.75000006 1.327402e-38
0.042255249 0.055146698 0.75200003 1.2355684e-38
0.04368763 0.05514669 0.75200003 1.2170598e-38
0.045360003 0.055440027 0.75599998 1.1896168e-38
0.046923812 0.055586673 0.75799996 1.2080196e-38
0.048367627 0.055586677 0.75799996 1.2171309e-38
0.050140008 0.055953357 0.76300001 1.1712484e-38
-0.034019046 0.057180978 0.76000005 1.2633668e-38
-0.032485712 0.057030495 0.75799996 1.4288103e-38
-0.030960003 0.056880031 0.75599998 1.1337848e-38
-0.029519999 0.056880035 0.75599998 8.2831873e-39
-0.02804286 0.056804772 0.75500005 4.8730224e-39
-0.026534289 0.056654301 0.75300002 1.3818526e-39
-0.025100004 0.056654293 0.75300002 3.22611e-39
-0.023634288 0.056579068 0.75200003 5.0660583e-39
-0.022142859 0.056428581 0.75000006 4.8831132e-39
-0.02065905 0.056278102 0.74800003 4.7912903e-39
-0.019234287 0.056278106 0.74800003 5.3433907e-39
-0.017738098 0.056052398 0.74500006 5.9869426e-39
-0.016275238 0.055901933 0.74299997 7.9219298e-39
-0.014860001 0.055901933 0.74299997 9.8573051e-39
-0.013444764 0.05590193 0.74299997 1.0131748e-38
-0.012029525 0.05590193 0.74299997 1.0318345e-38
-0.010600002 0.055826686 0.74199998 1.0685024e-38
-0.0091866674 0.055826671 0.74200004 1.0960135e-38
-0.0077523808 0.055676214 0.74000001 9.0261726e-39
-0.0063342866 0.055600975 0.73899996 7.0914811e-39
-0.0049333335 0.055676199 0.74000001 4.506765e-39
-0.003519048 0.055600986 0.73899996 2.0239907e-39
-0.002102857 0.055375248 0.73600006 3.3132875e-39
-0.00070095243 0.055375263 0.736 4.6933465e-39
0.00070095237 0.055375259 0.73600006 5.1518206e-39
0.0021028572 0.055375256 0.736 5.6141972e-39
0.0035047624 0.055375256 0.73600006 8.3807121e-39
0.0049066674 0.055375263 0.736 1.1144394e-38
0.0063085719 0.055375248 0.73600006 8.3814422e-39
0.0076895244 0.05522478 0.73400003 5.7078011e-39
0.0091123814 0.055375263 0.73600006 2.9426833e-39
0.010514286 0.055375256 0.736 1.8403393e-40
0.01191619 0.055375252 0.73600006 2.3938284e-39
0.013318096 0.055375263 0.736 4.6000439e-39
0.01472 0.055375252 0.73600006 4.5107307e-39
0.016121902 0.055375263 0.736 4.4085382e-39
0.017547619 0.055450488 0.73700005 9.6747762e-39
0.018951429 0.055450488 0.73699999 1.4933827e-38
0.02035524 0.055450484 0.73700005 1.5667467e-38
0.021759052 0.055450495 0.73699999 1.6406474e-38
0.023225714 0.055600982 0.73899996 1.7333457e-38
0.024666669 0.055676199 0.74000001 1.834395e-38
0.026076192 0.055676211 0.74000001 1.0404427e-38
0.027485717 0.055676211 0.74000001 2.5808106e-39
0.02901238 0.055901937 0.74299997 7.4670837e-39
0.030427622 0.055901933 0.74299997 1.2449228e-38
0.031842858 0.055901922 0.74299997 1.2169484e-38
0.033347625 0.056052394 0.74500006 1.1985017e-38
0.034860007 0.056202888 0.74699998 9.5717457e-39
0.036282863 0.056202888 0.74699998 7.2766122e-39
0.037756197 0.056278113 0.74800003 9.6790796e-39
0.039180961 0.056278102 0.74800003 1.2081195e-38
0.040714297 0.056428581 0.75000006 1.189362e-38
0.042255253 0.056579068 0.75200003 1.1712127e-38
0.043687634 0.056579057 0.75200003 1.1712511e-38
0.045480002 0.057030484 0.75800002 1.1806852e-38
0.047109526 0.057256214 0.76100004 1.1344439e-38
0.048686668 0.057406686 0.76300001 1.0978163e-38
0.050140008 0.057406697 0.76300001 1.0607224e-38
-0.034019046 0.0586286 0.75999999 1.1255741e-38
-0.032399993 0.058320023 0.75599998 1.4099023e-38
-0.030960003 0.058320027 0.75599998 1.0788609e-38
-0.029520003 0.058320034 0.75599998 7.3626702e-39
-0.028042862 0.058242876 0.75500005 4.5921349e-39
-0.026534289 0.058088582 0.75300002 1.7499191e-39
-0.02506667 0.058011431 0.75200003 2.9509762e-39
-0.023634288 0.058011454 0.75199997 4.1480663e-39
-0.022142857 0.05785716 0.75000006 4.5168432e-39
-0.02065905 0.057702862 0.74800003 4.8841978e-39
-0.019234288 0.05770288 0.74800003 5.4341472e-39
-0.0177381 0.057471439 0.74500006 5.8979728e-39
-0.016319051 0.057471443 0.745 8.4808321e-39
-0.014860001 0.057317168 0.74300003 1.1050805e-38
-0.013444764 0.057317164 0.74299997 1.0870377e-38
-0.012029525 0.057317168 0.74299997 1.0682063e-38
-0.010600002 0.057240013 0.74199998 1.0409448e-38
-0.0091866674 0.057240009 0.74200004 1.0036356e-38
-0.0077838101 0.057317168 0.74299997 9.3956516e-39
-0.0063600005 0.057240009 0.74199998 8.7445102e-39
-0.004933334 0.05708573 0.74000001 4.4084682e-39
-0.0035238098 0.05708573 0.74000001 9.400891e-41
-0.0021057145 0.056854289 0.73700005 2.2998699e-39
-0.00070190488 0.0568543 0.73699999 4.416045e-39
0.00070095243 0.056777164 0.736 4.7859107e-39
0.0021028572 0.056777161 0.73600006 5.0631996e-39
0.0035047624 0.056777168 0.736 7.2693927e-39
0.0048933337 0.05662287 0.73400003 9.4831304e-39
0.0063085719 0.056777164 0.736 6.2670944e-39
0.0077104773 0.056777164 0.73600006 3.039918e-39
0.0091123814 0.056777161 0.736 1.6533991e-39
0.010514287 0.056777164 0.73600006 1.8439126e-40
0.011916191 0.056777172 0.736 2.7586942e-40
0.013318097 0.056777153 0.73600006 2.8017982e-40
0.01472 0.056777164 0.736 8.2689361e-40
0.016143808 0.0568543 0.73699999 1.2951011e-39
0.017523808 0.056777164 0.736 8.3015654e-39
0.018925715 0.056777161 0.73600006 1.5292201e-38
0.02032762 0.056777168 0.736 1.5112492e-38
0.021759052 0.0568543 0.73700005 1.4843125e-38
0.023225712 0.057008587 0.73900002 1.6697455e-38
0.024666667 0.057085726 0.74000001 1.8515783e-38
0.02607619 0.05708573 0.74000001 1.0866445e-38
0.027485715 0.05708573 0.74000001 3.134685e-39
0.029012382 0.057317168 0.74299997 5.8872388e-39
0.030427622 0.057317168 0.74299997 8.5709398e-39
0.031842854 0.05731716 0.74300003 8.9501451e-39
0.033258099 0.057317168 0.74299997 9.2098408e-39
0.034860004 0.057625733 0.74699998 8.9235471e-39
0.03628286 0.057625737 0.74700004 8.5601526e-39
0.037756193 0.057702869 0.74800003 9.3063174e-39
0.039285719 0.057857156 0.75000006 9.9545987e-39
0.040714294 0.057857156 0.75000006 1.0507098e-38
0.042255249 0.058011454 0.75199997 1.1064594e-38
0.043745726 0.058088586 0.75300002 1.1344072e-38
0.045360006 0.058320034 0.75599998 1.1618128e-38
0.047047623 0.058628578 0.76000005 1.069653e-38
0.048559055 0.058705721 0.76100004 9.774934e-39
-0.032485712 0.059918102 0.75800002 1.3635154e-38
-0.030960003 0.059760012 0.75600004 1.0040633e-38
-0.029480953 0.059680957 0.75500005 6.4288799e-39
-0.02804286 0.059680965 0.75500005 5.2357009e-39
-0.026534289 0.059522863 0.75300002 3.9525431e-39
-0.02506667 0.059443831 0.75199997 5.3466052e-39
-0.023634288 0.059443835 0.75200003 6.8134522e-39
-0.022142857 0.059285723 0.75000006 5.8014583e-39
-0.020714289 0.059285723 0.75000006 4.8856285e-39
-0.019234288 0.059127636 0.74800003 5.5284896e-39
-0.017738096 0.058890484 0.74500006 6.1698891e-39
-0.01631905 0.058890484 0.74500006 7.646775e-39
-0.014860001 0.058732413 0.74299997 9.2090701e-39
-0.013444764 0.058732416 0.74299997 8.102396e-39
-0.012029525 0.058732398 0.74299997 6.9978449e-39
-0.010600002 0.058653351 0.74199998 8.4657639e-39
-0.0091866683 0.058653347 0.74200004 9.9315641e-39
-0.0077733337 0.058653332 0.74200004 1.1329204e-38
-0.0063600005 0.058653347 0.74199998 1.2704189e-38
-0.0049466668 0.058653336 0.74200004 8.2824152e-39
-0.0035238098 0.058495261 0.74000001 3.8578279e-39
-0.0021057145 0.058258101 0.73700005 4.044387e-39
-0.00070190494 0.058258113 0.73699999 4.2320138e-39
0.00070095243 0.058179069 0.73600006 4.6937123e-39
0.0021057145 0.058258109 0.73699999 5.1550505e-39
0.0035095243 0.058258109 0.73700005 6.9028018e-39
0.0049066669 0.058179073 0.736 8.6602249e-39
0.0063085724 0.058179073 0.73600006 8.3818415e-39
0.0077104769 0.058179069 0.736 8.0826307e-39
0.0091247633 0.058258113 0.73700005 6.2469675e-39
0.010514287 0.05817908 0.736 4.4095401e-39
0.011916191 0.058179062 0.73600006 5.4283402e-39
0.013318097 0.058179073 0.736 6.5303661e-39
0.014720001 0.058179073 0.73600006 6.4431942e-39
0.016121903 0.058179069 0.736 6.3370864e-39
0.01752381 0.058179069 0.73600006 9.2963471e-39
0.018925715 0.058179066 0.73600006 1.2168e-38
0.020355241 0.058258113 0.73700005 1.3089584e-38
0.021759054 0.058258098 0.73700005 1.4002981e-38
0.023225714 0.058416195 0.73900002 1.4655579e-38
0.024666669 0.058495246 0.74000001 1.5298312e-38
0.026076192 0.058495261 0.74000001 9.1136486e-39
0.027560003 0.05865334 0.74200004 2.9391675e-39
0.02901238 0.058732405 0.74299997 3.8640006e-39
0.030427622 0.058732405 0.74300003 4.7927392e-39
0.031842854 0.05873242 0.74299997 5.0667912e-39
0.033258095 0.058732402 0.74299997 5.4190944e-39
0.03476667 0.058890492 0.745 5.1504305e-39
0.036282863 0.059048586 0.74700004 4.876684e-39
0.037756197 0.059127629 0.74800003 5.3451549e-39
0.039180961 0.059127633 0.74800003 5.9037615e-39
0.040714294 0.059285734 0.75000006 8.2068838e-39
0.042311437 0.059522863 0.75300002 1.0511047e-38
0.043745723 0.059522871 0.75300002 1.1156073e-38
0.045359999 0.059760019 0.75599998 1.1798182e-38
0.046923812 0.059918098 0.75800002 1.1517988e-38
0.048495244 0.060076211 0.75999999 1.1326412e-38
-0.032485712 0.061361905 0.75800002 1.3081986e-38
-0.030960005 0.061200023 0.75599998 9.3095488e-39
-0.029480955 0.061119057 0.75500005 5.5234477e-39
-0.02804286 0.06111905 0.75500005 5.8778361e-39
-0.026534291 0.06095716 0.75300002 6.1698625e-39
-0.02506667 0.060876217 0.75200003 7.8523357e-39
-0.023634288 0.060876209 0.75200003 9.3862713e-39
-0.022142859 0.060714301 0.75 7.1739643e-39
-0.020714289 0.060714304 0.75000006 4.8849082e-39
-0.019234287 0.060552396 0.74800003 5.7164654e-39
-0.017785717 0.060471445 0.74700004 6.4500563e-39
-0.016319051 0.060309537 0.74500006 6.9113708e-39
-0.014900001 0.060309537 0.74500006 7.2755066e-39
-0.013444764 0.060147651 0.74299997 5.3315581e-39
-0.012029525 0.060147651 0.74299997 3.3133002e-39
-0.010614287 0.060147651 0.74299997 6.5246446e-39
-0.0091866674 0.06006667 0.74200004 9.7619047e-39
-0.0077733337 0.06006667 0.74200004 1.3284716e-38
-0.0063600009 0.060066685 0.74200004 1.667112e-38
-0.0049333335 0.059904762 0.74000001 1.2159674e-38
-0.0035095243 0.059661917 0.73700005 7.5449104e-39
-0.0021057143 0.059661914 0.73700005 5.7874509e-39
-0.00070190482 0.059661917 0.73700005 4.0468981e-39
0.00070190476 0.059661929 0.73700005 4.6011565e-39
0.0021057143 0.05966191 0.73700005 5.1518135e-39
0.003509524 0.059661921 0.73700005 6.5268377e-39
0.0049133338 0.059661925 0.73700005 7.8337264e-39
0.0063171429 0.059661917 0.73700005 1.0516713e-38
0.0077209529 0.059661914 0.73700005 1.315621e-38
0.0091247614 0.059661925 0.73700005 1.0933448e-38
0.010528572 0.059661914 0.73700005 8.6476314e-39
0.011916191 0.059580967 0.73600006 1.0680953e-38
0.013318097 0.059580974 0.736 1.2706735e-38
0.014720001 0.059580974 0.73600006 1.2078255e-38
0.016121902 0.059580971 0.736 1.1413516e-38
0.01754762 0.059661932 0.73699999 1.0194177e-38
0.018951429 0.059661914 0.73700005 9.0312089e-39
0.02035524 0.059661925 0.73699999 1.1166067e-38
0.021759052 0.059661914 0.73700005 1.3175678e-38
0.023225714 0.05982383 0.73899996 1.2622506e-38
0.024666669 0.059904777 0.74000001 1.2058525e-38
0.026076192 0.059904765 0.74000001 7.4426619e-39
0.027560003 0.060066663 0.74200004 2.7597732e-39
0.029012382 0.060147636 0.74299997 1.8371163e-39
0.030427622 0.060147651 0.74299997 9.2342066e-40
0.031842858 0.060147651 0.74299997 1.2882473e-39
0.033347622 0.060309544 0.74500006 1.6559564e-39
0.034766674 0.060309533 0.74500006 1.3818947e-39
0.03628286 0.060471449 0.74700004 1.1078189e-39
0.037756197 0.060552396 0.74800003 1.4776664e-39
0.039180961 0.060552388 0.74800003 1.7650433e-39
0.040714297 0.060714297 0.75 5.813012e-39
0.042255249 0.060876209 0.75200003 9.8659974e-39
0.043745726 0.060957164 0.75300002 1.0878368e-38
0.045360003 0.061200015 0.75599998 1.1891388e-38
0.046800002 0.061200023 0.75599998 1.2342633e-38
0.048240006 0.06120003 0.75600004 1.2811898e-38
-0.032571424 0.062971458 0.76000005 1.1154515e-38
-0.030960005 0.062640019 0.75599998 8.5720076e-39
-0.029480955 0.062557146 0.75500005 6.0794913e-39
-0.027968576 0.062391434 0.75300002 5.7027789e-39
-0.026534289 0.062391441 0.75300002 5.2515019e-39
-0.02506667 0.062308598 0.75199997 7.2783484e-39
-0.023634288 0.062308591 0.75199997 9.2761306e-39
-0.022201907 0.062308595 0.75199997 7.0824833e-39
-0.02071429 0.062142868 0.75 4.9781759e-39
-0.019285718 0.062142871 0.75000006 5.531358e-39
-0.017785717 0.061894294 0.74700004 6.0845066e-39
-0.016319051 0.061728593 0.74500006 6.1748903e-39
-0.014860001 0.061562881 0.74299997 6.2728537e-39
-0.013444764 0.061562885 0.74300003 4.7848597e-39
-0.012029525 0.061562881 0.74299997 3.3071989e-39
-0.010614287 0.061562885 0.74299997 7.6370556e-39
-0.0091866674 0.061480008 0.74200004 1.1877372e-38
-0.0077733342 0.061480008 0.74200004 1.4291022e-38
-0.0063600005 0.061480008 0.74200004 1.6780245e-38
-0.004933334 0.061314296 0.74000001 1.2440638e-38
-0.003509524 0.061065719 0.73700005 8.1906582e-39
-0.0021057143 0.06106573 0.73699999 6.0683202e-39
-0.00070190476 0.06106573 0.73700005 4.0465296e-39
0.00070190482 0.061065726 0.73699999 4.0490645e-39
0.0021057148 0.061065726 0.73700005 4.1405385e-39
0.0035095243 0.061065737 0.73699999 5.7978794e-39
0.0049133343 0.061065722 0.73700005 7.5593172e-39
0.0063171433 0.06106573 0.73699999 1.1153876e-38
0.0077209533 0.061065711 0.73700005 1.4826855e-38
0.0091247624 0.061065726 0.73699999 1.1692167e-38
0.010528573 0.061065726 0.73700005 8.6587788e-39
0.01191619 0.060982883 0.736 9.7604992e-39
0.013318096 0.060982883 0.73600006 1.0976641e-38
0.014740001 0.061065733 0.73699999 1.1808221e-38
0.016143808 0.061065719 0.73700005 1.2636802e-38
0.017547619 0.06106573 0.73699999 9.117903e-39
0.018951427 0.061065726 0.73700005 5.6268033e-39
0.02035524 0.061065726 0.73699999 7.1949053e-39
0.021818096 0.061231453 0.73899996 8.7574652e-39
0.023257142 0.061314296 0.74000001 1.0586921e-38
0.024666669 0.061314292 0.74000001 1.2319608e-38
0.026146669 0.061480012 0.74200004 1.0489006e-38
0.027560003 0.061480001 0.74200004 8.5547071e-39
0.02901238 0.061562881 0.74299997 5.2385707e-39
0.030427622 0.061562885 0.74299997 1.8370813e-39
0.031928573 0.061728582 0.74500006 3.8624942e-39
0.033347622 0.061728582 0.74500006 5.9736261e-39
0.034860004 0.061894309 0.74700004 5.5198211e-39
0.03628286 0.061894313 0.74700004 5.0520579e-39
0.037756193 0.061977159 0.74800003 5.0606913e-39
0.039180957 0.061977148 0.74800003 5.0689464e-39
0.040714297 0.062142875 0.75 8.6645241e-39
0.042255249 0.062308595 0.75199997 1.2261923e-38
0.043745723 0.062391445 0.75300002 1.3552672e-38
0.045360003 0.062640026 0.75599998 1.4750062e-38
0.046923812 0.062805727 0.75800002 1.4932598e-38
0.048367623 0.062805712 0.75800002 1.5126056e-38
-0.032571428 0.064419068 0.76000005 9.1204632e-39
-0.030960003 0.064080015 0.75599998 7.9273262e-39
-0.029520003 0.06408003 0.75599998 6.6290666e-39
-0.028042862 0.063995257 0.75500005 5.5105333e-39
-0.026534291 0.063825734 0.75300002 4.329575e-39
-0.02506667 0.063740969 0.75199997 6.7337898e-39
-0.023634288 0.063740976 0.75200003 9.1078921e-39
-0.022201907 0.063740984 0.75200003 7.0846539e-39
-0.020714287 0.063571446 0.75 5.0685848e-39
-0.019285716 0.063571446 0.75000006 5.4380876e-39
-0.017785715 0.063317165 0.74699998 5.7114179e-39
-0.016275236 0.062978119 0.74299997 5.5227008e-39
-0.014860001 0.062978119 0.74300003 5.2464923e-39
-0.013444764 0.062978134 0.74299997 4.3199019e-39
-0.012029525 0.062978119 0.74299997 3.3129386e-39
-0.010614287 0.062978119 0.74300003 8.6551816e-39
-0.0091866683 0.062893346 0.74200004 1.400146e-38
-0.0077733337 0.062893331 0.74200004 1.540527e-38
-0.00636 0.062893346 0.74200004 1.6775567e-38
-0.0049466663 0.062893346 0.74200004 1.2815101e-38
-0.003519048 0.062639058 0.73900002 8.8342073e-39
-0.0021057145 0.062469542 0.73699999 6.4324518e-39
-0.00070190476 0.062469527 0.73700005 3.956136e-39
0.00070190476 0.062469538 0.73699999 3.4994851e-39
0.0021057145 0.062469542 0.73700005 3.0377825e-39
0.0035095243 0.062469527 0.73700005 5.1478339e-39
0.0049133338 0.062469535 0.73700005 7.1887368e-39
0.0063171438 0.062469535 0.73700005 1.180462e-38
0.0077209529 0.062469531 0.73700005 1.6392403e-38
0.0091247624 0.062469527 0.73700005 1.2532758e-38
0.010528573 0.062469538 0.73700005 8.6580753e-39
0.011932381 0.062469523 0.73700005 8.9084579e-39
0.013336192 0.062469538 0.73700005 9.1226912e-39
0.014740001 0.062469535 0.73700005 1.1540619e-38
0.016143808 0.062469531 0.73700005 1.3820987e-38
0.017547619 0.062469531 0.73700005 8.0144519e-39
0.019002857 0.062639058 0.73900002 2.2202481e-39
0.020410476 0.062639058 0.73900002 3.3205224e-39
0.021847622 0.06272383 0.74000001 4.3324982e-39
0.023257142 0.06272383 0.74000001 8.4640095e-39
0.024733333 0.062893346 0.74199998 1.2613815e-38
0.026146669 0.062893346 0.74200004 1.3546509e-38
0.027560001 0.062893339 0.74200004 1.435543e-38
0.029012382 0.062978119 0.74299997 8.5410753e-39
0.030509524 0.063147634 0.74500006 2.7612068e-39
0.031928569 0.063147634 0.74500006 6.5350983e-39
0.033347622 0.063147642 0.74500006 1.0218565e-38
0.034860007 0.06331715 0.74700004 9.6711426e-39
0.036282863 0.063317165 0.74699998 9.02183e-39
0.037756197 0.063401915 0.74800003 8.6444379e-39
0.039180961 0.063401915 0.74800003 8.2889495e-39
0.040714297 0.063571423 0.75000006 1.151361e-38
0.042311441 0.063825719 0.75300002 1.4655064e-38
0.043920003 0.064080037 0.75599998 1.6135946e-38
0.045480002 0.06424953 0.75800002 1.7602055e-38
0.046923816 0.06424953 0.75800002 1.7511625e-38
0.048495244 0.064419076 0.76000005 1.732836e-38
-0.032571424 0.065866694 0.75999999 6.6347685e-39
-0.030960003 0.065520033 0.75599998 6.174519e-39
-0.029520001 0.065520018 0.75599998 5.8054142e-39
-0.028042862 0.065433338 0.75500005 5.0585641e-39
-0.026534291 0.065260015 0.75300002 4.3216998e-39
-0.02506667 0.065173343 0.75200003 5.8947119e-39
-0.023634287 0.06517335 0.75200003 7.5513606e-39
-0.022201907 0.06517335 0.75200003 6.4461271e-39
-0.020714289 0.064999998 0.75000006 5.3440997e-39
-0.019285718 0.065000013 0.75 5.6199635e-39
-0.017785715 0.064740032 0.74700004 5.8914945e-39
-0.016275238 0.064393349 0.74299997 4.325238e-39
-0.014840001 0.064306684 0.74199998 2.8494143e-39
-0.013444764 0.064393364 0.74299997 2.5739092e-39
-0.012029525 0.064393349 0.74299997 2.2962924e-39
-0.010600002 0.064306691 0.74199998 7.9219746e-39
-0.0091866674 0.064306669 0.74200004 1.3547339e-38
-0.0077733332 0.064306669 0.74200004 1.3831176e-38
-0.0063428571 0.064133346 0.74000001 1.4203083e-38
-0.004933334 0.064133361 0.74000001 9.4870877e-39
-0.0035095245 0.063873351 0.73700005 4.8676849e-39
-0.0021057145 0.063873351 0.73700005 4.4117304e-39
-0.00070190488 0.063873343 0.73700005 3.9575794e-39
0.00070190482 0.063873336 0.73700005 3.5891654e-39
0.0021057143 0.063873351 0.73700005 3.3122015e-39
0.0035095238 0.063873336 0.73700005 4.7829806e-39
0.0049133338 0.063873351 0.73700005 6.3557503e-39
0.0063171438 0.063873351 0.73700005 1.1429747e-38
0.0077209529 0.063873343 0.73700005 1.6578628e-38
0.0091247624 0.063873328 0.73700005 1.299345e-38
0.010528573 0.063873351 0.73700005 9.3070362e-39
0.011932381 0.063873336 0.73700005 6.9913387e-39
0.013336192 0.063873336 0.73699999 4.6062306e-39
0.014740001 0.063873351 0.73700005 6.3666328e-39
0.016143806 0.063873343 0.73699999 8.1232515e-39
0.017595237 0.064046681 0.73899996 4.7004917e-39
0.019002859 0.064046681 0.73900002 1.2860781e-39
0.020438096 0.064133346 0.74000001 2.8512276e-39
0.021847621 0.064133346 0.74000001 4.5014583e-39
0.023320001 0.064306676 0.74200004 8.7517801e-39
0.024733335 0.064306691 0.74199998 1.3094923e-38
0.026181906 0.064393356 0.74300003 1.3091303e-38
0.027597146 0.064393364 0.74299997 1.3188136e-38
0.029090477 0.064566679 0.74500006 8.466473e-39
0.030509524 0.064566672 0.745 3.6828212e-39
0.032014288 0.06474001 0.74700004 7.283103e-39
0.033437144 0.06474001 0.74700004 1.0979496e-38
0.03490667 0.064826682 0.74800003 1.0971976e-38
0.036331434 0.064826675 0.74800003 1.0974451e-38
0.037756197 0.064826675 0.74800003 1.0409051e-38
0.039285719 0.06500002 0.75000006 9.9495428e-39
0.040822867 0.065173343 0.75200003 1.3179956e-38
0.042480007 0.065520011 0.75599998 1.6413249e-38
0.044036195 0.065693349 0.75800002 1.6870312e-38
0.045480002 0.065693334 0.75800002 1.7327336e-38
0.046799999 0.065520018 0.75599998 1.7326976e-38
-0.029520001 0.066960037 0.75599998 4.9699138e-39
-0.027968576 0.066694304 0.75300002 4.6886732e-39
-0.026534291 0.066694297 0.75300002 4.3238423e-39
-0.025066672 0.066605732 0.75199997 5.1553855e-39
-0.023665717 0.066694304 0.75300002 5.8940323e-39
-0.022201909 0.066605732 0.75199997 5.7121704e-39
-0.02071429 0.066428572 0.75000006 5.5292225e-39
-0.019285718 0.066428594 0.75 5.8054506e-39
-0.017785715 0.066162877 0.74700004 5.9858594e-39
-0.01631905 0.065985732 0.74500006 3.2203576e-39
-0.014860001 0.065808609 0.74299997 4.6349488e-40
-0.013444764 0.065808602 0.74299997 9.2123323e-40
-0.012029525 0.065808579 0.74300003 1.2936325e-39
-0.010614287 0.065808609 0.74299997 7.1887186e-39
-0.0091866674 0.065720022 0.74200004 1.2988012e-38
-0.0077733342 0.065720007 0.74200004 1.2259809e-38
-0.0063428585 0.065542877 0.74000001 1.1506778e-38
-0.004933334 0.065542862 0.74000001 6.2459166e-39
-0.003519048 0.065454319 0.73899996 9.1910746e-40
-0.0021057145 0.065277159 0.73700005 2.3884838e-39
-0.00070190488 0.065277159 0.73699999 3.861788e-39
0.00070380949 0.065454319 0.73900002 3.7703028e-39
0.0021114287 0.065454304 0.73900002 3.5848256e-39
0.0035190475 0.065454304 0.73899996 4.5002994e-39
0.0049133343 0.065277159 0.73699999 5.44061e-39
0.0063342871 0.065454312 0.73899996 1.1163898e-38
0.0077209533 0.065277159 0.73699999 1.6764787e-38
0.0091495244 0.065454312 0.73899996 1.337118e-38
0.010557145 0.065454312 0.73900002 9.9401905e-39
0.011964763 0.065454297 0.73900002 5.0513138e-39
0.013372383 0.065454304 0.73899996 9.6193534e-41
0.014780001 0.065454304 0.73900002 1.2875957e-39
0.016187616 0.065454304 0.73899996 2.3989025e-39
0.017619047 0.065542862 0.74000001 1.3779024e-39
0.019028572 0.065542862 0.74000001 2.7587923e-40
0.020438097 0.065542877 0.74000001 2.4802941e-39
0.021847621 0.065542862 0.74000001 4.6051138e-39
0.023319999 0.065720007 0.74200004 9.037659e-39
0.024733335 0.065720007 0.74199998 1.3451469e-38
0.026146669 0.065720007 0.74200004 1.2719621e-38
0.027597146 0.065808594 0.74299997 1.1965909e-38
0.029012382 0.065808602 0.74299997 8.2702323e-39
0.030509524 0.065985717 0.74500006 4.6094186e-39
0.032014288 0.066162869 0.74700004 8.1178719e-39
0.033437144 0.066162854 0.74700004 1.1612665e-38
0.03490667 0.066251442 0.74800003 1.2261994e-38
0.03633143 0.066251442 0.74800003 1.2807214e-38
0.037756193 0.066251434 0.74800003 1.2251844e-38
0.039285719 0.066428602 0.75000006 1.1614791e-38
0.040877152 0.066694304 0.75300002 1.4842721e-38
0.042480007 0.066960022 0.75600004 1.8063078e-38
0.044036195 0.067137152 0.75800002 1.7604635e-38
0.045480005 0.067137152 0.75800002 1.7052187e-38
0.046923816 0.067137159 0.75800002 1.7143306e-38
-0.031041909 0.068580963 0.75799996 3.1299823e-39
-0.029598098 0.06858094 0.75800002 3.5851941e-39
-0.028042862 0.068309546 0.755 3.8617558e-39
-0.026534291 0.068128578 0.75300002 4.231281e-39
-0.025100004 0.068128586 0.75300002 4.8795413e-39
-0.023665717 0.068128601 0.75300002 5.5245533e-39
-0.022201907 0.068038106 0.75200003 5.0678968e-39
-0.020769527 0.068038106 0.75200003 4.6116004e-39
-0.019285718 0.067857146 0.75000006 6.2696728e-39
-0.017785717 0.067585737 0.74700004 7.8315572e-39
-0.01631905 0.067404784 0.745 4.6065151e-39
-0.014900001 0.067404769 0.74500006 1.4744126e-39
-0.013480954 0.067404769 0.74500006 1.3804135e-39
-0.012029525 0.067223832 0.74299997 1.2882501e-39
-0.010614287 0.067223847 0.74299997 6.4490053e-39
-0.0091866674 0.067133345 0.74200004 1.1700817e-38
-0.0077733337 0.06713333 0.74200004 1.1139727e-38
-0.0063428585 0.066952392 0.74000001 1.056324e-38
-0.004933334 0.066952392 0.74000001 7.7188466e-39
-0.0035190482 0.066861928 0.73899996 4.9594993e-39
-0.0021057143 0.066680968 0.73700005 3.9529186e-39
-0.00070190482 0.06668096 0.73700005 2.9427058e-39
0.00070380949 0.066861928 0.73900002 2.3905942e-39
0.0021114284 0.066861935 0.73899996 1.929623e-39
0.0035190475 0.066861935 0.73900002 4.2294565e-39
0.0049266671 0.066861935 0.73899996 6.5386758e-39
0.0063342862 0.066861935 0.73900002 9.6790768e-39
0.0077419053 0.066861928 0.73900002 1.281297e-38
0.0091495244 0.066861928 0.73899996 1.0219699e-38
0.01057143 0.0669524 0.74000001 7.7146063e-39
0.011964762 0.066861942 0.73899996 6.0650902e-39
0.013372382 0.066861928 0.73900002 4.4084639e-39
0.014800001 0.066952385 0.74000001 5.8907463e-39
0.016209522 0.066952392 0.74000001 7.3471998e-39
0.017619047 0.066952378 0.74000001 4.9662928e-39
0.019080002 0.067133337 0.74200004 2.6635951e-39
0.020493336 0.067133352 0.74199998 3.4933488e-39
0.021906666 0.067133352 0.74200004 4.4214246e-39
0.023320001 0.067133337 0.74200004 8.1045652e-39
0.024766669 0.067223832 0.74300003 1.1881982e-38
0.026181906 0.067223847 0.74299997 1.1879794e-38
0.027597146 0.067223832 0.74299997 1.1940056e-38
0.029168572 0.067585744 0.74700004 8.9170128e-39
0.030591428 0.067585751 0.74700004 5.9887363e-39
0.032057144 0.067676194 0.74800003 8.2940068e-39
0.033481907 0.067676201 0.74800003 1.0591361e-38
0.03490667 0.067676201 0.74800003 1.0229431e-38
0.036428578 0.067857161 0.75 9.9545735e-39
0.037857149 0.067857161 0.75000006 1.142746e-38
0.039390482 0.068038121 0.75199997 1.299664e-38
0.040877152 0.068128586 0.75300002 1.5486685e-38
0.042480007 0.068400025 0.75599998 1.806489e-38
0.044036195 0.068580955 0.75800002 1.7696466e-38
0.045480002 0.068580963 0.75800002 1.7419527e-38
0.046923812 0.068580955 0.75800002 1.7696113e-38
0.048559055 0.068852395 0.76100004 1.7880856e-38
-0.031041909 0.070024759 0.75800002 1.6580948e-39
-0.029598096 0.070024759 0.75800002 2.2083777e-39
-0.027931435 0.069470488 0.75200003 3.1249264e-39
-0.026499052 0.069470495 0.75200003 4.0508386e-39
-0.02506667 0.069470495 0.75200003 4.6061802e-39
-0.023665717 0.069562867 0.75300002 5.1593511e-39
-0.022201907 0.069470495 0.75200003 4.4232392e-39
-0.020769527 0.069470502 0.75199997 3.6950279e-39
-0.019234288 0.069100961 0.74800003 6.7378102e-39
-0.017785717 0.069008589 0.74700004 9.6725734e-39
-0.016319051 0.068823829 0.74500006 6.083429e-39
-0.014900001 0.068823837 0.745 2.3963577e-39
-0.013480954 0.068823822 0.74500006 1.8370757e-39
-0.012029525 0.06863907 0.74299997 1.291113e-39
-0.010614287 0.068639085 0.74299997 5.8018437e-39
-0.0091990484 0.068639077 0.74299997 1.0309304e-38
-0.0077733332 0.068546653 0.74200004 1.0034861e-38
-0.0063428581 0.068361923 0.74000001 9.6606917e-39
-0.0049333335 0.068361908 0.74000001 9.2904701e-39
-0.003509524 0.068084776 0.73700005 8.9227834e-39
-0.0021057143 0.068084791 0.73700005 5.4291039e-39
-0.00070190482 0.068084776 0.73700005 1.932874e-39
0.00070380949 0.068269543 0.73899996 1.1027448e-39
0.0021114287 0.068269543 0.73900002 2.7625899e-40
0.0035190478 0.068269543 0.73900002 3.9493537e-39
0.0049266671 0.068269543 0.73899996 7.6464625e-39
0.0063342862 0.068269536 0.73900002 8.2003594e-39
0.0077419053 0.068269551 0.73899996 8.7524457e-39
0.0091495244 0.068269536 0.73900002 7.1636171e-39
0.010600002 0.06854666 0.74200004 5.515557e-39
0.012013334 0.068546683 0.74199998 7.0860426e-39
0.013390478 0.068361916 0.74000001 8.6576871e-39
0.014800001 0.068361916 0.74000001 1.0519548e-38
0.016209522 0.068361908 0.74000001 1.2335452e-38
0.017619047 0.068361908 0.74000001 8.6606004e-39
0.01908 0.068546653 0.74200004 4.9749459e-39
0.020493334 0.068546675 0.74199998 4.5921405e-39
0.021906665 0.068546675 0.74200004 4.2298474e-39
0.023319997 0.068546653 0.74200004 7.2604454e-39
0.024733333 0.068546668 0.74199998 1.0223558e-38
0.026181908 0.068639085 0.74299997 1.1069434e-38
0.027597146 0.06863907 0.74300003 1.186833e-38
0.029090475 0.068823814 0.74500006 9.6527968e-39
0.030591428 0.069008581 0.74700004 7.364845e-39
0.032057144 0.069100969 0.74800003 8.477319e-39
0.033481907 0.069100969 0.74800003 9.5782758e-39
0.035000008 0.069285713 0.75000006 8.292946e-39
0.036428578 0.069285721 0.75 7.01153e-39
0.037958104 0.069470502 0.75200003 1.0691026e-38
0.039442867 0.069562867 0.75300002 1.4379581e-38
0.040877152 0.069562867 0.75300002 1.6226045e-38
0.042423818 0.069747634 0.75500005 1.7972707e-38
0.043920003 0.069840029 0.75599998 1.7879789e-38
0.045480005 0.070024766 0.75800002 1.7789034e-38
0.046800006 0.069840021 0.75599998 1.8157099e-38
0.048240006 0.069840029 0.75599998 1.8525512e-38
-0.027931437 0.070902877 0.75200003 3.6820448e-39
-0.026428575 0.07071428 0.75000006 4.6075913e-39
-0.025000004 0.070714287 0.75000006 5.7150136e-39
-0.023634288 0.070902884 0.75199997 6.7259243e-39
-0.022201909 0.070902891 0.75199997 5.3437312e-39
-0.020769529 0.070902884 0.75199997 3.8740227e-39
-0.019234288 0.070525728 0.74800003 7.6536456e-39
-0.017738098 0.070242874 0.74500006 1.14257e-38
-0.016319051 0.070242882 0.74500006 9.1175989e-39
-0.0149 0.070242867 0.74500006 6.8026721e-39
-0.013480953 0.070242867 0.745 3.7677679e-39
-0.012029525 0.0700543 0.74299997 7.3722452e-40
-0.010614287 0.07005433 0.74299997 4.2338159e-39
-0.0091990484 0.070054315 0.74299997 7.8218631e-39
-0.0077838097 0.070054308 0.74299997 9.0218286e-39
-0.0063428581 0.069771439 0.74000001 1.0223924e-38
-0.0049333335 0.069771439 0.74000001 9.8540541e-39
-0.0035095243 0.069488578 0.73700005 9.4913827e-39
-0.0021057145 0.069488585 0.73699999 5.6149273e-39
-0.00070190476 0.069488585 0.73700005 1.7466933e-39
0.00070190476 0.069488585 0.73699999 3.3111015e-39
0.0021114287 0.069677167 0.73900002 4.7762319e-39
0.0035190478 0.069677159 0.73899996 8.3822773e-39
0.0049266671 0.069677144 0.73900002 1.2080417e-38
0.0063171429 0.069488585 0.73699999 1.2162894e-38
0.0077419053 0.069677159 0.73900002 1.2250772e-38
0.0091247624 0.069488585 0.73699999 8.5594043e-39
0.010600002 0.069960013 0.74200004 4.873405e-39
0.012013334 0.069960006 0.74199998 5.8918225e-39
0.013426669 0.069960013 0.74200004 6.9228965e-39
0.014800001 0.069771439 0.74000001 1.0419896e-38
0.01620952 0.069771439 0.74000001 1.3814586e-38
0.017619047 0.069771431 0.74000001 1.2161551e-38
0.019080002 0.069960013 0.74200004 1.0595244e-38
0.020493334 0.069960013 0.74199998 7.5448614e-39
