# .PCD v0.7 - Point Cloud Data file format
VERSION 0.7
FIELDS x y z rgb
SIZE 4 4 4 4
TYPE F F F F
COUNT 1 1 1 1
WIDTH 966
HEIGHT 1
VIEWPOINT 0 0 0 1 0 0 0
POINTS 966
DATA ascii
0.044323787 -0.078419015 0.71599996 1.469409e-38
0.0457514 -0.078528568 0.71699995 1.4510415e-38
0.047117129 -0.078528553 0.71700001 1.432674e-38
0.048618082 -0.0787476 0.71900004 1.414308e-38
0.04998761 -0.0787476 0.71899998 1.3224737e-38
0.051428568 -0.078857139 0.72000003 1.2215245e-38
0.053019986 -0.079185694 0.72299999 1.1114275e-38
0.054397114 -0.079185694 0.72299993 9.9293893e-39
0.055928558 -0.079404756 0.72499996 8.5586798e-39
0.05738857 -0.07951428 0.72599995 7.092902e-39
0.059014257 -0.079842851 0.72899997 7.1858179e-39
0.060568549 -0.080061898 0.73099995 7.1872654e-39
0.062045723 -0.080171421 0.73200005 7.2794723e-39
0.06361334 -0.080390453 0.73399997 7.3705777e-39
-0.029168587 -0.080391422 0.74699998 6.8912635e-39
-0.027671464 -0.080176175 0.745 7.7185117e-39
-0.02614668 -0.079853326 0.74199998 8.6361828e-39
-0.024566699 -0.079315215 0.73699999 9.3701816e-39
-0.023131453 -0.079207584 0.736 1.0102322e-38
-0.021611426 -0.078777149 0.73200005 1.065366e-38
-0.020217158 -0.078777149 0.73199999 1.1204309e-38
-0.018822862 -0.078777134 0.73199999 1.1388333e-38
-0.017404778 -0.078669503 0.73099995 1.1571649e-38
-0.015902855 -0.078131437 0.72599995 1.1755682e-38
-0.014500024 -0.078023791 0.72499996 1.2030834e-38
-0.013082882 -0.077808559 0.72299999 1.2306345e-38
-0.011689545 -0.077700943 0.722 1.249002e-38
-0.010285714 -0.07748571 0.72000003 1.2765531e-38
-0.0089142816 -0.077485681 0.72000003 1.3041047e-38
-0.0075323782 -0.077378094 0.71900004 1.3224726e-38
-0.0061628767 -0.077378094 0.71900004 1.350023e-38
-0.0047800173 -0.077162832 0.71699995 1.3775734e-38
-0.0034095407 -0.077055216 0.71599996 1.4051232e-38
-0.00204003 -0.076839998 0.71399999 1.4234893e-38
-0.0006790483 -0.076732367 0.71300006 1.4418548e-38
0.00067712314 -0.076517135 0.71099997 1.4510369e-38
0.0020314078 -0.07651712 0.71099997 1.4602228e-38
0.0033856868 -0.076517135 0.71099997 1.4694086e-38
0.0047333217 -0.076409489 0.70999998 1.4877755e-38
0.0060856822 -0.076409504 0.70999998 1.5153259e-38
0.0074171233 -0.076194257 0.70799994 1.5520598e-38
0.0087657077 -0.076194271 0.70799994 1.5336923e-38
0.010114259 -0.076194257 0.70799989 1.5245099e-38
0.011462829 -0.076194257 0.70799989 1.5336944e-38
0.012811401 -0.076194271 0.70799989 1.5520623e-38
0.014139962 -0.07608664 0.7069999 1.5428796e-38
0.015486631 -0.076086625 0.7069999 1.5428789e-38
0.016833298 -0.07608664 0.7069999 1.5520616e-38
0.018179962 -0.076086655 0.7069999 1.5612439e-38
0.019526629 -0.07608664 0.7069999 1.5796098e-38
0.020873299 -0.076086625 0.7069999 1.5979753e-38
0.022219963 -0.07608664 0.7069999 1.570423e-38
0.02356663 -0.07608664 0.7069999 1.5520566e-38
0.024948556 -0.076194286 0.70799994 1.5704243e-38
0.026297126 -0.076194271 0.70799994 1.5887919e-38
0.0276457 -0.076194271 0.70799994 1.5428746e-38
0.02899427 -0.076194286 0.70799994 1.5061404e-38
0.030342821 -0.076194242 0.70799989 1.552058e-38
0.031780925 -0.076409474 0.70999998 1.5887914e-38
0.033179983 -0.07651712 0.71099997 1.5704234e-38
0.034534272 -0.07651712 0.71099997 1.5428732e-38
0.035888549 -0.076517135 0.71099997 1.5336899e-38
0.037347607 -0.076732367 0.713 1.5245058e-38
0.038705703 -0.076732367 0.71300006 1.5061382e-38
0.040063795 -0.076732367 0.713 1.4969552e-38
0.041479968 -0.076839969 0.71399993 1.487772e-38
0.042839982 -0.076839983 0.71399999 1.4785903e-38
0.044323787 -0.077055216 0.71599996 1.460225e-38
0.045751408 -0.077162832 0.71699989 1.4418935e-38
0.047117129 -0.077162847 0.71699995 1.4235261e-38
0.048618078 -0.077378079 0.71899998 1.414308e-38
0.050057136 -0.077485681 0.71999997 1.3133259e-38
0.051571414 -0.077700928 0.722 1.2123402e-38
0.053019989 -0.077808559 0.72299999 1.0657595e-38
0.054397106 -0.077808574 0.72299999 9.2876114e-39
0.055928539 -0.078023791 0.72499996 8.3746515e-39
0.057309497 -0.078023791 0.72499996 7.4606055e-39
0.058933299 -0.07834664 0.72799993 7.2780149e-39
0.060568549 -0.078669503 0.73099995 7.0950642e-39
0.062215235 -0.078992367 0.73399997 7.1872612e-39
0.063786641 -0.079207584 0.736 7.2780135e-39
0.065277115 -0.079315215 0.73699999 7.2790813e-39
-0.029090481 -0.078757122 0.745 6.1583774e-39
-0.027671449 -0.078757107 0.745 7.2611167e-39
-0.026181914 -0.078545704 0.74299997 8.362086e-39
-0.024633367 -0.078122839 0.73899996 9.2808207e-39
-0.02316289 -0.077911422 0.73699999 1.0196645e-38
-0.021670472 -0.077594265 0.73400003 1.0746561e-38
-0.020327624 -0.077805698 0.736 1.1297212e-38
-0.018822869 -0.077382848 0.73199999 1.1480882e-38
-0.017404774 -0.077277139 0.73099995 1.1664197e-38
-0.015902881 -0.076748565 0.72599995 1.1847871e-38
-0.01450001 -0.076642841 0.72499996 1.2031184e-38
-0.013082878 -0.076431423 0.72299999 1.2306691e-38
-0.011689556 -0.076325685 0.722 1.2582203e-38
-0.010285729 -0.076114282 0.71999997 1.2857356e-38
-0.0089142937 -0.076114267 0.71999997 1.3041036e-38
-0.0075428602 -0.076114267 0.71999997 1.3224716e-38
-0.0061628795 -0.076008558 0.71899998 1.3408393e-38
-0.0047800145 -0.075797126 0.71699995 1.3683904e-38
-0.0034095417 -0.075691417 0.71599996 1.3959399e-38
-0.0020400244 -0.075479984 0.71399999 1.4143059e-38
-0.00067905575 -0.075374275 0.713 1.4326723e-38
0.00067711197 -0.075162828 0.71099997 1.4418553e-38
0.0020314115 -0.075162858 0.71099997 1.4510412e-38
0.0033856961 -0.075162828 0.71100003 1.4694107e-38
0.004733318 -0.075057134 0.70999998 1.478593e-38
0.006085699 -0.075057119 0.71000004 1.5245095e-38
0.0074380743 -0.075057119 0.70999998 1.5612428e-38
0.0087656891 -0.074845672 0.70799989 1.542875e-38
0.010114261 -0.074845687 0.70799989 1.5153252e-38
0.011462833 -0.074845687 0.70799989 1.5336931e-38
0.012811403 -0.074845687 0.70799994 1.5428771e-38
0.014139961 -0.074739963 0.7069999 1.5520612e-38
0.015486627 -0.074739978 0.7069999 1.5520615e-38
0.016833294 -0.074739978 0.7069999 1.5520619e-38
0.018205689 -0.074845701 0.70799994 1.5520607e-38
0.019526629 -0.074739993 0.7069999 1.5612431e-38
0.020873295 -0.074739978 0.7069999 1.5704265e-38
0.02221996 -0.074739963 0.7069999 1.561243e-38
0.02359999 -0.074845687 0.70799994 1.5428753e-38
0.02494856 -0.074845701 0.70799994 1.5704255e-38
0.026297133 -0.074845701 0.70799994 1.5979762e-38
0.027645683 -0.074845672 0.70799989 1.542875e-38
0.028994253 -0.074845687 0.70799989 1.47859e-38
0.030428562 -0.075057149 0.70999998 1.5428749e-38
0.03182571 -0.075162858 0.71100003 1.607159e-38
0.033179976 -0.075162843 0.71099997 1.5704241e-38
0.034534272 -0.075162843 0.71099997 1.5336915e-38
0.035989519 -0.075374261 0.713 1.5153259e-38
0.037347611 -0.075374275 0.71300006 1.4969575e-38
0.038705699 -0.075374275 0.713 1.4877727e-38
0.040119983 -0.075479984 0.71399999 1.4785893e-38
0.041479975 -0.075479969 0.71399999 1.4785896e-38
0.042959999 -0.075691417 0.71599996 1.4694087e-38
0.04438569 -0.075797141 0.71699995 1.4510441e-38
0.045751393 -0.075797126 0.71699995 1.4327115e-38
0.047117133 -0.075797126 0.71699995 1.4235264e-38
0.048618075 -0.076008558 0.71899998 1.4051244e-38
0.050057147 -0.076114267 0.72000003 1.3041064e-38
0.051571414 -0.0763257 0.722 1.2032289e-38
0.053019963 -0.076431394 0.72299999 1.0289188e-38
0.05439711 -0.076431409 0.72299999 8.5529331e-39
0.055928558 -0.076642856 0.72500002 8.1920581e-39
0.057309493 -0.076642841 0.72499996 7.7361162e-39
0.058771431 -0.07674858 0.72599995 7.3709336e-39
0.060568552 -0.077277139 0.73099995 7.0039574e-39
0.062215243 -0.077594265 0.73400003 7.0961586e-39
0.063786663 -0.077805698 0.736 7.1872542e-39
0.065454267 -0.078122824 0.73899996 7.1875905e-39
-0.029090494 -0.077338085 0.745 4.7779793e-39
-0.027671434 -0.07733807 0.745 4.5953635e-39
-0.026181925 -0.077130437 0.74299991 4.5046126e-39
-0.02456669 -0.076507583 0.73699999 5.2382288e-39
-0.023162872 -0.076507583 0.73699999 6.0647413e-39
-0.021670472 -0.076196179 0.73399997 7.1649652e-39
-0.020327644 -0.076403782 0.736 8.1747983e-39
-0.018874291 -0.076196179 0.73399997 8.9091235e-39
-0.0174048 -0.075884745 0.73099995 9.5519748e-39
-0.015946697 -0.07557331 0.72799999 1.0102632e-38
-0.014500024 -0.075261891 0.72499996 1.0561807e-38
-0.013119067 -0.075261906 0.72499996 1.1112817e-38
-0.011705744 -0.075054273 0.72299999 1.1663837e-38
-0.010314298 -0.074950472 0.722 1.2031184e-38
-0.0089390753 -0.074950442 0.72199994 1.2398536e-38
-0.0075428528 -0.074742839 0.72000003 1.2857723e-38
-0.0061628823 -0.074639022 0.71899998 1.340839e-38
-0.0047800257 -0.074431419 0.71699995 1.3776821e-38
-0.0034095426 -0.074327588 0.71599996 1.4143432e-38
-0.0020400384 -0.07411997 0.71399993 1.4327806e-38
-0.00067905203 -0.074016199 0.71300006 1.4510404e-38
0.00067711197 -0.073808536 0.71099997 1.4603318e-38
0.0020313966 -0.073808551 0.71099997 1.4785938e-38
0.0033856961 -0.073808536 0.71099997 1.4878875e-38
0.0047399825 -0.073808551 0.71100003 1.496961e-38
0.0060856971 -0.07370472 0.71000004 1.5246169e-38
0.0074380706 -0.07370472 0.70999998 1.5520947e-38
0.0088028433 -0.073808551 0.71099997 1.5429818e-38
0.010114265 -0.073497102 0.70799994 1.5428747e-38
0.011462837 -0.073497117 0.70799994 1.5521665e-38
0.012811407 -0.073497131 0.70799994 1.5612425e-38
0.014159978 -0.073497117 0.70799994 1.570498e-38
0.015508548 -0.073497117 0.70799994 1.5796113e-38
0.016857123 -0.073497117 0.70799994 1.570465e-38
0.018205693 -0.073497117 0.70799994 1.5612446e-38
0.019554263 -0.073497117 0.70799994 1.5796465e-38
0.020873308 -0.0733933 0.70699996 1.5887956e-38
0.022251423 -0.073497117 0.70799994 1.5704299e-38
0.023599993 -0.073497117 0.70799994 1.5520612e-38
0.024948541 -0.073497117 0.70799989 1.5612431e-38
0.026297115 -0.073497102 0.70799989 1.5704264e-38
0.027723785 -0.073704749 0.70999998 1.5428754e-38
0.029076178 -0.073704749 0.70999998 1.5245082e-38
0.030428559 -0.073704749 0.70999998 1.5520587e-38
0.031825695 -0.073808566 0.71099997 1.5887923e-38
0.033179972 -0.073808536 0.71099997 1.5520576e-38
0.034534261 -0.073808551 0.71099997 1.5153262e-38
0.035888556 -0.073808536 0.71099997 1.4969617e-38
0.037347607 -0.074016169 0.713 1.4877762e-38
0.038759977 -0.07412 0.71399999 1.4785907e-38
0.040119968 -0.07411997 0.71399999 1.4694072e-38
0.041596167 -0.074327603 0.71599996 1.4602236e-38
0.042959981 -0.074327588 0.7159999 1.4510434e-38
0.04438569 -0.074431404 0.71699995 1.4510468e-38
0.045751419 -0.074431419 0.71700001 1.4510441e-38
0.047248565 -0.074639037 0.71900004 1.4235626e-38
0.048618078 -0.074639037 0.71900004 1.4051246e-38
0.050057132 -0.074742839 0.71999997 1.3225451e-38
0.051571395 -0.074950457 0.722 1.2491113e-38
0.053019971 -0.075054258 0.72299999 1.0383905e-38
0.054397117 -0.075054273 0.72299999 8.3710628e-39
0.055928562 -0.075261891 0.72499996 8.0083885e-39
0.057309516 -0.075261891 0.72500002 7.7368379e-39
0.058771435 -0.075365707 0.72599995 7.3702218e-39
0.060568556 -0.075884745 0.73099995 7.0039686e-39
0.062384725 -0.076403767 0.73599994 7.0958153e-39
0.063873321 -0.076507598 0.73699999 7.2794498e-39
-0.029168583 -0.07612285 0.74699998 3.3100365e-39
-0.027671447 -0.075919032 0.745 1.9289056e-39
-0.026181918 -0.075715214 0.74299997 5.5246893e-40
-0.024633348 -0.075307608 0.73899996 1.2860963e-39
-0.023162883 -0.075103804 0.73699999 1.9296426e-39
-0.021729559 -0.075001881 0.736 3.4901104e-39
-0.020327644 -0.075001881 0.736 5.0516768e-39
-0.018874289 -0.074798077 0.73399997 6.2455438e-39
-0.017404798 -0.074492365 0.73099995 7.4394081e-39
-0.015946694 -0.074186638 0.72799999 8.2655716e-39
-0.014500038 -0.073880941 0.72499996 9.0920841e-39
-0.013119054 -0.073880941 0.72499996 9.9185951e-39
-0.011705738 -0.073677123 0.72299999 1.0745478e-38
-0.01031433 -0.073575214 0.722 1.1205375e-38
-0.0089390883 -0.073575214 0.722 1.1664205e-38
-0.0075428644 -0.073371425 0.71999997 1.2491453e-38
-0.0061714309 -0.07337141 0.71999997 1.3318333e-38
-0.0047933632 -0.073269516 0.71900004 1.38715e-38
-0.0034143166 -0.073065698 0.71699995 1.4328882e-38
-0.0020457418 -0.072963789 0.71599996 1.4513988e-38
-0.00067905762 -0.072658077 0.713 1.4604396e-38
0.00067713432 -0.072454274 0.71099997 1.4882062e-38
0.0020313985 -0.072454259 0.71099997 1.5063947e-38
0.003385698 -0.072454259 0.71099997 1.5157228e-38
0.0047399825 -0.072454274 0.71099997 1.5156146e-38
0.0060942671 -0.072454259 0.71100003 1.5340887e-38
0.0074380874 -0.072352365 0.71000004 1.5431282e-38
0.0088028302 -0.072454259 0.71099997 1.5524906e-38
0.010114268 -0.072148561 0.70799994 1.5614586e-38
0.011462838 -0.072148547 0.70799994 1.5707855e-38
0.01281141 -0.072148547 0.70799994 1.579826e-38
0.01415998 -0.072148547 0.70799994 1.5891176e-38
0.015508554 -0.072148547 0.70799994 1.5981213e-38
0.016857125 -0.072148561 0.70799994 1.5889731e-38
0.018205695 -0.072148561 0.70799994 1.5705343e-38
0.019554269 -0.072148547 0.70799994 1.5888655e-38
0.020902833 -0.072148532 0.70799989 1.6071974e-38
0.022251405 -0.072148547 0.70799989 1.588831e-38
0.023599975 -0.072148547 0.70799994 1.5612797e-38
0.024948549 -0.072148547 0.70799989 1.5520595e-38
0.026371423 -0.072352365 0.70999998 1.5337293e-38
0.027723782 -0.072352365 0.70999998 1.5520975e-38
0.029076174 -0.07235235 0.70999998 1.5612795e-38
0.030428559 -0.07235235 0.70999998 1.5704615e-38
0.031825699 -0.072454259 0.71099997 1.5704608e-38
0.033179983 -0.072454274 0.71099997 1.5336901e-38
0.034534261 -0.072454259 0.71099997 1.4969577e-38
0.035989515 -0.072658077 0.713 1.4877761e-38
0.037347622 -0.072658092 0.713 1.4694077e-38
0.038759962 -0.072759971 0.71399993 1.4602231e-38
0.040119968 -0.072759971 0.71399999 1.4510398e-38
0.041596174 -0.072963804 0.71599996 1.4418567e-38
0.042959981 -0.072963774 0.71599996 1.4326748e-38
0.044385683 -0.073065668 0.71699995 1.4510796e-38
0.045751423 -0.073065698 0.71699995 1.4604055e-38
0.047248565 -0.073269516 0.71899998 1.4328896e-38
0.048618078 -0.073269501 0.71899998 1.3961188e-38
0.050057158 -0.073371425 0.72000003 1.340945e-38
0.051571395 -0.073575228 0.722 1.2859872e-38
0.053019978 -0.073677108 0.72299999 1.0567214e-38
0.05439711 -0.073677123 0.72299999 8.187389e-39
0.055928562 -0.073880941 0.72499996 7.9172705e-39
0.057309519 -0.073880941 0.72500002 7.6446422e-39
0.058771424 -0.073982835 0.72599995 7.3691442e-39
0.060651422 -0.074594274 0.73199999 7.0032427e-39
0.062384743 -0.075001881 0.736 7.1865606e-39
0.063873328 -0.075103775 0.73699999 7.2794484e-39
-0.029168591 -0.074699983 0.74699998 6.7161909e-39
-0.02767143 -0.07449998 0.745 4.0439918e-39
-0.02618191 -0.074299991 0.74299997 1.4697589e-39
-0.024633348 -0.073899984 0.73899996 3.4022798e-39
-0.023162883 -0.073699951 0.73699999 5.4186852e-39
-0.021611456 -0.073199987 0.73199999 5.4240354e-39
-0.020217162 -0.073199973 0.73199999 5.5104997e-39
-0.018797159 -0.073099971 0.73099995 5.6941791e-39
-0.01735718 -0.072899997 0.72899997 5.9696898e-39
-0.01594671 -0.072799981 0.72799993 5.5105151e-39
-0.014500003 -0.072500005 0.72500002 5.051325e-39
-0.013119068 -0.07249999 0.72499996 5.2349834e-39
-0.011705733 -0.072300002 0.72299999 5.5104913e-39
-0.010314314 -0.072199985 0.722 5.9700275e-39
-0.0089390716 -0.072199985 0.722 6.5206944e-39
-0.0075638285 -0.072199985 0.722 7.2561084e-39
-0.0061714235 -0.071999982 0.72000003 8.0829768e-39
-0.004793365 -0.07189998 0.71899998 8.4506663e-39
-0.0034143119 -0.071699977 0.71699989 8.7251106e-39
-0.0020457427 -0.071599975 0.71599996 8.4506929e-39
-0.00067905575 -0.0713 0.71300006 8.2666744e-39
0.00067903235 -0.071299985 0.713 8.5429082e-39
0.0020371391 -0.07129997 0.71300006 8.9102446e-39
0.0033856868 -0.071099967 0.71099997 9.3697738e-39
0.0047399844 -0.071099982 0.71099997 9.7378458e-39
0.0060942709 -0.071099982 0.71099997 1.0104123e-38
0.0074380836 -0.070999965 0.70999998 1.0378553e-38
0.0087904437 -0.070999965 0.70999998 1.0838448e-38
0.01014284 -0.07099998 0.70999998 1.1388735e-38
0.011511416 -0.071099982 0.71099997 1.184862e-38
0.012811414 -0.070800006 0.70799994 1.2307805e-38
0.014159986 -0.070799977 0.70799994 1.2858825e-38
0.015508558 -0.070799977 0.70799994 1.3409096e-38
0.016857108 -0.070799962 0.70799989 1.3776772e-38
0.018205678 -0.070799962 0.70799989 1.4144125e-38
0.019554252 -0.070799991 0.70799994 1.4419283e-38
0.020902837 -0.070799977 0.70799989 1.4786266e-38
0.022314262 -0.070999965 0.70999998 1.4786266e-38
0.023666644 -0.070999995 0.70999998 1.4786267e-38
0.025019024 -0.07099998 0.70999998 1.4878104e-38
0.026408549 -0.071099982 0.71099997 1.5062158e-38
0.027762838 -0.071099982 0.71099997 1.506254e-38
0.02911712 -0.071099982 0.71099997 1.5062152e-38
0.030471401 -0.071099982 0.71099997 1.5062482e-38
0.031825699 -0.071099967 0.71099997 1.5061757e-38
0.033273332 -0.071299985 0.71300006 1.4878436e-38
0.034631409 -0.071299985 0.713 1.4785893e-38
0.035989519 -0.071299985 0.71300006 1.460295e-38
0.037347604 -0.071299985 0.713 1.4510392e-38
0.038759965 -0.071399972 0.71399999 1.4511464e-38
0.040119976 -0.071399972 0.71399999 1.441892e-38
0.041596178 -0.07159999 0.71599996 1.4419644e-38
0.04301998 -0.071699977 0.71699995 1.4326734e-38
0.044385687 -0.071699992 0.71699989 1.3869709e-38
0.045751415 -0.071699992 0.71699995 1.3504166e-38
0.047248546 -0.07189998 0.71899998 1.2309233e-38
0.048685707 -0.071999997 0.72000003 1.1116784e-38
0.050057143 -0.071999967 0.71999997 1.0931295e-38
0.05157141 -0.072199985 0.722 1.0655085e-38
0.053019967 -0.072299972 0.72299999 9.3769358e-39
0.054397114 -0.072299987 0.72299999 8.0977045e-39
0.055928562 -0.072499976 0.72499996 7.8268685e-39
0.057309519 -0.072500005 0.72499996 7.5549577e-39
0.058933321 -0.072799996 0.72799999 7.2794583e-39
0.060817145 -0.073399991 0.73399997 7.096146e-39
0.062469505 -0.073699966 0.73699999 7.2798156e-39
0.064046651 -0.073899969 0.73899996 7.4631194e-39
-0.024633352 -0.072492361 0.73899996 5.6178027e-39
-0.023162894 -0.072296172 0.73699999 8.834559e-39
-0.021670479 -0.072001889 0.73399997 7.3684225e-39
-0.020272404 -0.072001874 0.73399997 5.88791e-39
-0.018822853 -0.071805701 0.73199999 5.2349932e-39
-0.017404795 -0.071707591 0.73099995 4.505693e-39
-0.015946679 -0.071413308 0.72799999 2.7554418e-39
-0.014500017 -0.07111904 0.72499996 9.2266956e-40
-0.013119082 -0.071119025 0.72499996 6.4320861e-40
-0.011738126 -0.071119055 0.72499996 2.7587363e-40
-0.010328608 -0.070922837 0.72299999 8.2689221e-40
-0.0089390567 -0.070824757 0.722 1.2860697e-39
-0.0075638406 -0.070824727 0.722 2.1125906e-39
-0.0061714356 -0.070628554 0.71999997 2.8476305e-39
-0.0047933678 -0.070530459 0.71899998 3.0309399e-39
-0.0034143222 -0.070334271 0.71699995 3.122781e-39
-0.0020457436 -0.070236176 0.71599996 2.4799367e-39
-0.00067906134 -0.069941893 0.713 1.8385274e-39
0.00067904725 -0.069941893 0.71300006 2.2962742e-39
0.0020371354 -0.069941893 0.713 2.7558076e-39
0.0033952272 -0.069941878 0.71300006 3.5819655e-39
0.0047399714 -0.06974569 0.71099997 4.3173725e-39
0.006094269 -0.06974569 0.71099997 4.8676737e-39
0.0074485554 -0.069745719 0.71099997 5.3272099e-39
0.0087904623 -0.06964761 0.71000004 6.2452061e-39
0.010142838 -0.06964761 0.70999998 7.0720801e-39
0.011462846 -0.069451407 0.70799994 7.9900721e-39
0.012811418 -0.069451407 0.70799994 8.8169531e-39
0.014159967 -0.069451392 0.70799989 9.8267891e-39
0.015508539 -0.069451421 0.70799989 1.0837326e-38
0.01685711 -0.069451407 0.70799989 1.1663474e-38
0.018257126 -0.069647595 0.70999998 1.2490358e-38
0.019554254 -0.069451407 0.70799994 1.2949182e-38
0.020961901 -0.069647625 0.70999998 1.3408359e-38
0.022314264 -0.06964761 0.70999998 1.3683866e-38
0.023699973 -0.06974569 0.71099997 1.3867903e-38
0.025054261 -0.069745705 0.71099997 1.4327447e-38
0.026408557 -0.06974569 0.71099997 1.4695163e-38
0.027762823 -0.06974569 0.71099997 1.4605136e-38
0.029117122 -0.069745719 0.71099997 1.442037e-38
0.030557133 -0.069941893 0.713 1.4421427e-38
0.031915244 -0.069941863 0.71300006 1.4419983e-38
0.033273313 -0.069941893 0.713 1.4513244e-38
0.034631424 -0.069941893 0.71300006 1.4511824e-38
0.036039978 -0.070039973 0.71399999 1.4421439e-38
0.037399974 -0.070039973 0.71399993 1.4328516e-38
0.038868539 -0.070236176 0.71599996 1.4329942e-38
0.040232375 -0.070236161 0.71599996 1.4329944e-38
0.041654263 -0.070334271 0.71699995 1.4329949e-38
0.043019969 -0.070334271 0.71699995 1.4329588e-38
0.0445095 -0.070530474 0.71899998 1.3320473e-38
0.045879036 -0.070530459 0.71900004 1.2309926e-38
0.047248565 -0.070530489 0.71899998 1.0286678e-38
0.048685696 -0.070628569 0.71999997 8.267738e-39
0.050196171 -0.070824742 0.722 8.3602966e-39
0.051571414 -0.070824727 0.722 8.4568026e-39
0.053019971 -0.070922822 0.72299999 8.1881204e-39
0.054397117 -0.070922852 0.72299999 7.9162013e-39
0.055928547 -0.07111904 0.72499996 7.6449996e-39
0.057309505 -0.07111904 0.72499996 7.3712924e-39
0.05877142 -0.071217135 0.72599995 7.2808988e-39
0.061065696 -0.072296172 0.73699999 7.1883514e-39
0.062639043 -0.072492376 0.73899996 7.4652985e-39
-0.024633354 -0.071084738 0.73899996 6.5411701e-39
-0.023162873 -0.070892364 0.73699999 9.6786802e-39
-0.021670487 -0.070603788 0.73400003 8.3847689e-39
-0.020272382 -0.070603788 0.73399997 6.9985694e-39
-0.01882286 -0.070411444 0.73199999 8.6490397e-39
-0.017404791 -0.070315212 0.73099995 1.0307105e-38
-0.015946694 -0.070026666 0.72799993 9.023206e-39
-0.014520008 -0.069834277 0.72599995 7.7296128e-39
-0.013119048 -0.06973809 0.72499996 3.95395e-39
-0.011738112 -0.069738075 0.72499996 2.7587923e-40
-0.010328601 -0.069545701 0.72299999 7.3506793e-40
-0.0089390678 -0.069449514 0.722 1.1942342e-39
-0.0075638453 -0.069449499 0.722 1.5615636e-39
-0.0061714272 -0.06925714 0.72000003 1.9289112e-39
-0.0047933492 -0.069160953 0.71899998 5.8843003e-39
-0.003414297 -0.068968564 0.71699995 9.9186021e-39
-0.0020457418 -0.068872362 0.71599996 1.076413e-38
-0.00068003178 -0.068679973 0.71399993 1.1668134e-38
0.00067902863 -0.068583786 0.713 1.1956911e-38
0.0020371373 -0.068583786 0.71300006 1.2306318e-38
0.0033952254 -0.068583801 0.713 1.1220435e-38
0.0047399937 -0.068391427 0.71100003 1.0010431e-38
0.0060942578 -0.068391398 0.71099997 7.7145418e-39
0.0074485554 -0.068391398 0.71099997 5.3268189e-39
0.0088028396 -0.068391412 0.71099997 5.8778319e-39
0.010142834 -0.068295211 0.70999992 6.4288449e-39
0.011495215 -0.068295226 0.70999998 8.0818838e-39
0.012847596 -0.068295226 0.70999998 9.7349227e-39
0.014159973 -0.068102822 0.70799989 9.7381513e-39
0.015552371 -0.068295211 0.71000004 9.6430872e-39
0.01690473 -0.068295211 0.70999998 9.7349227e-39
0.018257122 -0.068295226 0.70999998 9.8267596e-39
0.019609505 -0.068295226 0.70999998 1.0010431e-38
0.0209914 -0.068391398 0.71099997 1.0194102e-38
0.022345699 -0.068391412 0.71099997 9.4594162e-39
0.023699965 -0.068391412 0.71099997 8.8165832e-39
0.025054261 -0.068391412 0.71099997 8.8169559e-39
0.026408549 -0.068391412 0.71099997 8.9084383e-39
0.027762845 -0.068391398 0.71100003 9.8314624e-39
0.029199043 -0.068583816 0.713 1.0745504e-38
0.03055715 -0.068583801 0.71300006 9.551993e-39
0.031915225 -0.068583786 0.713 8.3574043e-39
0.033319961 -0.068679973 0.71399993 8.2662751e-39
0.034679975 -0.068679973 0.71399999 8.1737431e-39
0.036140952 -0.068872362 0.71599996 8.8176874e-39
0.037504751 -0.068872362 0.71599996 9.4605205e-39
0.038868539 -0.068872347 0.71599996 9.4630148e-39
0.040288545 -0.068968564 0.71699995 9.4651658e-39
0.041654266 -0.068968549 0.71699995 9.1871467e-39
0.043019973 -0.068968564 0.71699995 9.0041904e-39
0.044509519 -0.069160953 0.71899998 7.9932783e-39
0.045879036 -0.069160953 0.71899998 6.9852416e-39
0.04724855 -0.069160953 0.71899998 5.6037645e-39
0.048685707 -0.06925711 0.72000003 4.2248322e-39
0.050057136 -0.06925714 0.71999997 5.1471668e-39
0.051571395 -0.069449514 0.722 6.0730566e-39
0.053019982 -0.069545686 0.72299999 6.8116866e-39
0.054397129 -0.069545701 0.72299999 7.4588329e-39
0.055928569 -0.06973809 0.72500002 7.3702176e-39
0.057309505 -0.069738075 0.72499996 7.2798226e-39
0.058690473 -0.06973809 0.72499996 7.1879913e-39
0.061314259 -0.071180925 0.73999995 7.0950922e-39
0.062723808 -0.071180925 0.73999995 7.2794919e-39
0.064306654 -0.071373314 0.74199998 7.3712994e-39
-0.024633355 -0.069677129 0.73899996 7.462039e-39
-0.023162883 -0.06948854 0.73699999 1.0498032e-38
-0.021729548 -0.069394276 0.736 9.3099523e-39
-0.020272382 -0.069205701 0.73399997 8.1013464e-39
-0.018874304 -0.069205701 0.73399997 1.2147812e-38
-0.017428573 -0.069017127 0.73199999 1.6111824e-38
-0.015968589 -0.068734273 0.72899997 1.5300393e-38
-0.014519984 -0.068451419 0.72599995 1.4448721e-38
-0.013119061 -0.068357125 0.72499996 7.3508026e-39
-0.011738126 -0.06835711 0.72499996 1.8512834e-40
-0.010328596 -0.068168566 0.72299999 6.4323523e-40
-0.0089390734 -0.068074286 0.722 1.1052686e-39
-0.0075638294 -0.068074256 0.722 1.0105506e-39
-0.0061714402 -0.067885697 0.71999997 9.2523394e-40
-0.0047933529 -0.067791417 0.71899998 8.8425198e-39
-0.0034142933 -0.067602828 0.71699995 1.6756899e-38
-0.0020457287 -0.067508548 0.71599996 1.9172989e-38
-0.00068002433 -0.067319989 0.71399999 2.1455923e-38
0.00067904539 -0.067225695 0.71300006 2.1740358e-38
0.0020371336 -0.06722568 0.713 2.1912574e-38
0.0033952272 -0.067225695 0.713 1.8891353e-38
0.0047399807 -0.06703712 0.71099997 1.5732647e-38
0.0060942597 -0.067037135 0.71099997 1.0561453e-38
0.0074485443 -0.06703712 0.71099997 5.3354635e-39
0.0088028414 -0.06703712 0.71099997 5.5105488e-39
0.010142851 -0.066942856 0.71000004 5.7064026e-39
0.011495211 -0.066942856 0.70999998 8.1737501e-39
0.012847592 -0.066942826 0.70999998 1.0672334e-38
0.014159975 -0.066754237 0.70799994 9.5638634e-39
0.015508545 -0.066754267 0.70799994 8.4643206e-39
0.016904742 -0.066942841 0.70999992 7.8063773e-39
0.018257124 -0.066942841 0.70999998 7.1746706e-39
0.019609502 -0.066942841 0.70999998 7.071734e-39
0.020991402 -0.067037135 0.71099997 6.9935107e-39
0.022345684 -0.067037106 0.71099997 5.3268189e-39
0.023699986 -0.067037135 0.71099997 3.6798854e-39
0.025054265 -0.067037135 0.71099997 3.3982889e-39
0.026408546 -0.06703712 0.71099997 3.1350228e-39
0.027762834 -0.067037135 0.71099997 5.0668416e-39
0.029199056 -0.067225695 0.71300006 6.9939059e-39
0.030557131 -0.06722568 0.713 4.683983e-39
0.03191524 -0.06722571 0.71300006 2.2962545e-39
0.033319965 -0.067319974 0.71399999 2.0207425e-39
0.034777131 -0.067508548 0.71599996 1.7452486e-39
0.036039971 -0.067319974 0.71399999 3.2146291e-39
0.037504751 -0.067508563 0.71599996 4.5957377e-39
0.038868554 -0.067508563 0.71599996 4.5968041e-39
0.040232357 -0.067508534 0.71599996 4.5035406e-39
0.041654259 -0.067602828 0.71699995 4.0411402e-39
0.043019976 -0.067602843 0.71699989 3.5837508e-39
0.0445095 -0.067791417 0.71899998 2.571761e-39
0.045879014 -0.067791417 0.71899998 1.5637328e-39
0.047248546 -0.067791417 0.71899998 9.1874172e-40
0.048685707 -0.067885682 0.71999997 1.8442069e-40
0.050196156 -0.068074271 0.722 1.9296595e-39
0.051571399 -0.068074256 0.722 3.6824358e-39
0.053019986 -0.068168551 0.72299999 5.3433753e-39
0.054397117 -0.068168566 0.72299999 7.0014364e-39
0.055928566 -0.06835714 0.72499996 7.0968593e-39
0.057309501 -0.068357125 0.72499996 7.0965047e-39
0.058690459 -0.06835714 0.72499996 7.0954327e-39
0.061314285 -0.069771409 0.74000001 7.0032441e-39
0.062723793 -0.069771409 0.73999995 7.0940104e-39
-0.024566684 -0.068084747 0.73699999 6.0812794e-39
-0.023131434 -0.067992344 0.736 7.5521299e-39
-0.021670466 -0.067807615 0.73400003 5.8919626e-39
-0.020272389 -0.0678076 0.73400003 4.2249177e-39
-0.018822877 -0.067622855 0.73199999 9.8559234e-39
-0.017428581 -0.067622855 0.73199999 1.5488417e-38
-0.015968615 -0.067345679 0.72899997 1.5579213e-38
-0.014520008 -0.067068547 0.72599995 1.5658419e-38
-0.013137167 -0.067068562 0.72599995 1.0214579e-38
-0.01173812 -0.066976175 0.72500002 4.6847173e-39
-0.01032859 -0.066791415 0.72299999 5.2497195e-39
-0.0089390846 -0.066699043 0.722 5.8893253e-39
-0.0075638406 -0.066699028 0.722 3.4011434e-39
-0.0061714319 -0.066514283 0.72000003 9.188328e-40
-0.0047999988 -0.066514269 0.72000003 8.0225696e-39
-0.0034238189 -0.066421896 0.71900004 1.5134136e-38
-0.0020485832 -0.066237137 0.71699995 1.7154571e-38
-0.00068001874 -0.065959975 0.71399999 1.9191019e-38
0.00067902677 -0.065867588 0.713 1.8901445e-38
0.0020371336 -0.065867603 0.71300006 1.8732171e-38
0.0033952422 -0.065867618 0.71300006 1.6774256e-38
0.0047533303 -0.065867603 0.713 1.4926294e-38
0.0060942671 -0.065682828 0.71099997 1.1602865e-38
0.0074485443 -0.065682843 0.71099997 8.3004219e-39
0.0088028302 -0.065682828 0.71099997 8.6602767e-39
0.010157128 -0.065682828 0.71099997 9.0483972e-39
0.011511412 -0.065682843 0.71100003 1.2904743e-38
0.012847588 -0.065590441 0.70999998 1.6777643e-38
0.014199984 -0.065590471 0.70999998 1.6398488e-38
0.015552363 -0.065590441 0.70999998 1.593531e-38
0.016928539 -0.065682828 0.71099997 1.5657236e-38
0.01828284 -0.065682843 0.71099997 1.5289217e-38
0.019637123 -0.065682843 0.71099997 1.5291768e-38
0.020991424 -0.065682843 0.71100003 1.5207426e-38
0.022408556 -0.065867588 0.713 1.3264491e-38
0.023699973 -0.065682828 0.71099997 1.1411638e-38
0.025054272 -0.065682843 0.71099997 1.0860266e-38
0.026408549 -0.065682843 0.71099997 1.0319022e-38
0.027762834 -0.065682843 0.71099997 1.1515477e-38
0.029117119 -0.065682843 0.71099997 1.2805396e-38
0.030557148 -0.065867603 0.71300006 1.0495794e-38
0.031915233 -0.065867588 0.713 8.2655548e-39
0.033319987 -0.065959975 0.71399999 7.8982128e-39
0.034679964 -0.06595999 0.71399993 7.6227105e-39
0.03614093 -0.066144735 0.71599996 1.0492215e-38
0.037504751 -0.06614475 0.71599996 1.332548e-38
0.038868554 -0.066144735 0.71599996 1.0301002e-38
0.040288553 -0.066237122 0.71699995 7.1656952e-39
0.041654259 -0.066237137 0.71699995 6.712989e-39
0.043139972 -0.066421896 0.71899998 6.1558691e-39
0.0445095 -0.066421881 0.71899998 6.0708411e-39
0.045879036 -0.066421911 0.71900004 5.8807312e-39
0.047314283 -0.066514269 0.72000003 3.3097142e-39
0.048685715 -0.066514283 0.72000003 7.3506793e-40
0.050196156 -0.066699043 0.722 2.2980412e-39
0.051571399 -0.066699013 0.722 3.8632089e-39
0.053019978 -0.0667914 0.72299999 5.6202971e-39
0.054547597 -0.06697616 0.72499996 7.2801589e-39
0.056005713 -0.067068562 0.72599995 7.2801659e-39
0.057546653 -0.067253292 0.72799999 7.1886934e-39
0.059176181 -0.067530453 0.73099995 7.1883374e-39
0.060568556 -0.067530468 0.73099995 7.0957859e-39
-0.024566693 -0.066680923 0.73699999 4.7952293e-39
-0.023131453 -0.066590458 0.73599994 4.6054683e-39
-0.021670494 -0.066409498 0.73399997 2.4799886e-39
-0.020272389 -0.066409498 0.73399997 2.8386804e-40
-0.018822884 -0.066228583 0.73199999 7.5625864e-39
-0.017428588 -0.066228554 0.73199999 1.4841642e-38
-0.016012402 -0.066138074 0.73099995 1.5869068e-38
-0.014520004 -0.065685719 0.72599995 1.6859829e-38
-0.013119061 -0.065595224 0.72499996 1.3072992e-38
-0.011705731 -0.06541428 0.72299999 9.2152021e-39
-0.010328605 -0.06541425 0.72299993 9.9646124e-39
-0.0089390678 -0.065323785 0.722 1.0581582e-38
-0.007542877 -0.06514284 0.71999997 5.7859978e-39
-0.006171444 -0.065142855 0.72000003 9.2667867e-40
-0.0047933501 -0.065052375 0.71899998 7.1945228e-39
-0.0034238365 -0.06505236 0.71899998 1.3455898e-38
-0.0020543071 -0.06505236 0.71899998 1.5119399e-38
-0.00068192888 -0.064780921 0.71599996 1.6774538e-38
0.00067997671 -0.064599961 0.71399999 1.6125539e-38
0.0020371298 -0.064509496 0.713 1.5473728e-38
0.0033952366 -0.064509511 0.713 1.47308e-38
0.0047533321 -0.064509526 0.71300006 1.4002196e-38
0.0061114202 -0.064509511 0.713 1.2623928e-38
0.0074485517 -0.064328551 0.71099997 1.1150252e-38
0.0088028302 -0.064328566 0.71099997 1.178162e-38
0.010157115 -0.064328551 0.71099997 1.2353449e-38
0.011511414 -0.064328551 0.71099997 1.7619292e-38
0.012865699 -0.064328566 0.71099997 2.2847116e-38
0.014199982 -0.064238071 0.70999998 2.3132684e-38
0.015574262 -0.064328566 0.71099997 2.3398496e-38
0.016928561 -0.064328551 0.71099997 2.3413915e-38
0.018257119 -0.064238086 0.70999998 2.3404245e-38
0.019637125 -0.064328566 0.71099997 2.3414662e-38
0.020991411 -0.064328566 0.71099997 2.3404938e-38
0.022408571 -0.064509496 0.71300006 2.1295196e-38
0.023766657 -0.064509511 0.713 1.9058836e-38
0.025124753 -0.064509511 0.71300006 1.8311934e-38
0.026482858 -0.064509511 0.71300006 1.749728e-38
0.027762838 -0.064328551 0.71099997 1.805406e-38
0.029199054 -0.064509511 0.71300006 1.8515715e-38
0.03055713 -0.064509511 0.713 1.6411357e-38
0.031915236 -0.064509511 0.71300006 1.4255701e-38
0.033273324 -0.064509496 0.713 1.386752e-38
0.034679968 -0.064599976 0.71399999 1.3442147e-38
0.03614093 -0.064780921 0.71599996 1.7806213e-38
0.037504751 -0.064780951 0.71599996 2.2096961e-38
0.038868554 -0.064780936 0.71599996 1.6023572e-38
0.040232353 -0.064780921 0.71599996 9.8558912e-39
0.041654266 -0.064871401 0.71699995 9.3059614e-39
0.04313999 -0.06505236 0.71899998 8.7488486e-39
0.044509504 -0.06505236 0.71899998 9.4907058e-39
0.045879029 -0.065052375 0.71899998 1.0213882e-38
0.047314268 -0.065142825 0.71999997 5.7964235e-39
0.0486857 -0.06514284 0.71999997 1.2907374e-39
0.050196175 -0.0653238 0.722 2.6635993e-39
0.051571418 -0.065323785 0.722 4.0529938e-39
0.053019982 -0.065414265 0.72299999 5.810449e-39
0.0545476 -0.065595224 0.72499996 7.556757e-39
0.056159984 -0.065866664 0.72799999 7.4631264e-39
0.057546634 -0.065866649 0.72799993 7.2801701e-39
0.059176181 -0.066138059 0.73099995 7.2812449e-39
0.060568541 -0.066138074 0.73099995 7.1890577e-39
0.061960932 -0.066138059 0.73099995 7.6496785e-39
-0.024566676 -0.065277115 0.73699999 4.5147048e-39
-0.023131453 -0.065188527 0.736 4.4203301e-39
-0.02172954 -0.065188557 0.736 2.3913116e-39
-0.020272389 -0.065011412 0.73399997 2.7596051e-40
-0.018874284 -0.065011412 0.73399997 6.8229194e-39
-0.017476207 -0.065011397 0.73399997 1.3467357e-38
-0.016034281 -0.064834297 0.73199999 1.540379e-38
-0.014560021 -0.064479977 0.72799993 1.7420545e-38
-0.013173351 -0.064479992 0.72799999 1.4652883e-38
-0.011705725 -0.064037144 0.72299999 1.1892834e-38
-0.010328597 -0.064037129 0.72299993 1.0045041e-38
-0.0089390809 -0.063948557 0.722 8.1967664e-39
-0.0075428435 -0.063771427 0.72000003 4.3227283e-39
-0.0061628674 -0.063682824 0.71899998 5.521172e-40
-0.0047933538 -0.063682854 0.71899998 5.3419361e-39
-0.0034238393 -0.063682839 0.71899998 1.0222196e-38
-0.0020485907 -0.063505679 0.71699995 1.3084228e-38
-0.00068192795 -0.063417122 0.71599996 1.6019347e-38
0.00067903608 -0.063151404 0.713 1.4084674e-38
0.0020371298 -0.063151404 0.71300006 1.2214568e-38
0.0033952384 -0.063151419 0.71300006 1.3345618e-38
0.0047533247 -0.063151419 0.713 1.4554282e-38
0.0061114333 -0.063151404 0.71300006 1.3913321e-38
0.0074695083 -0.063151419 0.713 1.336441e-38
0.0088028396 -0.062974259 0.71099997 9.7623265e-39
0.010157117 -0.062974274 0.71099997 6.2801601e-39
0.011511401 -0.062974259 0.71099997 1.0610467e-38
0.012865701 -0.062974259 0.71099997 1.5032211e-38
0.014219985 -0.062974289 0.71099997 1.6040614e-38
0.01555236 -0.062885702 0.70999998 1.7152367e-38
0.016904753 -0.062885687 0.70999998 1.8350932e-38
0.018257136 -0.062885702 0.71000004 1.9651686e-38
0.019637112 -0.062974244 0.71099997 1.9829965e-38
0.021050479 -0.063151419 0.71300006 2.0018265e-38
0.022408552 -0.063151404 0.713 1.6782463e-38
0.023766659 -0.063151404 0.71300006 1.3645664e-38
0.02512477 -0.063151419 0.71300006 1.418623e-38
0.026482854 -0.063151419 0.713 1.4854881e-38
0.02784095 -0.063151419 0.71300006 1.5952932e-38
0.029199036 -0.063151404 0.713 1.7057844e-38
0.030557144 -0.063151404 0.71300006 1.3354663e-38
0.031959988 -0.063239992 0.71399999 9.6618072e-39
0.033319976 -0.063239977 0.71399999 1.2140582e-38
0.034777127 -0.063417137 0.71599996 1.4746939e-38
0.03614093 -0.063417122 0.71599996 1.8446351e-38
0.037504751 -0.063417122 0.71599996 2.2222273e-38
0.03886855 -0.063417122 0.71599996 1.6866662e-38
0.040288549 -0.063505694 0.71699995 1.1519396e-38
0.041770458 -0.063682839 0.71899998 1.0041776e-38
0.043139976 -0.063682824 0.71899998 8.5738489e-39
0.044571422 -0.063771427 0.72000003 9.4918507e-39
0.046070445 -0.063948557 0.722 1.0503402e-38
0.047445688 -0.063948542 0.722 8.0108548e-39
0.048888549 -0.064037129 0.72299999 5.5183918e-39
0.050265692 -0.064037114 0.72299999 6.2552366e-39
0.051785693 -0.064214289 0.72499996 6.9052919e-39
0.053166647 -0.064214274 0.72499996 7.4660215e-39
0.05477332 -0.064479992 0.72799999 8.0202533e-39
0.056391429 -0.064745679 0.73099995 7.4649257e-39
0.057783794 -0.064745694 0.73099995 6.8199178e-39
0.059176184 -0.064745665 0.73099995 7.0042979e-39
-0.024566684 -0.063873306 0.73699999 4.1455551e-39
-0.023131453 -0.063786626 0.736 4.2330774e-39
-0.021729538 -0.063786656 0.736 2.2969916e-39
-0.020272369 -0.06361334 0.73399997 2.8023167e-40
-0.018874291 -0.063613325 0.73399997 6.1692179e-39
-0.017476186 -0.06361331 0.73399997 1.1983952e-38
-0.016034288 -0.063439995 0.73199999 1.4950351e-38
-0.014620008 -0.0633533 0.73099995 1.7881513e-38
-0.01311907 -0.062833339 0.72500002 1.6224486e-38
-0.011738106 -0.062833339 0.72499996 1.4549203e-38
-0.010328592 -0.062659979 0.72299999 1.0125669e-38
-0.0089390846 -0.062573299 0.722 5.705688e-39
-0.0075428537 -0.062399998 0.71999997 2.9391044e-39
-0.0061628767 -0.062313333 0.71900004 9.292991e-41
-0.0047933473 -0.062313318 0.71900004 3.4912104e-39
-0.0034143082 -0.062139988 0.71699995 6.9089269e-39
-0.0020486009 -0.062139973 0.71699995 1.115926e-38
-0.00068192795 -0.062053308 0.71599996 1.5287176e-38
0.00067903794 -0.061793312 0.71300006 1.2162239e-38
0.0020371466 -0.061793327 0.71300006 8.9357734e-39
0.0033952347 -0.061793327 0.713 1.1974569e-38
0.0047533284 -0.061793312 0.71300006 1.5012394e-38
0.0061114146 -0.061793298 0.713 1.5293718e-38
0.0074695232 -0.061793327 0.71300006 1.5555876e-38
0.0088276109 -0.061793327 0.713 7.8071803e-39
0.010157126 -0.061619997 0.71100003 1.0593676e-40
0.011511403 -0.061619982 0.71099997 3.6929259e-39
0.012865688 -0.061619982 0.71099997 7.1912886e-39
0.014219987 -0.061619967 0.71099997 9.0287187e-39
0.015552356 -0.061533302 0.70999998 1.0782976e-38
0.016904751 -0.061533302 0.70999998 1.3277297e-38
0.018257132 -0.061533317 0.70999998 1.5758663e-38
0.01960949 -0.061533317 0.70999998 1.6234717e-38
0.0209914 -0.061619982 0.71099997 1.6583728e-38
0.022345698 -0.061619982 0.71099997 1.2353521e-38
0.023766655 -0.061793312 0.713 8.1107435e-39
0.025124762 -0.061793312 0.713 1.0116009e-38
0.026482856 -0.061793298 0.71300006 1.2078302e-38
0.027762845 -0.061619982 0.71099997 1.3844368e-38
0.029199053 -0.061793327 0.71300006 1.555583e-38
0.030557126 -0.061793312 0.713 1.0287436e-38
0.031915233 -0.061793327 0.71300006 4.9649364e-39
0.03331998 -0.061879963 0.71399999 1.0470415e-38
0.034679975 -0.061879978 0.71399993 1.5940487e-38
0.036039975 -0.061879978 0.71399999 1.9101401e-38
0.037504748 -0.062053323 0.71599996 2.2215467e-38
0.03886855 -0.062053308 0.71599996 1.770073e-38
0.040288549 -0.062139988 0.71699995 1.3175304e-38
0.041654255 -0.062139973 0.71699989 1.0767477e-38
0.043139972 -0.062313318 0.71899998 8.2947382e-39
0.044571411 -0.062399983 0.71999997 9.5833106e-39
0.046070449 -0.062573329 0.722 1.0777853e-38
0.047511391 -0.062659979 0.72299999 1.0317564e-38
0.048888542 -0.062659979 0.72299999 9.7565013e-39
0.050404757 -0.062833324 0.72499996 9.7500385e-39
0.05185714 -0.062920004 0.72599995 9.7597523e-39
0.053240016 -0.062920004 0.72600001 9.1276939e-39
0.054848544 -0.063179985 0.72899997 8.4801496e-39
0.056391433 -0.0633533 0.73099995 7.4641886e-39
0.058179021 -0.063786656 0.73599994 6.3603606e-39
0.059580933 -0.063786641 0.736 6.8198884e-39
0.060982831 -0.063786626 0.736 7.1876059e-39
-0.024566686 -0.062469497 0.73699999 3.9600765e-39
-0.023131453 -0.062384754 0.736 4.2320082e-39
-0.021729559 -0.06238474 0.73599994 2.2066163e-39
-0.020272397 -0.062215224 0.73399997 1.8405915e-40
-0.018874291 -0.062215224 0.73399997 4.1447998e-39
-0.017476188 -0.062215224 0.73399997 8.1135419e-39
-0.016078111 -0.062215209 0.73399997 1.2267031e-38
-0.014680007 -0.062215224 0.73399997 1.640999e-38
-0.013119056 -0.061452374 0.72499996 1.4559246e-38
-0.011738121 -0.061452374 0.72499996 1.2789933e-38
-0.010328614 -0.061282858 0.72299999 7.910051e-39
-0.0089143002 -0.061028555 0.71999997 3.0309385e-39
-0.0075428463 -0.06102857 0.72000003 1.8374428e-39
-0.0061628805 -0.060943797 0.71900004 6.4393308e-40
-0.0047933511 -0.060943782 0.71899998 2.0232522e-39
-0.0034238356 -0.060943782 0.71899998 3.4977222e-39
-0.0020485991 -0.060774267 0.71699995 6.9132934e-39
-0.00068003737 -0.060519964 0.71399993 1.0420254e-38
0.0006790547 -0.060435221 0.71300006 9.8667219e-39
0.002037141 -0.060435221 0.713 9.3099495e-39
0.0033952347 -0.060435221 0.71300006 1.0499128e-38
0.0047533228 -0.060435221 0.713 1.1798878e-38
0.0061114314 -0.060435221 0.71300006 1.2255965e-38
0.0074695027 -0.060435221 0.713 1.2716837e-38
0.0088276109 -0.060435236 0.71300006 6.6251009e-39
0.010157124 -0.060265705 0.71099997 6.4323803e-40
0.011511411 -0.060265705 0.71100003 2.3023754e-39
0.012865688 -0.060265705 0.71099997 3.9493159e-39
0.014219972 -0.06026569 0.71099997 4.6911731e-39
0.015552352 -0.060180932 0.70999998 5.4187525e-39
0.016928539 -0.060265705 0.71099997 6.7185101e-39
0.018257128 -0.060180932 0.70999998 7.9012901e-39
0.019637119 -0.060265705 0.71099997 8.101502e-39
0.020991422 -0.060265705 0.71100003 8.3604731e-39
0.022345684 -0.06026569 0.71099997 6.2579075e-39
0.023766655 -0.060435221 0.71300006 4.1330808e-39
0.025124766 -0.060435236 0.71300006 7.2694236e-39
0.026482852 -0.060435206 0.713 1.0415587e-38
0.027840957 -0.060435221 0.71300006 1.0688303e-38
0.029199034 -0.060435221 0.713 1.1022887e-38
0.030557143 -0.060435221 0.71300006 7.0727695e-39
0.031915229 -0.060435236 0.713 3.1228581e-39
0.033273324 -0.060435221 0.71300006 9.6669457e-39
0.034679968 -0.060519964 0.71399999 1.632115e-38
0.036039963 -0.060519993 0.71399993 1.8538552e-38
0.037504729 -0.060689509 0.7159999 2.0745749e-38
0.038868554 -0.060689509 0.71599996 1.6682303e-38
0.040232353 -0.060689509 0.71599996 1.2712898e-38
0.041654281 -0.060774267 0.71699995 1.0500205e-38
0.04313999 -0.060943812 0.71899998 8.2947228e-39
0.044571433 -0.061028555 0.72000003 1.0225782e-38
0.046070464 -0.061198071 0.722 1.2063571e-38
0.047511399 -0.061282843 0.72299999 1.1698026e-38
0.048888545 -0.061282858 0.72299999 1.1419271e-38
0.050404742 -0.061452374 0.72499996 1.0495157e-38
0.051785696 -0.061452374 0.72500002 9.6747594e-39
0.053240001 -0.061537132 0.72599995 9.0333697e-39
0.054999024 -0.061960936 0.73099995 8.3904693e-39
0.05677712 -0.06238474 0.736 7.5570807e-39
0.058179032 -0.062384725 0.736 6.8173661e-39
0.059580933 -0.06238474 0.736 7.0035384e-39
0.060982849 -0.06238474 0.736 7.2801407e-39
-0.024566695 -0.061065674 0.73699999 3.8729269e-39
-0.023131445 -0.060982838 0.73599994 4.1437615e-39
-0.021729559 -0.060982838 0.736 2.1136864e-39
-0.020272376 -0.060817122 0.73400003 9.2580987e-41
-0.018874271 -0.060817122 0.73400003 2.1125976e-39
-0.017476194 -0.060817137 0.73400003 4.1524033e-39
-0.01607809 -0.060817137 0.73400003 9.5018742e-39
-0.014500026 -0.060071394 0.72499996 1.4831905e-38
-0.013119071 -0.060071409 0.72499996 1.2903703e-38
-0.011738114 -0.060071424 0.72500002 1.0947127e-38
-0.010328609 -0.059905693 0.72299999 5.6023254e-39
-0.0089390809 -0.059822842 0.722 2.7587083e-40
-0.0075428574 -0.059657112 0.72000003 7.3540984e-40
-0.0061628823 -0.059574261 0.71899998 1.1031092e-39
-0.0047933548 -0.059574261 0.71899998 6.4392887e-40
-0.0034143138 -0.05940856 0.71699995 9.546626e-41
-0.0020485944 -0.05940856 0.71699995 2.7594524e-39
-0.00068003178 -0.059159964 0.71399999 5.4445882e-39
0.00067903608 -0.059077144 0.713 7.5736889e-39
0.0020371447 -0.059077144 0.71300006 9.6679309e-39
0.003395231 -0.059077114 0.713 9.096791e-39
0.0047533396 -0.059077129 0.71300006 8.4712009e-39
0.0061114128 -0.059077114 0.713 9.214175e-39
0.0074695214 -0.059077144 0.71300006 9.8505172e-39
0.0088276071 -0.059077129 0.713 5.5173395e-39
0.010185701 -0.059077129 0.71300006 1.1070804e-39
0.011511412 -0.058911428 0.71099997 9.2412551e-40
0.012865677 -0.058911413 0.71099997 7.3685878e-40
0.014219976 -0.058911413 0.71099997 4.5955163e-40
0.015574261 -0.058911413 0.71099997 9.2244675e-41
0.016904743 -0.058828548 0.70999998 9.2279708e-41
0.018282825 -0.058911413 0.71099997 9.3016791e-41
0.019637123 -0.058911428 0.71099997 9.2318944e-41
0.020991409 -0.058911413 0.71099997 9.3020995e-41
0.022345684 -0.058911413 0.71099997 1.8412221e-40
0.023766672 -0.059077129 0.71300006 1.8517038e-40
0.025124758 -0.059077144 0.713 4.412445e-39
0.026482869 -0.059077129 0.71300006 8.653423e-39
0.027840942 -0.059077129 0.713 7.6540379e-39
0.029199049 -0.059077129 0.71300006 6.5290013e-39
0.030557135 -0.059077114 0.713 3.9493061e-39
0.031915229 -0.059077144 0.71300006 1.293313e-39
0.033273317 -0.059077129 0.713 8.9368875e-39
0.034631424 -0.059077129 0.713 1.658621e-38
0.036039963 -0.059159979 0.71399999 1.7984979e-38
0.037399977 -0.059159994 0.71399999 1.9256585e-38
0.038868561 -0.059325695 0.71599996 1.5753102e-38
0.040288545 -0.059408545 0.71699995 1.2156465e-38
0.04165427 -0.05940856 0.71700001 1.0225062e-38
0.043139987 -0.059574276 0.71899998 8.2961577e-39
0.044571422 -0.059657142 0.71999997 1.0868988e-38
0.046070449 -0.059822842 0.722 1.3352858e-38
0.047511403 -0.059905693 0.72299999 1.3175651e-38
0.048888549 -0.059905693 0.72299999 1.2981535e-38
0.050404739 -0.060071409 0.72499996 1.1320203e-38
0.051857151 -0.060154274 0.72600001 9.5800204e-39
0.053239994 -0.060154274 0.72599995 8.9404299e-39
0.054848544 -0.06040284 0.72899997 8.2032026e-39
0.056468565 -0.060651422 0.73199999 7.7396895e-39
0.057783801 -0.060568556 0.73099995 7.1875891e-39
0.059419047 -0.060817122 0.73399997 7.2797721e-39
0.060817141 -0.060817122 0.73399997 7.3719748e-39
-0.023131443 -0.059580922 0.736 5.1618454e-39
-0.021670481 -0.059419036 0.73399997 3.6809686e-39
-0.020272376 -0.059419021 0.73399997 2.2044387e-39
-0.018874299 -0.059419021 0.73399997 3.6781226e-39
-0.017476194 -0.059419021 0.73399997 5.1471528e-39
-0.016034313 -0.059257135 0.73199999 7.918739e-39
-0.01450004 -0.058690459 0.72499996 1.0685296e-38
-0.013119056 -0.058690459 0.72499996 9.2970128e-39
-0.0117381 -0.058690459 0.72499996 7.9011345e-39
-0.010328603 -0.058528572 0.72299999 4.0418394e-39
-0.0089390641 -0.058447614 0.722 2.7586662e-40
-0.0075324136 -0.05820474 0.71899998 4.6025508e-40
-0.0061628637 -0.05820474 0.71900004 6.4464634e-40
-0.0047933483 -0.058204755 0.71900004 6.4393168e-40
-0.0034143119 -0.058042854 0.71699995 6.4321281e-40
-0.0020457306 -0.057961896 0.71599996 2.1172415e-39
-0.00068192981 -0.057961881 0.71599996 3.5959925e-39
0.00067996554 -0.05779998 0.71399999 6.2664526e-39
0.0020371391 -0.057719037 0.713 9.0178741e-39
0.0033952347 -0.057719037 0.71300006 9.38193e-39
0.0047533209 -0.057719022 0.713 9.7439079e-39
0.0061199754 -0.05779995 0.71399999 9.3844734e-39
0.0074799745 -0.057799995 0.71399999 9.107176e-39
0.0088276109 -0.057719037 0.71300006 5.1503604e-39
0.010185697 -0.057719037 0.713 1.1999949e-39
0.011543806 -0.057719037 0.713 1.0152421e-39
0.012865697 -0.057557136 0.71099997 9.208815e-40
0.014219961 -0.057557121 0.71099997 2.480636e-39
0.015574261 -0.057557121 0.71099997 4.1333162e-39
0.016928548 -0.057557121 0.71099997 5.0620744e-39
0.018282846 -0.057557121 0.71099997 5.9696674e-39
0.01963711 -0.057557121 0.71099997 4.041122e-39
0.020991411 -0.057557136 0.71099997 2.1125793e-39
0.022345692 -0.057557136 0.71099997 3.676654e-39
0.023766654 -0.057719037 0.71300006 5.3268217e-39
0.025124758 -0.057719037 0.71300006 6.989545e-39
0.02648285 -0.057719022 0.713 8.7333503e-39
0.027840957 -0.057719037 0.71300006 6.5307403e-39
0.029199045 -0.057719022 0.713 4.4084906e-39
0.030557141 -0.057719037 0.71300006 2.5717919e-39
0.031915225 -0.057719037 0.713 8.2695107e-40
0.03331998 -0.05779995 0.71399999 7.3691876e-39
0.034679972 -0.05779998 0.71399993 1.4009392e-38
0.036140941 -0.057961881 0.71599996 1.4653741e-38
0.037504748 -0.057961896 0.71599996 1.5286785e-38
0.038922828 -0.058042839 0.71699995 1.2519762e-38
0.040288549 -0.058042839 0.71699995 9.7504057e-39
0.041770454 -0.058204755 0.71899998 9.2112883e-39
0.043199994 -0.058285698 0.72000003 8.6635011e-39
0.044695206 -0.058447599 0.722 1.0961897e-38
0.046070449 -0.058447585 0.722 1.3354653e-38
0.047511414 -0.058528572 0.72299999 1.1239219e-38
0.048888557 -0.058528572 0.72299999 9.214828e-39
