# .PCD v0.7 - Point Cloud Data file format
VERSION 0.7
FIELDS x y z rgb
SIZE 4 4 4 4
TYPE F F F F
COUNT 1 1 1 1
WIDTH 972
HEIGHT 1
VIEWPOINT 0 0 0 1 0 0 0
POINTS 972
DATA ascii
-0.0035238131 0.047219023 0.74000001 6.2473277e-39
-0.0021114363 0.04715522 0.73900002 4.1361875e-39
-0.00070191128 0.047027588 0.73700011 1.9289224e-39
0.00070381677 0.047155231 0.73900002 3.3082625e-39
0.0021114429 0.04715522 0.73900002 4.6854586e-39
0.0035190345 0.04715522 0.73900008 6.1605873e-39
0.0049266624 0.047155224 0.73900008 7.719969e-39
0.0063342745 0.047155228 0.73900008 7.7263982e-39
0.0077419146 0.047155231 0.73900002 7.8121408e-39
0.0091619091 0.047219027 0.74000001 8.1841506e-39
0.010571425 0.047219034 0.74000001 8.6329108e-39
0.011980971 0.047219027 0.74000001 1.0858831e-38
0.013390487 0.047219034 0.74000001 1.3170162e-38
0.014800012 0.047219027 0.74000007 1.2887857e-38
0.016209528 0.047219034 0.74000001 1.2708474e-38
0.017666653 0.04734664 0.7420001 9.3883872e-39
0.019080007 0.047346648 0.74200004 6.0618616e-39
0.02049334 0.04734664 0.7420001 6.5264201e-39
0.021906666 0.047346637 0.7420001 7.0937007e-39
0.023351429 0.047410447 0.74300009 1.0417839e-38
0.024766687 0.047410455 0.74300003 1.3834714e-38
0.026252408 0.047538087 0.74500006 1.3733859e-38
0.027745727 0.047665697 0.7470001 1.374349e-38
0.02928572 0.047857128 0.75000012 1.3268831e-38
0.03083716 0.048048548 0.75300002 1.2897943e-38
0.032271422 0.048048541 0.75300008 9.9470527e-39
0.033795245 0.048176173 0.75500005 7.0925811e-39
0.035233345 0.048176169 0.75500005 7.8236399e-39
0.036719993 0.048239972 0.7560001 8.4870819e-39
0.038160019 0.04823998 0.7560001 1.2729238e-38
0.039599996 0.048239976 0.7560001 1.6952229e-38
0.041257124 0.048495196 0.76000011 1.530564e-38
0.042760942 0.048559025 0.7610001 1.3649308e-38
0.04421046 0.048559032 0.76100004 1.2079071e-38
-0.035373326 0.049811408 0.75800008 8.0101653e-39
-0.033840001 0.049679976 0.7560001 8.4775881e-39
-0.032357149 0.049614258 0.75500005 8.8416958e-39
-0.030837141 0.049482837 0.75300008 5.429429e-39
-0.029363802 0.049417116 0.75200009 1.9360858e-39
-0.027931422 0.049417116 0.75200009 1.1070496e-39
-0.026499031 0.049417123 0.75200009 2.834014e-40
-0.024999982 0.049285695 0.75000006 5.0699679e-39
-0.023571413 0.049285702 0.75000006 9.7661731e-39
-0.022142842 0.049285702 0.75000006 1.2815795e-38
-0.020659063 0.049154263 0.74800009 1.5844587e-38
-0.019234281 0.049154274 0.74800003 1.5298251e-38
-0.01773807 0.048957136 0.74500006 1.4643925e-38
-0.016319036 0.048957132 0.74500012 1.3818123e-38
-0.014859986 0.048825692 0.74300003 1.2983327e-38
-0.013444762 0.048825689 0.74300009 1.2706002e-38
-0.012029517 0.048825696 0.74300003 1.2424048e-38
-0.01061428 0.048825692 0.74300009 6.7173428e-39
-0.0091866618 0.048759975 0.74200004 9.2342906e-40
-0.0077523799 0.048628565 0.74000001 5.0545634e-39
-0.0063428483 0.048628554 0.74000001 9.1150934e-39
-0.0049333167 0.048628561 0.74000001 1.015115e-38
-0.0035238075 0.048628557 0.74000007 1.1048291e-38
-0.002111427 0.048562847 0.73900008 6.254861e-39
-0.00070381491 0.048562858 0.73900008 1.4726063e-39
0.00070381118 0.048562847 0.73900002 1.8381617e-39
0.0021114363 0.048562847 0.73900002 2.2069652e-39
0.0035190484 0.048562855 0.73900002 4.1405595e-39
0.0049266745 0.048562847 0.73900002 5.9790463e-39
0.0063342801 0.048562843 0.73900008 6.1644941e-39
0.0077418922 0.048562847 0.73900008 6.3449267e-39
0.0091618989 0.048628546 0.74000001 7.2593244e-39
0.010571444 0.04862855 0.74000001 8.1935393e-39
0.011980961 0.048628561 0.74000001 1.3918267e-38
0.013390479 0.048628561 0.74000001 1.9524852e-38
0.014800022 0.048628569 0.74000001 1.9978965e-38
0.016253337 0.048759978 0.7420001 2.0441029e-38
0.017666662 0.048759971 0.7420001 1.5843532e-38
0.019080019 0.048759978 0.74200004 1.1134037e-38
0.020520955 0.048825692 0.74300003 9.1839126e-39
0.021936193 0.048825685 0.74300009 7.2787618e-39
0.023351423 0.048825696 0.74300003 1.1063826e-38
0.024833357 0.048957139 0.74500006 1.4835887e-38
0.02632286 0.049088553 0.74700004 1.5766788e-38
0.027745716 0.049088549 0.7470001 1.6684374e-38
0.02928574 0.049285699 0.75000006 1.5581221e-38
0.030837161 0.049482841 0.75300002 1.4361198e-38
0.032271445 0.04948283 0.75300002 1.1782297e-38
0.033795238 0.049614269 0.75500005 9.1136697e-39
0.035233337 0.049614266 0.75500005 8.3678482e-39
0.036719996 0.049679987 0.7560001 7.5600851e-39
0.038160022 0.049679976 0.75600004 1.2085239e-38
0.0396 0.049679972 0.7560001 1.6592372e-38
0.041148577 0.049811397 0.75800008 1.6053572e-38
0.042592414 0.049811415 0.75800002 1.5483499e-38
0.044036198 0.0498114 0.75800008 1.3085682e-38
-0.03560666 0.051593319 0.76300001 8.8356212e-39
-0.033929519 0.051255204 0.75800008 1.0137443e-38
-0.032399997 0.051119976 0.75600004 1.1523574e-38
-0.030919045 0.051052362 0.75500005 7.0035342e-39
-0.029363811 0.050849497 0.75200009 2.4827884e-39
-0.027931433 0.050849497 0.75200009 1.563716e-39
-0.026428569 0.050714277 0.75000012 7.361203e-40
-0.024999999 0.050714277 0.75000012 3.040976e-39
-0.023571411 0.050714277 0.75000006 5.3458738e-39
-0.022142841 0.050714277 0.75000006 7.0089978e-39
-0.020659065 0.050579023 0.74800009 8.6800379e-39
-0.019208565 0.050511405 0.7470001 1.0880565e-38
-0.017738089 0.050376177 0.74500006 1.3084964e-38
-0.016319022 0.050376184 0.74500006 1.2901996e-38
-0.014859999 0.050240926 0.74300009 1.2720444e-38
-0.013480941 0.050376169 0.74500012 1.2995198e-38
-0.01202953 0.050240915 0.74300009 1.3273221e-38
-0.010614285 0.05024093 0.74300003 8.4723108e-39
-0.0091866655 0.050173312 0.74200004 3.5848998e-39
-0.0077733458 0.050173305 0.7420001 7.2722696e-39
-0.006359993 0.050173312 0.7420001 1.0875454e-38
-0.0049333139 0.050038092 0.74000001 1.2263105e-38
-0.0035237973 0.050038103 0.74000001 1.3642334e-38
-0.0021057162 0.04983522 0.73700011 9.2100972e-39
-0.00070191501 0.049835224 0.73700011 4.8680002e-39
0.0007019029 0.049835213 0.73700011 3.2149612e-39
0.0021057068 0.04983522 0.73700011 1.5615944e-39
0.0035095229 0.04983522 0.73700011 3.9565228e-39
0.0049266708 0.049970463 0.73900002 6.2581457e-39
0.0063342829 0.049970467 0.73900002 5.795734e-39
0.007741923 0.049970474 0.73900002 5.3372488e-39
0.0091495151 0.049970455 0.73900008 5.4283402e-39
0.010557127 0.049970459 0.73900008 5.5350491e-39
0.011964767 0.049970463 0.73900008 1.1808725e-38
0.013390497 0.050038081 0.74000001 1.8175406e-38
0.014800015 0.050038084 0.74000001 1.8802725e-38
0.016209537 0.050038081 0.74000007 1.9457822e-38
0.017666675 0.050173309 0.74200004 1.5758984e-38
0.019079981 0.050173301 0.7420001 1.2160429e-38
0.020493336 0.050173309 0.7420001 8.1920188e-39
0.021936186 0.050240919 0.74300003 4.3442873e-39
0.023351444 0.050240926 0.74300003 7.7422315e-39
0.024833348 0.050376181 0.74500006 1.1148069e-38
0.026322845 0.050511409 0.7470001 1.382855e-38
0.027782844 0.05057903 0.74800009 1.6594688e-38
0.029285729 0.050714277 0.75000006 1.4368347e-38
0.0307143 0.050714273 0.75000006 1.2223496e-38
0.032271445 0.050917119 0.75300008 1.0397199e-38
0.03379526 0.051052365 0.75500005 8.4772672e-39
0.03523333 0.051052362 0.75500005 8.0091256e-39
0.036671422 0.051052354 0.75500005 7.5446288e-39
0.038160026 0.051119991 0.75600004 1.0695436e-38
0.0396 0.051119968 0.7560001 1.3931962e-38
0.04104 0.051119991 0.7560001 1.3464575e-38
0.042480007 0.051119972 0.7560001 1.2992811e-38
0.043920003 0.051119979 0.7560001 1.1984382e-38
-0.035606664 0.053046655 0.76300001 9.5828762e-39
-0.033929508 0.052699033 0.75800008 1.189636e-38
-0.032485686 0.052699037 0.75800002 1.4096816e-38
-0.030960005 0.052559968 0.7560001 8.5780682e-39
-0.029363804 0.052281883 0.75200009 3.0410054e-39
-0.027931424 0.052281886 0.75200009 2.1125765e-39
-0.026428565 0.052142847 0.75000006 1.1048972e-39
-0.024999995 0.052142851 0.75000006 1.0116268e-39
-0.023571428 0.052142855 0.75000006 9.3057709e-40
-0.022142857 0.05214284 0.75000006 1.1942692e-39
-0.020714287 0.052142844 0.75000012 1.3969867e-39
-0.019234287 0.052003786 0.74800003 6.4580171e-39
-0.017785724 0.051934253 0.7470001 1.1513661e-38
-0.01631904 0.051795222 0.74500006 1.1984705e-38
-0.014899973 0.051795229 0.74500006 1.2348789e-38
-0.01348094 0.051795233 0.74500006 1.3281465e-38
-0.012029522 0.051656168 0.74300009 1.4097221e-38
-0.010614278 0.051656161 0.74300003 1.0221116e-38
-0.009199053 0.051656157 0.74300009 6.2585395e-39
-0.0077733346 0.051586639 0.7420001 9.4820892e-39
-0.0063599939 0.051586647 0.74200004 1.2622829e-38
-0.0049333232 0.051447611 0.74000001 1.438245e-38
-0.0035237917 0.051447611 0.74000001 1.6123689e-38
-0.0021057106 0.051239032 0.73700011 1.2167183e-38
-0.00070189266 0.051239032 0.73700011 8.1927587e-39
0.00070191035 0.051239021 0.73700005 4.5921349e-39
0.0021057134 0.051239029 0.73700011 9.2125145e-40
0.0035095294 0.051239029 0.73700011 3.7735594e-39
0.0049266652 0.051378079 0.73900002 6.5361451e-39
0.0063342913 0.051378082 0.73900002 5.4222684e-39
0.0077419034 0.05137809 0.73900002 4.3216633e-39
0.0091495439 0.051378079 0.73900002 3.5819445e-39
0.010557155 0.051378086 0.73900002 2.8681791e-39
0.01198097 0.051447604 0.74000001 9.7893155e-39
0.013390488 0.051447608 0.74000001 1.6680533e-38
0.014800004 0.051447604 0.74000001 1.750702e-38
0.016209546 0.051447608 0.74000001 1.83328e-38
0.017666688 0.051586654 0.74200004 1.5757439e-38
0.01910574 0.051656161 0.74300003 1.3065815e-38
0.020520952 0.051656161 0.74300009 7.2636236e-39
0.021936208 0.051656168 0.74300003 1.3879581e-39
0.02335142 0.051656168 0.74300009 4.4128038e-39
0.024900004 0.051934276 0.7470001 7.3709602e-39
0.026358081 0.052003782 0.74800009 1.1895701e-38
0.027782841 0.052003786 0.74800009 1.6391638e-38
0.029285746 0.052142847 0.75000006 1.3258056e-38
0.030837156 0.052351411 0.75300002 1.0119868e-38
0.03235716 0.05249045 0.75500005 9.0138986e-39
0.033840001 0.052559976 0.75600004 7.8297426e-39
0.035280008 0.052559987 0.7560001 7.7386455e-39
0.036720004 0.052559979 0.7560001 7.5550306e-39
0.03816003 0.052559983 0.75600004 9.4036348e-39
0.039600007 0.052559979 0.7560001 1.1159303e-38
0.041148599 0.052699033 0.75800002 1.0879166e-38
0.042592414 0.052699033 0.75800008 1.0513959e-38
0.044036221 0.052699029 0.75800002 1.0974197e-38
0.045480005 0.052699026 0.75800002 1.143482e-38
-0.035606664 0.054499973 0.76300001 9.4049618e-39
-0.034019049 0.054285683 0.76000011 1.1434006e-38
-0.032485709 0.05414284 0.75800008 1.3460838e-38
-0.030959997 0.053999986 0.7560001 9.2177455e-39
-0.029480956 0.053928562 0.75500005 4.9595344e-39
-0.027931433 0.053714264 0.75200009 4.6857641e-39
-0.026428547 0.053571418 0.75000006 4.5074741e-39
-0.025066659 0.05371426 0.75200009 6.0808744e-39
-0.023571409 0.053571422 0.75000006 7.649977e-39
-0.022142839 0.053571425 0.75000006 7.1825543e-39
-0.020714268 0.05357141 0.75000006 6.7043682e-39
-0.019234288 0.053428546 0.74800003 7.0831924e-39
-0.017738082 0.053214278 0.74500006 7.4559854e-39
-0.016319029 0.053214289 0.74500006 9.4854033e-39
-0.014859983 0.053071406 0.74300003 1.1500738e-38
-0.013444759 0.053071391 0.74300009 1.1887428e-38
-0.012029515 0.053071398 0.74300003 1.2266242e-38
-0.010614291 0.053071398 0.74300009 1.0217513e-38
-0.0091990465 0.053071406 0.74300009 8.2667291e-39
-0.0077733374 0.052999973 0.7420001 1.0771402e-38
-0.0063599977 0.052999981 0.74200004 1.3271049e-38
-0.0049333177 0.052857138 0.74000001 1.4655756e-38
-0.003523801 0.052857131 0.74000001 1.6129792e-38
-0.0021057217 0.052642826 0.73700011 1.3827091e-38
-0.00070190383 0.05264283 0.73700011 1.1602897e-38
0.00070189917 0.052642822 0.73700011 8.2741644e-39
0.0021057152 0.052642826 0.73700011 4.9620091e-39
0.0035095201 0.05264283 0.73700011 8.5658545e-39
0.0049133361 0.05264283 0.73700011 1.2251093e-38
0.0063171391 0.052642837 0.73700011 1.0125582e-38
0.007720957 0.052642826 0.73700011 7.9961468e-39
0.0091495253 0.052785695 0.73900002 4.7783171e-39
0.010557137 0.052785702 0.73900002 1.5655699e-39
0.011964777 0.052785706 0.73900002 5.6261208e-39
0.013390479 0.052857123 0.74000001 9.6791174e-39
0.014800023 0.052857131 0.74000001 1.1328966e-38
0.016253345 0.052999977 0.7420001 1.2985855e-38
0.017666651 0.05299997 0.7420001 1.1968754e-38
0.019105712 0.053071402 0.74300009 1.0928793e-38
0.02052097 0.053071409 0.74300009 5.7881614e-39
0.021936202 0.053071413 0.74300003 7.3505111e-40
0.023414293 0.053214274 0.74500012 2.3909543e-39
0.024933318 0.053428542 0.74800003 4.0480051e-39
0.026358077 0.053428542 0.74800009 8.8421709e-39
0.027782839 0.053428546 0.74800009 1.3715848e-38
0.029285714 0.053571422 0.75000012 1.2518695e-38
0.030837154 0.053785704 0.75300002 1.1217927e-38
0.032357153 0.05392855 0.75500005 9.5706233e-39
0.033839986 0.053999975 0.7560001 8.0173484e-39
0.035280012 0.053999983 0.7560001 8.015231e-39
0.036720008 0.053999986 0.7560001 8.104966e-39
0.038160011 0.053999968 0.7560001 9.5855065e-39
0.039600007 0.053999979 0.7560001 1.1157136e-38
0.04125715 0.054285675 0.76000011 1.1066039e-38
0.042704742 0.054285679 0.76000011 1.0975279e-38
0.044152368 0.054285675 0.76000011 1.1159309e-38
-0.035606649 0.05595332 0.76300001 9.2169664e-39
-0.033929523 0.055586651 0.75800008 1.1064833e-38
-0.032485701 0.055586651 0.75800002 1.2812213e-38
-0.030959995 0.055439979 0.7560001 9.8716782e-39
-0.029480949 0.055366643 0.75500005 6.8087817e-39
-0.028042857 0.055366646 0.75500005 7.3471998e-39
-0.026499029 0.055146661 0.75200009 7.8232854e-39
-0.02506665 0.055146646 0.75200003 1.1061971e-38
-0.023571417 0.054999996 0.75000006 1.4278737e-38
-0.02214285 0.055000003 0.75000006 1.3181028e-38
-0.020714264 0.055 0.75000006 1.1963443e-38
-0.019234292 0.054853313 0.74800003 7.7145698e-39
-0.017785717 0.05477998 0.74700004 3.409816e-39
-0.016319033 0.054633327 0.74500006 6.9996862e-39
-0.014899984 0.054633327 0.74500012 1.0586291e-38
-0.01344475 0.05448664 0.74300009 1.0501269e-38
-0.012029505 0.054486647 0.74300003 1.0402236e-38
-0.010614282 0.054486644 0.74300009 1.0299615e-38
-0.0091990372 0.054486636 0.74300003 1.0217875e-38
-0.0077733253 0.054413319 0.7420001 1.2065397e-38
-0.0063428567 0.054266647 0.74000001 1.3914657e-38
-0.004933327 0.054266658 0.74000001 1.5023136e-38
-0.0035333247 0.054413315 0.7420001 1.6041591e-38
-0.0021142638 0.05426665 0.74000001 1.5499562e-38
-0.00070476672 0.05426665 0.74000001 1.4915103e-38
0.00070190663 0.054046649 0.73700011 1.1938975e-38
0.0021057245 0.054046646 0.73700011 8.9317755e-39
0.0035095266 0.054046653 0.73700011 1.3459749e-38
0.0049133427 0.054046642 0.73700011 1.7958971e-38
0.0063171475 0.054046646 0.73700011 1.4833334e-38
0.0077209636 0.054046653 0.73700011 1.1597156e-38
0.009124767 0.054046638 0.73700011 5.8778319e-39
0.010557146 0.054193314 0.73900002 1.8513815e-40
0.011980955 0.05426665 0.74000007 1.3786731e-39
0.01339047 0.054266643 0.74000001 2.5811623e-39
0.014800016 0.05426665 0.74000001 5.0521294e-39
0.016209532 0.054266658 0.74000001 7.5542753e-39
0.017666662 0.054413307 0.7420001 8.2032096e-39
0.019105706 0.054486651 0.74300009 8.7416333e-39
0.020520965 0.05448664 0.74300003 4.408471e-39
0.021936204 0.05448664 0.74300009 9.2558566e-41
0.023351435 0.054486647 0.74300003 3.6842098e-40
0.024933316 0.054853309 0.74800003 6.4898196e-40
0.026358075 0.054853309 0.74800009 5.8926072e-39
0.027782857 0.054853309 0.74800003 1.1045786e-38
0.029285733 0.054999992 0.75000006 1.1699026e-38
0.030837156 0.055219963 0.75300008 1.2335408e-38
0.032357145 0.055366646 0.75500005 1.0216726e-38
0.033839986 0.055439968 0.7560001 8.1073986e-39
0.035280012 0.055439979 0.7560001 8.3829247e-39
0.036720008 0.055439986 0.7560001 8.5670091e-39
0.038159985 0.055439979 0.7560001 9.8602941e-39
0.039600015 0.055439975 0.7560001 1.106566e-38
0.041257147 0.055733297 0.76000011 1.1252585e-38
0.042704761 0.055733304 0.76000011 1.1344421e-38
0.04421046 0.055806659 0.7610001 1.1436257e-38
0.045780003 0.055953313 0.76300001 1.1436625e-38
-0.035700005 0.057557106 0.7650001 8.4765245e-39
-0.034019049 0.057180934 0.76000011 1.0414774e-38
-0.03248569 0.057030465 0.75800002 1.2351565e-38
-0.030959994 0.056879975 0.7560001 9.6775676e-39
-0.029520003 0.056879971 0.7560001 7.0767366e-39
-0.028042847 0.056804743 0.75500005 5.6084239e-39
-0.02653428 0.056654267 0.75300002 4.1517082e-39
-0.025066659 0.056579024 0.75200009 9.0388151e-39
-0.023634281 0.056579027 0.75200009 1.3926205e-38
-0.022201885 0.056579031 0.75200009 1.3094323e-38
-0.020714261 0.056428559 0.75000006 1.2355596e-38
-0.019234281 0.056278072 0.74800003 8.6530208e-39
-0.017785715 0.056202848 0.7470001 4.9691991e-39
-0.01631904 0.056052368 0.74500012 6.9963974e-39
-0.014899983 0.056052376 0.74500006 8.9346482e-39
-0.013444758 0.055901889 0.74300003 8.1885044e-39
-0.012029518 0.05590187 0.74300009 7.4390746e-39
-0.010614274 0.055901881 0.74300003 1.0585836e-38
-0.0091990503 0.055901878 0.74300009 1.3729506e-38
-0.0077838064 0.055901866 0.74300003 1.4468593e-38
-0.0063600088 0.055826634 0.7420001 1.5207572e-38
-0.0049466682 0.055826638 0.7420001 1.5758215e-38
-0.00353808 0.055901885 0.74300003 1.6320017e-38
-0.0021200082 0.055826645 0.7420001 1.6412955e-38
-0.00070190942 0.055450454 0.73700011 1.65775e-38
0.00070380466 0.05560093 0.73900008 1.2787018e-38
0.0021114317 0.055600941 0.73900008 9.0390701e-39
0.0035095145 0.055450454 0.73700011 1.3644922e-38
0.0049266699 0.055600937 0.73900002 1.8342184e-38
0.0063171335 0.055450443 0.73700011 1.6585848e-38
0.0077209505 0.055450447 0.73700011 1.4926605e-38
0.0091247549 0.055450451 0.73700011 7.7274562e-39
0.010557125 0.055600949 0.73900008 5.5137591e-40
0.011980965 0.055676177 0.74000001 2.3884474e-39
0.01339049 0.055676177 0.74000007 4.2247972e-39
0.014800006 0.055676181 0.74000001 7.456616e-39
0.016209522 0.055676188 0.74000001 1.0680257e-38
0.017666673 0.055826653 0.7420001 1.0686425e-38
0.019105729 0.055901881 0.74300003 1.0691017e-38
0.02052094 0.055901878 0.74300009 7.54809e-39
0.021936197 0.05590187 0.74300003 4.5002994e-39
0.023414299 0.056052364 0.74500012 2.4802773e-39
0.024933312 0.056278069 0.74800003 4.5953761e-40
0.026358074 0.056278069 0.74800009 5.9807881e-39
0.027782854 0.05627808 0.74800003 1.1406296e-38
0.029285723 0.056428567 0.75000006 1.2250431e-38
0.030796211 0.056579031 0.75200009 1.3176664e-38
0.032271437 0.056654252 0.75300008 1.0501583e-38
0.03379523 0.056804735 0.75500005 7.8333355e-39
0.035233352 0.056804739 0.75500005 8.1970944e-39
0.036720015 0.056879979 0.75600004 8.6541769e-39
0.038159989 0.056879979 0.7560001 1.0048267e-38
0.039809521 0.057180919 0.76000011 1.1441613e-38
0.041257136 0.057180926 0.76000011 1.143913e-38
0.042760938 0.057256177 0.76100004 1.1437697e-38
0.044210467 0.057256177 0.7610001 1.1437339e-38
0.045900024 0.057557117 0.7650001 1.1438425e-38
-0.038614288 0.059014253 0.7650001 8.3800563e-39
-0.037157144 0.059014257 0.7650001 8.0058802e-39
-0.035699997 0.059014261 0.7650001 7.6453667e-39
-0.03406382 0.05870571 0.76100004 9.7662053e-39
-0.032571442 0.058628537 0.76000011 1.1793755e-38
-0.031041881 0.058474261 0.75800002 9.5932837e-39
-0.029520001 0.058319967 0.7560001 7.360145e-39
-0.028042857 0.058242839 0.75500005 3.8574538e-39
-0.026534276 0.058088545 0.75300002 3.8140962e-40
-0.025066651 0.058011413 0.75200003 7.0155223e-39
-0.023634292 0.05801139 0.75200009 1.3546977e-38
-0.022201898 0.058011398 0.75200009 1.3097501e-38
-0.020714279 0.057857137 0.75000012 1.2616718e-38
-0.019285709 0.057857122 0.75000012 9.5731526e-39
-0.017785713 0.057625689 0.7470001 6.5325508e-39
-0.016319025 0.057471417 0.74500006 6.8984732e-39
-0.014899991 0.057471417 0.74500012 7.2668872e-39
-0.013444769 0.057317108 0.74300009 5.8785886e-39
-0.012029525 0.057317119 0.74300003 4.4196393e-39
-0.010614267 0.057317112 0.74300003 1.0875763e-38
-0.0091990428 0.057317108 0.74300009 1.7228258e-38
-0.007783799 0.057317115 0.74300003 1.687174e-38
-0.0063600098 0.057239983 0.7420001 1.6402511e-38
-0.004946657 0.057239987 0.7420001 1.6482503e-38
-0.0035380931 0.057317108 0.74300009 1.6595529e-38
-0.0021199971 0.057239976 0.7420001 1.7437858e-38
-0.00070380745 0.057008568 0.73900002 1.8137658e-38
0.0007038177 0.057008557 0.73900002 1.3592072e-38
0.0021114261 0.057008553 0.73900008 9.0283348e-39
0.0035095238 0.056854263 0.73700011 1.3830024e-38
0.0049266634 0.05700855 0.73900002 1.8610862e-38
0.0063171438 0.05685427 0.73700011 1.8424332e-38
0.0077419016 0.057008561 0.73900002 1.8225498e-38
0.0091495421 0.057008564 0.73900002 9.5534041e-39
0.010557154 0.057008572 0.73900002 9.1945358e-40
0.011980957 0.057085712 0.74000001 3.3983155e-39
0.013390501 0.057085712 0.74000001 5.8025499e-39
0.014799998 0.057085697 0.74000001 9.868793e-39
0.016253332 0.05723998 0.7420001 1.3813438e-38
0.017666658 0.057239983 0.7420001 1.3171331e-38
0.019080011 0.057239976 0.74200004 1.2523076e-38
0.020520959 0.057317112 0.74300009 1.0684549e-38
0.021936191 0.057317123 0.74300003 8.8316654e-39
0.023414316 0.057471428 0.74500006 4.5921349e-39
0.024933336 0.057702832 0.74800009 2.8125882e-40
0.02635807 0.057702821 0.74800009 6.0730061e-39
0.02778285 0.057702836 0.74800003 1.178119e-38
0.029285742 0.057857137 0.75000006 1.2902622e-38
0.030714311 0.057857141 0.75000006 1.3907777e-38
0.032228582 0.058011398 0.75200009 1.0779616e-38
0.033795252 0.058242828 0.75500005 7.5553123e-39
0.035280019 0.058319982 0.7560001 8.1012876e-39
0.036817163 0.058474261 0.75800002 8.6591907e-39
0.038260978 0.058474258 0.75800008 1.0236611e-38
0.039809536 0.058628544 0.76000011 1.1803573e-38
0.041311417 0.058705699 0.76100004 1.1624226e-38
0.042760946 0.058705695 0.7610001 1.1436971e-38
0.044210475 0.058705691 0.7610001 1.1436256e-38
0.045900002 0.059014257 0.7650001 1.143482e-38
-0.038614266 0.060471404 0.7650001 6.5516168e-39
-0.037157122 0.060471404 0.7650001 5.9866077e-39
-0.035699993 0.060471397 0.7650001 5.526361e-39
-0.034063824 0.060155228 0.76100004 7.0039854e-39
-0.032571428 0.060076166 0.76000011 8.4837496e-39
-0.031041894 0.059918065 0.75800008 7.0940132e-39
-0.029520009 0.059759974 0.7560001 5.6992252e-39
-0.028079998 0.059759982 0.7560001 3.0323706e-39
-0.026604777 0.059680931 0.75500005 2.7592267e-40
-0.025099993 0.05952283 0.75300002 4.151002e-39
-0.023634281 0.059443783 0.75200009 8.0267567e-39
-0.022201888 0.059443787 0.75200009 8.0177982e-39
-0.020769507 0.059443787 0.75200009 8.0937864e-39
-0.019285705 0.059285711 0.75000006 7.3593967e-39
-0.017785728 0.059048545 0.7470001 6.7094016e-39
-0.016319044 0.058890466 0.74500006 7.1732707e-39
-0.014899976 0.058890477 0.74500006 7.6306265e-39
-0.013444761 0.058732346 0.74300009 6.4324322e-39
-0.012029517 0.058732353 0.74300003 5.3322714e-39
-0.010614293 0.058732349 0.74300009 1.1337522e-38
-0.0091990344 0.058732357 0.74300003 1.7425595e-38
-0.0077838111 0.058732353 0.74300009 1.7054691e-38
-0.0063599986 0.058653314 0.7420001 1.6680173e-38
-0.0049533225 0.058732353 0.74300003 1.6676584e-38
-0.0035380987 0.058732353 0.74300009 1.6783869e-38
-0.0021200008 0.05865331 0.7420001 1.742961e-38
-0.00070668058 0.058653306 0.7420001 1.8054821e-38
0.0007066601 0.058653314 0.7420001 1.1314539e-38
0.0021114401 0.058416184 0.73900002 4.6105732e-39
0.0035238094 0.058495231 0.74000001 9.1270381e-39
0.0049266578 0.05841618 0.73900008 1.3745363e-38
0.0063342857 0.058416184 0.73900008 1.5026399e-38
0.0077419118 0.058416177 0.73900002 1.6406356e-38
0.0091495244 0.05841618 0.73900002 1.0031594e-38
0.01057143 0.058495224 0.74000001 3.6738192e-39
0.011980974 0.058495224 0.74000001 5.2433113e-39
0.013390492 0.058495231 0.74000001 6.8206815e-39
0.014840011 0.05865331 0.74200004 9.6798013e-39
0.016253315 0.058653314 0.7420001 1.2624613e-38
0.017666671 0.058653317 0.7420001 1.1603996e-38
0.019105725 0.058732353 0.74300009 1.0585577e-38
0.020520955 0.058732364 0.74300003 9.8537851e-39
0.021936193 0.058732353 0.74300009 9.2130287e-39
0.023351451 0.058732349 0.74300009 7.4576894e-39
0.024933334 0.059127592 0.74800009 5.7038705e-39
0.026358094 0.059127595 0.74800009 8.6515971e-39
0.027782848 0.059127606 0.74800003 1.1691885e-38
0.02928574 0.0592857 0.75000012 1.2343015e-38
0.030796211 0.059443783 0.75200009 1.3078403e-38
0.032228589 0.059443787 0.75200009 9.3020126e-39
0.033795245 0.059680924 0.75500005 5.5273938e-39
0.035279997 0.059759982 0.7560001 7.1821885e-39
0.03672 0.059759982 0.7560001 8.8378311e-39
0.038260974 0.059918072 0.75800002 9.7706264e-39
0.039809503 0.060076166 0.76000011 1.0605765e-38
0.041311424 0.060155213 0.7610001 1.0606493e-38
0.042760953 0.060155217 0.7610001 1.0697974e-38
0.044210471 0.060155224 0.76100004 1.0786226e-38
0.045900017 0.060471393 0.7650001 1.0970603e-38
-0.035606652 0.061766651 0.76300001 3.3165484e-39
-0.034019057 0.061523784 0.76000011 4.239927e-39
-0.032571431 0.061523769 0.76000011 5.0682527e-39
-0.031041881 0.061361875 0.75800002 4.5994035e-39
-0.029520005 0.061199978 0.7560001 4.0494219e-39
-0.028079996 0.061199985 0.7560001 2.1129381e-39
-0.026604747 0.061119039 0.75500005 1.8406336e-40
-0.025166675 0.061119031 0.75500005 1.2861173e-39
-0.023665722 0.06095713 0.75300008 2.3992668e-39
-0.022231428 0.060957119 0.75300002 3.0367385e-39
-0.020797145 0.060957123 0.75300002 3.5902374e-39
-0.019285699 0.060714271 0.75000006 5.2446874e-39
-0.017809529 0.060552359 0.74800003 6.8076915e-39
-0.016362851 0.060471412 0.74700004 7.3630163e-39
-0.014899981 0.060309518 0.74500006 7.9071979e-39
-0.013444753 0.060147587 0.74300003 7.0724108e-39
-0.01202953 0.060147587 0.74300009 6.1702787e-39
-0.010614285 0.060147598 0.74300009 1.1900031e-38
-0.0091990409 0.060147595 0.74300003 1.7512433e-38
-0.0077838018 0.060147591 0.74300009 1.7241264e-38
-0.0063685575 0.060147598 0.74300003 1.6956405e-38
-0.0049533355 0.060147595 0.74300009 1.6943467e-38
-0.0035380912 0.060147602 0.74300003 1.6873909e-38
-0.0021200017 0.060066644 0.74200004 1.744146e-38
-0.00070666848 0.06006664 0.7420001 1.7862518e-38
0.00070667127 0.060066648 0.7420001 9.0006563e-39
0.002120011 0.060066655 0.74200004 1.0482273e-40
0.0035333293 0.060066637 0.7420001 4.4142877e-39
0.0049333465 0.05990475 0.74000001 8.7592995e-39
0.0063428641 0.059904743 0.74000001 1.171243e-38
0.0077524078 0.059904747 0.74000001 1.4557835e-38
0.0091619054 0.059904743 0.74000001 1.0492261e-38
0.010571421 0.059904747 0.74000001 6.3507015e-39
0.012013343 0.060066644 0.7420001 7.0807289e-39
0.013426669 0.060066652 0.74200004 7.8294119e-39
0.014840002 0.060066633 0.7420001 9.5882867e-39
0.016253326 0.060066644 0.7420001 1.1329935e-38
0.017666681 0.060066652 0.74200004 9.9423625e-39
0.019105718 0.060147598 0.74300003 8.5641014e-39
0.020520976 0.060147591 0.74300003 9.1154619e-39
0.021936186 0.060147591 0.74300009 9.581112e-39
0.023351444 0.060147598 0.74300003 1.0413745e-38
0.024900002 0.060471423 0.7470001 1.1139423e-38
0.026358092 0.060552351 0.74800009 1.1320547e-38
0.027782874 0.060552362 0.74800003 1.1510362e-38
0.029285727 0.060714275 0.75000006 1.1882774e-38
0.0307962 0.060876161 0.75200009 1.2246149e-38
0.03227143 0.060957111 0.75300008 7.9140755e-39
0.033795238 0.06111902 0.75500005 3.5037927e-39
0.03523333 0.061119031 0.75500005 6.2620609e-39
0.036720004 0.061199974 0.7560001 9.0293928e-39
0.038160004 0.061199985 0.7560001 9.2188749e-39
0.039809503 0.06152378 0.76000011 9.4097248e-39
0.041311406 0.061604735 0.7610001 9.6816482e-39
0.042760953 0.061604746 0.76100004 9.8674659e-39
0.044210479 0.061604742 0.7610001 1.0131846e-38
0.045779999 0.061766643 0.76300001 1.0418831e-38
-0.035606652 0.063219987 0.76300001 1.7492255e-39
-0.034063827 0.063054264 0.7610001 4.0494134e-39
-0.03257145 0.062971398 0.76000011 6.2556528e-39
-0.031041885 0.06280569 0.75800002 6.3575664e-39
-0.029598085 0.062805705 0.75800008 6.5404667e-39
-0.02807999 0.062639982 0.7560001 4.7880042e-39
-0.026604757 0.062557131 0.75500005 3.0309385e-39
-0.025099987 0.062391415 0.75300002 3.0320203e-39
-0.023665704 0.062391415 0.75300002 3.1249292e-39
-0.022231439 0.062391412 0.75300008 2.5757057e-39
-0.020769507 0.062308554 0.75200009 1.9346663e-39
-0.019285697 0.062142856 0.75000006 3.4062006e-39
-0.017809531 0.061977126 0.74800003 4.7912538e-39
-0.016362863 0.061894268 0.7470001 4.6032641e-39
-0.014940005 0.061894264 0.7470001 4.5117831e-39
-0.013480935 0.061728567 0.74500006 3.8635494e-39
-0.0120619 0.061728567 0.74500012 3.2236591e-39
-0.010642834 0.061728559 0.74500006 9.4068577e-39
-0.0092238002 0.061728559 0.74500012 1.5676465e-38
-0.0077837952 0.061562832 0.74300003 1.5492834e-38
-0.0063685705 0.061562832 0.74300009 1.5307322e-38
-0.0049533262 0.061562825 0.74300003 1.603837e-38
-0.0035380819 0.061562836 0.74300003 1.6786018e-38
-0.0021199905 0.061479978 0.74200004 1.5491404e-38
-0.0007066722 0.061479971 0.7420001 1.4279116e-38
0.00070667034 0.061479978 0.7420001 8.6554969e-39
0.0021199887 0.061479975 0.7420001 3.0567602e-39
0.0035333284 0.061479971 0.7420001 6.9988707e-39
0.0049466682 0.061479975 0.74200004 1.1042589e-38
0.0063599865 0.061479975 0.7420001 1.4194139e-38
0.0077733421 0.061479982 0.7420001 1.7416241e-38
0.0091866683 0.061479989 0.74200004 1.3358945e-38
0.010600002 0.061479971 0.7420001 9.2065926e-39
0.012013326 0.061479978 0.7420001 7.911542e-39
0.01342668 0.061479982 0.74200004 6.6344504e-39
0.014839987 0.061479967 0.7420001 8.5701662e-39
0.016253339 0.061479978 0.7420001 1.0501611e-38
0.017690482 0.061562821 0.74300009 1.0404783e-38
0.01910574 0.061562832 0.74300003 1.0397923e-38
0.02052095 0.061562832 0.74300009 1.1324843e-38
0.021936208 0.061562836 0.74300003 1.2244724e-38
0.02335142 0.06156284 0.74300009 1.2161948e-38
0.024899988 0.06189426 0.7470001 1.2067863e-38
0.02635809 0.061977122 0.74800009 1.1970907e-38
0.02778287 0.061977115 0.74800003 1.1972766e-38
0.029285746 0.062142845 0.75000006 1.2159011e-38
0.030714314 0.062142849 0.75000006 1.2344447e-38
0.032228589 0.062308554 0.75200009 8.2842859e-39
0.03379523 0.062557116 0.75500005 4.2295181e-39
0.035280004 0.062639989 0.75600004 7.9222941e-39
0.036720008 0.062639982 0.7560001 1.1615136e-38
0.038260974 0.062805697 0.75800008 1.2538203e-38
0.039809518 0.062971398 0.76000011 1.3459068e-38
0.041311428 0.063054278 0.76100004 1.3457991e-38
0.042760957 0.063054278 0.7610001 1.3549812e-38
0.044326693 0.063219979 0.76300001 1.3640915e-38
0.04590001 0.063385673 0.7650001 1.3833205e-38
-0.035606652 0.064673305 0.76300001 1.8800521e-40
-0.034063812 0.064503796 0.76100004 3.8614293e-39
-0.032571431 0.064419016 0.76000011 7.4595742e-39
-0.031041896 0.064249493 0.75800008 8.218352e-39
-0.029520001 0.064079985 0.7560001 8.9321833e-39
-0.028079988 0.064079985 0.7560001 7.3752384e-39
-0.02660476 0.063995212 0.75500005 5.7996605e-39
-0.0251 0.063825697 0.75300002 4.8698008e-39
-0.023634274 0.063740924 0.75200009 3.8588915e-39
-0.022231419 0.063825682 0.75300002 2.1140157e-39
-0.020769518 0.063740939 0.75200009 2.7874769e-40
-0.019285712 0.063571423 0.75000012 1.5619405e-39
-0.017809533 0.063401885 0.74800003 2.759741e-39
-0.016362865 0.06331712 0.7470001 1.9307034e-39
-0.014899987 0.063147604 0.74500006 1.0152169e-39
-0.013480939 0.063147604 0.74500012 6.464372e-40
-0.012094286 0.063317135 0.7470001 2.8668044e-40
-0.010642854 0.063147619 0.74500012 7.0104552e-39
-0.0092237853 0.063147627 0.74500006 1.3731367e-38
-0.0077838008 0.062978074 0.74300003 1.3654301e-38
-0.006368564 0.062978074 0.74300009 1.3552039e-38
-0.0049533187 0.062978074 0.74300003 1.5116806e-38
-0.0035380949 0.062978059 0.74300009 1.6678012e-38
-0.0021200138 0.062893316 0.7420001 1.3642421e-38
-0.00070667407 0.062893301 0.7420001 1.0595293e-38
0.00070666475 0.062893316 0.74200004 8.2860782e-39
0.0021199859 0.062893309 0.7420001 5.9026475e-39
0.0035333396 0.062893316 0.7420001 9.5739037e-39
0.0049466793 0.062893331 0.74200004 1.3265693e-38
0.0063599977 0.062893309 0.7420001 1.6789237e-38
0.0077733235 0.062893316 0.7420001 2.0273215e-38
0.0091866795 0.062893316 0.74200004 1.6228477e-38
0.010599984 0.062893301 0.7420001 1.2058158e-38
0.012013338 0.062893316 0.7420001 8.7247603e-39
0.013444779 0.062978074 0.74300009 5.3422794e-39
0.014860008 0.062978074 0.74300003 7.556743e-39
0.01625335 0.062893324 0.7420001 9.6718545e-39
0.017690478 0.062978074 0.74300003 1.0961165e-38
0.019105714 0.062978074 0.74300009 1.2153931e-38
0.020520974 0.062978074 0.74300009 1.3541846e-38
0.021936202 0.062978074 0.74300003 1.4834416e-38
0.023351442 0.062978067 0.74300009 1.3921141e-38
0.024900002 0.063317135 0.7470001 1.2987636e-38
0.026358087 0.063401878 0.74800009 1.2706306e-38
0.027782867 0.063401878 0.74800003 1.2340438e-38
0.029285736 0.063571423 0.75000006 1.24359e-38
0.030714305 0.063571423 0.75000006 1.2428721e-38
0.032228582 0.063740917 0.75200009 8.6494713e-39
0.033795223 0.063995212 0.75500005 4.8831552e-39
0.035233345 0.063995212 0.75500005 9.4900122e-39
0.036720008 0.064079978 0.7560001 1.410048e-38
0.038160007 0.064079985 0.7560001 1.5859027e-38
0.039809514 0.064419016 0.76000011 1.7507749e-38
0.041311435 0.064503789 0.76100004 1.7324784e-38
0.042760938 0.064503789 0.7610001 1.7140391e-38
0.044326693 0.064673312 0.76300001 1.7141106e-38
-0.034063824 0.065953314 0.76100004 4.1423069e-39
-0.032614294 0.065953314 0.7610001 6.268598e-39
-0.031164782 0.065953314 0.7610001 7.0022898e-39
-0.029598085 0.065693319 0.75800008 7.8093999e-39
-0.028079987 0.065519989 0.7560001 6.814237e-39
-0.026640005 0.065519966 0.7560001 5.9026419e-39
-0.025100011 0.065259971 0.75300008 5.0581283e-39
-0.023634266 0.065173313 0.75200009 4.3166299e-39
-0.022201885 0.065173306 0.75200009 4.8773286e-39
-0.020769507 0.065173313 0.75200003 5.5147961e-39
-0.019285709 0.06499999 0.75000006 5.7045655e-39
-0.017857138 0.064999983 0.75000006 5.9696688e-39
-0.016384777 0.064826638 0.74800009 4.9641404e-39
-0.014960015 0.064826638 0.74800009 4.0429156e-39
-0.013535234 0.064826638 0.74800003 2.2976825e-39
-0.012094287 0.064739972 0.7470001 6.4358415e-40
-0.010642839 0.064566657 0.74500006 3.7817921e-39
-0.0092237908 0.064566657 0.74500006 7.0133363e-39
-0.0078047379 0.064566657 0.74500006 8.7618793e-39
-0.006385705 0.064566657 0.74500006 1.0496352e-38
-0.0049666581 0.064566657 0.74500012 1.0409539e-38
-0.0035380865 0.064393304 0.74300003 1.0422049e-38
-0.0021200008 0.064306647 0.7420001 1.0687824e-38
-0.00070666103 0.064306639 0.7420001 1.104012e-38
0.00070667779 0.064306661 0.74200004 9.2113234e-39
0.0021199971 0.064306647 0.7420001 7.4696537e-39
0.0035333387 0.064306647 0.7420001 1.0409442e-38
0.004946657 0.064306647 0.7420001 1.3453349e-38
0.0063600107 0.064306639 0.7420001 1.7058314e-38
0.0077733365 0.064306647 0.7420001 2.0648479e-38
0.0091866693 0.064306647 0.7420001 1.6497198e-38
0.010599997 0.064306632 0.7420001 1.2419403e-38
0.012013351 0.064306661 0.74200004 8.3663586e-39
0.013444771 0.064393312 0.74300003 4.2391619e-39
0.01486001 0.064393297 0.74300009 6.3564188e-39
0.016275238 0.064393297 0.74300003 8.565158e-39
0.017690497 0.064393319 0.74300003 1.0127101e-38
0.019105708 0.064393312 0.74300009 1.1786243e-38
0.020520965 0.064393312 0.74300003 1.3735956e-38
0.021936204 0.064393312 0.74300009 1.568031e-38
0.023414297 0.064566657 0.74500006 1.410514e-38
0.024899989 0.064739972 0.7470001 1.252055e-38
0.026358083 0.064826638 0.74800009 1.132339e-38
0.027782865 0.064826645 0.74800003 1.0133847e-38
0.029285733 0.064999983 0.75000012 1.0041308e-38
0.030714322 0.065000005 0.75000006 9.9484162e-39
0.032228593 0.065173306 0.75200009 7.4577567e-39
0.033795245 0.065433308 0.75500005 4.9699937e-39
0.035233337 0.065433308 0.75500005 9.6773266e-39
0.036720015 0.065519974 0.7560001 1.4386796e-38
0.038160011 0.065519989 0.7560001 1.5950182e-38
0.039704781 0.065693311 0.75800002 1.7511005e-38
0.041257154 0.065866642 0.76000011 1.7419865e-38
0.042760946 0.065953314 0.7610001 1.7330906e-38
0.044210464 0.065953314 0.76100004 1.7236208e-38
-0.032614302 0.06740284 0.7610001 4.9728215e-39
-0.031164767 0.067402847 0.76100004 5.8036766e-39
-0.029598076 0.06713713 0.75800008 6.6258744e-39
-0.027968574 0.066694275 0.75300002 6.3532224e-39
-0.026534276 0.06669426 0.75300002 5.9815406e-39
-0.025066666 0.066605672 0.75200009 5.3268189e-39
-0.023634275 0.066605695 0.75200009 4.6954877e-39
-0.022201896 0.066605687 0.75200009 7.7469048e-39
-0.020769516 0.066605687 0.75200009 1.0773533e-38
-0.019337138 0.066605695 0.75200009 9.9549084e-39
-0.017857134 0.066428564 0.75000006 9.1179562e-39
-0.016384779 0.066251412 0.74800009 8.0973331e-39
-0.014960017 0.066251397 0.74800009 7.0853364e-39
-0.013535236 0.066251412 0.74800003 4.041122e-39
-0.012094285 0.06616284 0.7470001 9.2231083e-40
-0.010642845 0.065985702 0.74500006 6.4322542e-40
-0.0092237918 0.065985709 0.74500006 2.9784739e-40
-0.0078047453 0.065985695 0.74500006 3.8838178e-39
-0.0063857124 0.065985695 0.74500012 7.3710303e-39
-0.0049666441 0.065985709 0.74500006 5.6942898e-39
-0.00353808 0.06580855 0.74300003 4.0584574e-39
-0.0021200064 0.065719977 0.7420001 7.7386806e-39
-0.00070666475 0.065719984 0.7420001 1.1417854e-38
0.00070665451 0.065719977 0.7420001 1.0232618e-38
0.0021199943 0.065719977 0.7420001 8.933984e-39
0.0035333331 0.065719992 0.74200004 1.1324554e-38
0.0049466523 0.065719977 0.7420001 1.364095e-38
0.0063599939 0.065719984 0.7420001 1.7341693e-38
0.0077838073 0.06580855 0.74300009 2.0922565e-38
0.009199067 0.065808557 0.74300003 1.687571e-38
0.010614279 0.06580855 0.74300009 1.2799324e-38
0.012029535 0.06580855 0.74300003 7.9900483e-39
0.013480959 0.065985702 0.74500012 3.1299669e-39
0.014900026 0.065985695 0.74500006 5.2486657e-39
0.016275262 0.06580855 0.74300003 7.3626716e-39
0.01769047 0.065808564 0.74300009 9.3798211e-39
0.019105729 0.06580855 0.74300003 1.1328481e-38
0.020576205 0.065985702 0.74500012 1.3935774e-38
0.021995246 0.065985695 0.74500006 1.6413915e-38
0.023414293 0.065985695 0.74500012 1.4298128e-38
0.024899976 0.06616284 0.7470001 1.206209e-38
0.026358102 0.066251412 0.74800003 9.9322382e-39
0.027782861 0.066251419 0.74800003 7.8282964e-39
0.029285723 0.066428572 0.75000006 7.6464429e-39
0.030714292 0.066428572 0.75000006 7.462046e-39
0.032228582 0.066605687 0.75200009 6.2627952e-39
0.033705734 0.066694275 0.75300002 5.0711492e-39
0.035139993 0.066694245 0.75300008 9.8617262e-39
0.036574274 0.066694252 0.75300008 1.4658718e-38
0.038109545 0.066871405 0.75500005 1.6134926e-38
0.039599992 0.066959977 0.7560001 1.7511724e-38
0.041040018 0.066959977 0.7560001 1.7513144e-38
0.042480014 0.066959977 0.75600004 1.7421682e-38
-0.027968574 0.068128541 0.75300008 6.9971022e-39
-0.026534293 0.068128556 0.75300008 6.8030154e-39
-0.025066655 0.068038061 0.75200009 5.9757658e-39
-0.023634266 0.068038084 0.75200009 5.1564967e-39
-0.022201885 0.068038076 0.75200009 7.2842143e-39
-0.020769507 0.068038076 0.75200003 9.4079157e-39
-0.019337129 0.068038076 0.75200003 1.0326635e-38
-0.017857131 0.067857131 0.75000006 1.1256053e-38
-0.016384782 0.067676164 0.74800009 1.0694578e-38
-0.014960021 0.067676172 0.74800009 1.0231791e-38
-0.01353524 0.067676179 0.74800003 8.4746958e-39
-0.012094299 0.067585684 0.7470001 6.6261477e-39
-0.010671422 0.067585692 0.74700004 6.3527936e-39
-0.0092237964 0.067404754 0.74500006 6.1806833e-39
-0.0078047491 0.067404762 0.74500012 8.1146896e-39
-0.0063856966 0.067404762 0.74500006 1.014363e-38
-0.0049666488 0.067404762 0.74500012 7.0900475e-39
-0.0035380912 0.067223787 0.74300009 4.0412004e-39
-0.0021200064 0.067133307 0.7420001 5.9848322e-39
-0.00070666661 0.067133322 0.74200004 7.93491e-39
0.00070762215 0.067223787 0.74300009 6.632361e-39
0.0021200064 0.067133307 0.7420001 5.3308603e-39
0.0035333256 0.067133322 0.7420001 9.4835256e-39
0.0049466654 0.067133307 0.7420001 1.3637704e-38
0.0063685724 0.067223787 0.74300009 1.6504751e-38
0.0077838316 0.067223795 0.74300009 1.9364605e-38
0.0091990614 0.067223787 0.74300003 1.6503752e-38
0.0106143 0.067223787 0.74300009 1.3636988e-38
0.012029531 0.067223802 0.74300003 7.7256625e-39
0.013480972 0.067404747 0.74500006 1.9289364e-39
0.01490002 0.067404762 0.74500012 5.1564827e-39
0.016319057 0.067404762 0.74500006 8.3692607e-39
0.017738106 0.067404762 0.74500006 8.8341471e-39
0.019157173 0.067404769 0.74500006 9.3855678e-39
0.02057622 0.067404747 0.74500006 1.1894591e-38
0.022054277 0.067585692 0.7470001 1.4394966e-38
0.023477137 0.067585692 0.7470001 1.1342162e-38
0.024900012 0.067585692 0.74700004 8.2835629e-39
0.026358079 0.067676172 0.74800009 7.6374382e-39
0.02785717 0.067857146 0.75000006 6.9985708e-39
0.02928574 0.067857131 0.75000006 6.7248916e-39
0.030796211 0.068038084 0.75200009 6.4493487e-39
0.032271419 0.068128541 0.75300002 6.4471598e-39
0.033795252 0.068309508 0.755 6.5365655e-39
0.035140015 0.068128556 0.75300002 1.1339355e-38
0.036574297 0.068128541 0.75300002 1.6138494e-38
0.038008563 0.068128556 0.75300008 1.6686652e-38
0.039599996 0.068399973 0.7560001 1.7234786e-38
0.041040018 0.068399981 0.7560001 1.7419882e-38
-0.027968567 0.069562837 0.75300002 7.6525764e-39
-0.02653427 0.069562837 0.75300002 7.6410577e-39
-0.025066666 0.069470443 0.75200009 6.6161214e-39
-0.023634274 0.069470465 0.75200009 5.6170979e-39
-0.022201896 0.06947045 0.75200009 6.8246388e-39
-0.020714276 0.069285691 0.75000012 7.9313325e-39
-0.019337138 0.069470458 0.75200009 1.0596001e-38
-0.017857112 0.069285713 0.75000006 1.3269992e-38
-0.016428543 0.069285713 0.75000006 1.3376896e-38
-0.014960023 0.069100924 0.74800009 1.3367919e-38
-0.013535242 0.069100939 0.74800003 1.2908375e-38
-0.012094297 0.069008552 0.7470001 1.2341889e-38
-0.01067142 0.069008552 0.7470001 1.2144538e-38
-0.0092485789 0.069008559 0.7470001 1.1972049e-38
-0.0078257229 0.069008552 0.7470001 1.2433442e-38
-0.0063857031 0.068823799 0.74500012 1.2803244e-38
-0.0049666478 0.068823807 0.74500006 8.3893469e-39
-0.0035476028 0.068823807 0.74500006 3.9583192e-39
-0.0021228394 0.068639033 0.74300003 4.1330556e-39
-0.0007076147 0.06863901 0.74300009 4.3278276e-39
0.00070762867 0.068639033 0.74300003 3.0309904e-39
0.0021200054 0.068546638 0.74200004 1.7510415e-39
0.0035333247 0.068546638 0.7420001 7.7329142e-39
0.0049466644 0.068546638 0.7420001 1.3633751e-38
0.0063685658 0.068639025 0.74300009 1.5766822e-38
0.0077838232 0.068639025 0.74300003 1.7786868e-38
0.0092238327 0.068823799 0.74500006 1.6137083e-38
0.010642882 0.068823799 0.74500012 1.445165e-38
0.012061921 0.068823807 0.74500006 7.5308778e-39
0.013517139 0.069008566 0.74700004 6.5400281e-40
0.014939995 0.069008552 0.74700004 5.0782748e-39
0.016319053 0.068823799 0.74500006 9.3945389e-39
0.017738121 0.068823807 0.74500006 8.3854219e-39
0.019157168 0.068823807 0.74500006 7.3738035e-39
0.020576186 0.068823792 0.74500012 9.8619799e-39
0.022083793 0.069100931 0.74800003 1.2347633e-38
0.023508554 0.069100931 0.74800003 8.4833642e-39
0.024933314 0.069100916 0.74800009 4.5154124e-39
0.026428591 0.069285706 0.75000006 5.3354635e-39
0.02785716 0.069285713 0.75000006 6.0784334e-39
0.029363822 0.069470443 0.75200009 5.7136389e-39
0.030796202 0.069470465 0.75200009 5.3487857e-39
0.032357153 0.069747612 0.75500005 6.6323064e-39
0.033795245 0.069747604 0.755 7.9356611e-39
0.035140015 0.069562837 0.75300008 1.2728047e-38
0.0365743 0.069562837 0.75300002 1.7512452e-38
0.038008582 0.069562823 0.75300002 1.723837e-38
0.0396 0.069839984 0.7560001 1.696107e-38
-0.026534282 0.070997119 0.75300002 9.0333416e-39
-0.025066659 0.070902832 0.75200009 7.1811418e-39
-0.023634262 0.070902839 0.75200009 5.3408627e-39
-0.022142839 0.070714265 0.75000006 6.541917e-39
-0.020714268 0.070714265 0.75000006 7.7436734e-39
-0.019285701 0.070714265 0.75000006 9.3073908e-39
-0.017904755 0.070902824 0.75200009 1.096336e-38
-0.01642856 0.07071428 0.75000012 1.1342241e-38
-0.014999991 0.070714265 0.75000012 1.1719276e-38
-0.013535245 0.070525691 0.74800003 1.1991201e-38
-0.012094277 0.070431404 0.74700004 1.2269482e-38
-0.010671434 0.070431411 0.7470001 1.2256471e-38
-0.009248578 0.070431411 0.7470001 1.2353374e-38
-0.007825722 0.070431404 0.7470001 1.2347679e-38
-0.0063856882 0.070242845 0.74500006 1.234906e-38
-0.0049666553 0.070242852 0.74500006 9.8529457e-39
-0.0035476019 0.070242859 0.74500006 7.3504775e-39
-0.0021228655 0.07005427 0.74300009 7.2676593e-39
-0.00070760725 0.070054263 0.74300003 7.1707539e-39
0.00070763798 0.07005427 0.74300003 4.8723064e-39
0.0021228609 0.07005427 0.74300009 2.5721534e-39
0.0035381061 0.070054263 0.74300003 6.3557433e-39
0.0049466747 0.069959976 0.7420001 1.0234037e-38
0.0063685882 0.070054263 0.74300003 1.152264e-38
0.007783799 0.070054248 0.74300009 1.2807631e-38
0.0091990568 0.070054278 0.74300009 1.142401e-38
0.010614316 0.07005427 0.74300003 1.0031688e-38
0.012061915 0.070242845 0.74500006 6.164113e-39
0.013517153 0.070431404 0.74700004 2.2205886e-39
0.014940009 0.070431411 0.7470001 5.4474062e-39
0.016319068 0.070242852 0.74500006 8.6735092e-39
0.017738115 0.070242852 0.74500006 7.6536554e-39
0.019208569 0.070431419 0.7470001 6.6369741e-39
0.020659056 0.070525683 0.74800003 7.1865185e-39
0.022083819 0.070525698 0.74800003 7.7418209e-39
0.023508551 0.070525691 0.74800003 6.3567397e-39
0.024933312 0.070525691 0.74800009 5.0513348e-39
0.026428588 0.070714265 0.75000012 5.9840615e-39
0.027857158 0.070714273 0.75000012 7.0011057e-39
0.029363835 0.070902832 0.75200009 6.4533592e-39
0.030837158 0.070997126 0.75300002 5.9062825e-39
0.032357141 0.071185693 0.75500005 7.8459388e-39
0.033840001 0.071279988 0.75600004 9.8861284e-39
0.035233341 0.071185678 0.75500005 1.3378108e-38
0.03667143 0.071185701 0.75500005 1.6965397e-38
0.038109526 0.071185693 0.75500005 1.6871374e-38
-0.026534282 0.072431415 0.75300008 1.0315074e-38
-0.025099998 0.0724314 0.75300002 7.6417542e-39
-0.023634274 0.072335213 0.75200009 4.9738837e-39
-0.022201894 0.072335213 0.75200009 6.2588856e-39
-0.020769518 0.072335206 0.75200009 7.4602804e-39
-0.019285696 0.072142854 0.75000006 8.1099448e-39
-0.017904744 0.072335213 0.75200009 8.6627753e-39
-0.016428556 0.072142847 0.75000006 9.4010718e-39
-0.014999986 0.072142854 0.75000006 1.0050397e-38
-0.013535247 0.071950451 0.74800003 1.11589e-38
-0.012094288 0.071854278 0.7470001 1.2163671e-38
-0.010671434 0.071854264 0.7470001 1.2442729e-38
-0.009248578 0.071854264 0.7470001 1.262175e-38
-0.0078257145 0.071854278 0.74700004 1.2254065e-38
-0.0063857068 0.07166189 0.74500006 1.178589e-38
-0.0049666404 0.071661912 0.74500006 1.1231619e-38
-0.0035476065 0.071661897 0.74500006 1.0679562e-38
-0.0021228581 0.071469501 0.74300009 1.0415926e-38
-0.0007076147 0.071469508 0.74300003 1.0033472e-38
0.00070762401 0.071469493 0.74300009 6.7158686e-39
0.0021228692 0.071469501 0.74300003 3.4112467e-39
0.0035380921 0.071469501 0.74300009 5.067894e-39
0.0049533364 0.071469493 0.74300003 6.7306201e-39
0.0063685798 0.071469516 0.74300003 7.2816345e-39
0.0077838185 0.071469501 0.74300009 7.7397386e-39
0.0092238421 0.071661897 0.74500006 6.7187889e-39
0.010642861 0.071661897 0.74500012 5.6149287e-39
0.012061927 0.07166189 0.74500006 4.6893584e-39
0.013517139 0.071854278 0.7470001 3.7860898e-39
0.014939995 0.071854264 0.7470001 5.9083718e-39
0.01636285 0.071854264 0.7470001 7.9330729e-39
0.017809512 0.071950451 0.74800009 6.9185931e-39
0.019234294 0.071950451 0.74800003 5.9047957e-39
0.020659056 0.071950458 0.74800003 4.5053609e-39
0.022083815 0.071950451 0.74800003 3.049629e-39
0.023508577 0.071950458 0.74800009 4.3338967e-39
0.02500001 0.072142854 0.75000006 5.5284812e-39
0.026428578 0.072142839 0.75000006 6.7316767e-39
0.027931444 0.072335221 0.75200009 7.8326531e-39
0.029402845 0.0724314 0.75300008 7.1005082e-39
0.030919045 0.072623789 0.75500005 6.3733254e-39
0.032400005 0.072719976 0.7560001 9.0508719e-39
0.033840001 0.072719984 0.75600004 1.1718133e-38
0.035280004 0.072719984 0.7560001 1.4116344e-38
0.036720004 0.072719976 0.7560001 1.640504e-38
0.038160007 0.072719984 0.7560001 1.6503315e-38
-0.025100013 0.073865697 0.75300008 5.6181447e-39
-0.023665715 0.073865682 0.75300008 4.9703006e-39
-0.022201885 0.073767602 0.75200003 5.9851812e-39
-0.020769503 0.073767595 0.75200003 7.0861281e-39
-0.019337147 0.073767602 0.75200009 7.2773283e-39
-0.017904755 0.073767595 0.75200009 7.3705875e-39
-0.016428553 0.073571421 0.75000006 7.0957873e-39
-0.014999983 0.073571436 0.75000006 6.9125086e-39
-0.013535236 0.073375203 0.74800003 6.5430479e-39
-0.012094289 0.073277116 0.7470001 6.1714221e-39
-0.01068573 0.07337521 0.74800003 6.7271197e-39
-0.0092485696 0.073277131 0.74700004 7.374975e-39
-0.0078257136 0.073277131 0.7470001 6.9086074e-39
-0.0064028571 0.073277131 0.7470001 6.5333691e-39
