# .PCD v0.7 - Point Cloud Data file format
VERSION 0.7
FIELDS x y z rgb
SIZE 4 4 4 4
TYPE F F F F
COUNT 1 1 1 1
WIDTH 966
HEIGHT 1
VIEWPOINT 0 0 0 1 0 0 0
POINTS 966
DATA ascii
-0.0033857014 -0.057557128 0.71099997 1.4280194e-38
-0.0020314057 -0.057557128 0.71099997 1.0685286e-38
-0.00067047513 -0.056990497 0.704 7.0951034e-39
0.00067047292 -0.056990497 0.704 6.0788243e-39
0.0020114358 -0.056990482 0.704 4.9749907e-39
0.0033523876 -0.056990497 0.704 7.0032483e-39
0.0046933359 -0.056990482 0.704 9.112927e-39
0.0060342848 -0.056990482 0.704 1.0676972e-38
0.0073752478 -0.056990497 0.704 1.2331878e-38
0.0087161986 -0.056990482 0.704 1.3451194e-38
0.010042871 -0.056909539 0.70299995 1.4472805e-38
0.011381903 -0.056909524 0.70299995 1.1789068e-38
0.012684778 -0.056747623 0.70099998 9.0081743e-39
0.01406002 -0.056909539 0.70299995 9.5631319e-39
0.015399051 -0.056909524 0.70299995 1.0025894e-38
0.016738109 -0.056909554 0.70299995 8.9227876e-39
0.018102856 -0.056990482 0.704 7.8204337e-39
0.019471433 -0.05707141 0.70499992 1.0590596e-38
0.020814281 -0.05707144 0.70499998 1.3369021e-38
0.022157148 -0.05707144 0.70499998 1.5488811e-38
0.023499988 -0.05707144 0.70499998 1.760678e-38
0.024842856 -0.05707144 0.70499998 1.7973058e-38
0.026185723 -0.05707144 0.70499998 1.8432211e-38
0.027528564 -0.057071425 0.70499998 1.6497899e-38
0.028953336 -0.057233326 0.70699996 1.4649634e-38
0.030342871 -0.057314299 0.70799994 9.7550117e-39
0.031691454 -0.057314284 0.70799994 4.8676428e-39
0.033133347 -0.057476215 0.70999998 5.6066316e-39
0.034485739 -0.0574762 0.70999992 6.3539244e-39
0.035888586 -0.057557128 0.71099997 1.013143e-38
0.037242878 -0.057557128 0.71099991 1.390494e-38
0.038597155 -0.057557128 0.71099997 1.3909965e-38
0.039951447 -0.057557128 0.71099991 1.3998902e-38
0.041421928 -0.057719044 0.713 1.0593784e-38
0.042839989 -0.057800002 0.71400005 7.1879507e-39
0.044385698 -0.058042862 0.71700001 6.9888262e-39
0.045879029 -0.058204763 0.71900004 6.7147728e-39
0.047314305 -0.058285721 0.71999997 7.089665e-39
0.048820954 -0.058447637 0.722 7.5499243e-39
0.050196175 -0.058447637 0.722 7.2765758e-39
0.051571429 -0.058447637 0.722 7.0943341e-39
0.052946661 -0.058447637 0.72200006 7.0039279e-39
0.054321889 -0.058447637 0.722 6.9120812e-39
-0.027151426 -0.057783805 0.73099995 5.427676e-39
-0.025653323 -0.057546668 0.72799999 9.574645e-39
-0.024199978 -0.057388566 0.72599995 9.2238271e-39
-0.022722868 -0.057151444 0.72300005 8.8363583e-39
-0.02134571 -0.057151444 0.72299999 7.9911483e-39
-0.019940957 -0.057072408 0.722 7.0878797e-39
-0.018514283 -0.056914292 0.72000003 7.0986627e-39
-0.017142866 -0.056914292 0.71999997 6.9956771e-39
-0.015749522 -0.056835242 0.71899998 3.7656211e-39
-0.014320003 -0.05659809 0.71599996 5.5173465e-40
-0.012956191 -0.056598105 0.71599996 3.6770212e-40
-0.011560003 -0.056440003 0.71400005 9.2943923e-41
-0.0102 -0.056440003 0.71400005 4.043336e-39
-0.0088275922 -0.056360953 0.71299994 8.0141857e-39
-0.0074695079 -0.056360953 0.713 1.1524782e-38
-0.0061114104 -0.056360953 0.713 1.5013819e-38
-0.0047533074 -0.056360938 0.71299994 1.3452262e-38
-0.0033952233 -0.056360938 0.713 1.1780154e-38
-0.002031415 -0.056202866 0.71099997 8.8270116e-39
-0.00067047327 -0.055649512 0.704 5.8072415e-39
0.00067048968 -0.055649526 0.704 6.91684e-39
0.0020142894 -0.055728592 0.70499998 8.0159863e-39
0.0033571429 -0.055728577 0.70499998 8.5705768e-39
0.0046933526 -0.055649526 0.704 9.0261362e-39
0.0060343016 -0.055649512 0.704 1.1140115e-38
0.0073752506 -0.055649512 0.704 1.3257423e-38
0.0087161995 -0.055649512 0.704 1.4282391e-38
0.010042878 -0.055570476 0.70299995 1.5298973e-38
0.011381909 -0.055570476 0.70299995 1.4193294e-38
0.012720968 -0.055570491 0.70299995 1.306186e-38
0.014060025 -0.055570476 0.70299995 1.3248411e-38
0.015420956 -0.055649526 0.704 1.3337014e-38
0.016738115 -0.055570491 0.70299995 1.1498149e-38
0.018102853 -0.055649526 0.704 9.5696368e-39
0.01947144 -0.055728577 0.70499998 1.3357526e-38
0.020814307 -0.055728577 0.70499998 1.7046046e-38
0.022157148 -0.055728577 0.70499998 1.7706865e-38
0.023500016 -0.055728562 0.70499998 1.8248911e-38
0.024842855 -0.055728577 0.70499992 1.7505978e-38
0.026185723 -0.055728577 0.70499992 1.6775235e-38
0.027528571 -0.055728577 0.70500004 1.7244453e-38
0.028953357 -0.055886678 0.7069999 1.7684206e-38
0.030342855 -0.055965699 0.70799994 1.3533619e-38
0.031780958 -0.056123801 0.70999998 9.3859153e-39
0.033180028 -0.056202866 0.71099991 8.7247337e-39
0.034534302 -0.056202866 0.71099997 8.1023778e-39
0.035888597 -0.056202866 0.71099991 1.095901e-38
0.037242871 -0.056202866 0.71099997 1.3724504e-38
0.038597167 -0.056202851 0.71099997 1.4096174e-38
0.03995144 -0.056202866 0.71099997 1.4464573e-38
0.041305736 -0.056202851 0.71099997 1.1706617e-38
0.042780016 -0.056360953 0.713 8.841389e-39
0.04432378 -0.056598119 0.71600002 8.5418166e-39
0.045879047 -0.056835227 0.71899998 8.2821097e-39
0.04731429 -0.056914277 0.71999997 8.2953996e-39
0.048820954 -0.057072408 0.722 8.2003271e-39
0.050196178 -0.057072394 0.722 7.7382714e-39
0.05142859 -0.056914277 0.71999997 7.186534e-39
0.052799989 -0.056914292 0.72000003 7.0954075e-39
0.05439714 -0.057151444 0.72300005 6.912447e-39
-0.027151443 -0.05639144 0.73100001 5.8965911e-39
-0.025653321 -0.056159995 0.72799999 9.8710266e-39
-0.0242 -0.056005709 0.72599995 1.0055096e-38
-0.022722855 -0.055774294 0.72300005 1.0232241e-38
-0.021345712 -0.055774279 0.72299999 8.1013016e-39
-0.019940954 -0.055697151 0.722 6.0974616e-39
-0.018514302 -0.055542879 0.72000003 8.2997577e-39
-0.017142858 -0.055542864 0.72000003 1.050303e-38
-0.015749523 -0.055465721 0.71899998 7.9168669e-39
-0.014320001 -0.055234291 0.71599996 5.3271776e-39
-0.01295619 -0.055234306 0.71599996 2.939096e-39
-0.011559996 -0.055079989 0.71400005 5.5138292e-40
-0.010200008 -0.055080019 0.71400005 3.0356132e-39
-0.0088275941 -0.055002846 0.713 5.5263246e-39
-0.0074695116 -0.055002861 0.713 7.6464639e-39
-0.0061114067 -0.055002846 0.71299994 9.8552032e-39
-0.0047533242 -0.055002861 0.713 8.7431551e-39
-0.0033952252 -0.055002846 0.713 7.7146063e-39
-0.0020142712 -0.054385729 0.70499998 7.0846077e-39
-0.00067047699 -0.054308586 0.704 6.5433478e-39
0.00067047292 -0.054308571 0.704 7.190927e-39
0.0020114209 -0.054308571 0.704 7.8366412e-39
0.0033523857 -0.054308571 0.704 8.9379454e-39
0.0046933359 -0.054308571 0.704 1.0127467e-38
0.0060342839 -0.054308571 0.704 1.1968447e-38
0.0073752329 -0.054308571 0.704 1.3897059e-38
0.0087161958 -0.054308556 0.704 1.3819998e-38
0.010042863 -0.054231443 0.70299995 1.3839298e-38
0.011381894 -0.054231457 0.70299995 1.1787993e-38
0.012720954 -0.054231443 0.70299995 9.7364221e-39
0.014080008 -0.054308586 0.704 1.0024861e-38
0.015420943 -0.054308571 0.704 1.0309692e-38
0.016761906 -0.054308571 0.704 8.0008873e-39
0.0181286 -0.054385714 0.70499992 5.6946331e-39
0.019471418 -0.054385729 0.70499998 1.0225458e-38
0.020814287 -0.054385729 0.70499998 1.484273e-38
0.022157155 -0.054385729 0.70499998 1.6594087e-38
0.023499994 -0.054385714 0.70499998 1.8339311e-38
0.024842862 -0.054385729 0.70499998 1.7140059e-38
0.026185729 -0.054385714 0.70499998 1.5937965e-38
0.027528569 -0.054385714 0.70499998 1.5572792e-38
0.028953355 -0.054540001 0.70699996 1.5206856e-38
0.030342862 -0.054617144 0.70799994 1.35441e-38
0.031780962 -0.054771446 0.70999992 1.1887396e-38
0.033180021 -0.054848574 0.71099997 1.0682335e-38
0.034534317 -0.054848574 0.71099997 9.4935351e-39
0.03588859 -0.054848574 0.71099997 1.1792689e-38
0.037242886 -0.054848574 0.71099997 1.4100461e-38
0.038597163 -0.054848589 0.71099997 1.4836624e-38
0.039951455 -0.054848589 0.71099997 1.5576319e-38
0.041421916 -0.055002861 0.713 1.2074721e-38
0.04284 -0.055080019 0.71399999 8.5723817e-39
0.04438572 -0.055311449 0.71699995 7.3616234e-39
0.045879044 -0.055465721 0.71899998 6.1788981e-39
0.047445703 -0.055697165 0.72200006 6.9175421e-39
0.048888572 -0.055774294 0.72299999 7.7476279e-39
0.050265726 -0.055774294 0.72299999 7.4642068e-39
0.051642839 -0.055774294 0.72300005 7.092909e-39
0.053019997 -0.055774294 0.72300005 7.0946928e-39
0.054397155 -0.055774294 0.72299999 7.1879605e-39
-0.022722857 -0.054397158 0.72299999 1.1509699e-38
-0.021345735 -0.054397158 0.72300005 8.2677632e-39
-0.019968575 -0.054397158 0.72300005 4.9818276e-39
-0.01851427 -0.054171421 0.71999997 9.4997582e-39
-0.017142877 -0.054171436 0.72000003 1.3909979e-38
-0.015749536 -0.0540962 0.71900004 1.1979964e-38
-0.014320019 -0.053870507 0.71600002 1.0031999e-38
-0.012956187 -0.053870507 0.71599996 5.5104899e-39
-0.01159239 -0.053870507 0.71599996 9.2266536e-40
-0.010199991 -0.053720005 0.71399999 1.9289154e-39
-0.0088400012 -0.053720005 0.71399999 2.9452197e-39
-0.0074695116 -0.053644754 0.713 3.8632313e-39
-0.0061114067 -0.053644754 0.713 4.692992e-39
-0.0047199829 -0.053268559 0.70799994 4.1341009e-39
-0.0033666634 -0.053193338 0.70699996 3.5898842e-39
-0.0020142787 -0.053042866 0.70499998 5.4369792e-39
-0.00067047513 -0.052967615 0.704 7.1869249e-39
0.00067048782 -0.05296763 0.704 7.3753085e-39
0.0020114377 -0.052967615 0.704 7.5607647e-39
0.0033571485 -0.053042866 0.70499998 9.3999788e-39
0.004686675 -0.052892379 0.70299995 1.1234861e-38
0.0060343016 -0.05296763 0.704 1.2892173e-38
0.0073752506 -0.052967615 0.704 1.4451618e-38
0.0087161986 -0.05296763 0.704 1.3352855e-38
0.010042871 -0.052892379 0.70299995 1.2243255e-38
0.0113819 -0.052892379 0.70299995 9.3830427e-39
0.012720959 -0.052892379 0.70299995 6.4378678e-39
0.014080024 -0.052967615 0.704 6.8041518e-39
0.015420959 -0.05296763 0.704 7.1721987e-39
0.016761923 -0.052967615 0.704 4.5003471e-39
0.018128578 -0.053042851 0.70499998 1.7521107e-39
0.019526666 -0.053193338 0.70699996 7.1908668e-39
0.020814285 -0.053042851 0.70499998 1.2622493e-38
0.022157153 -0.053042851 0.70499998 1.5487746e-38
0.023500022 -0.053042836 0.70499998 1.8334635e-38
0.02484286 -0.053042851 0.70499992 1.6776291e-38
0.026185708 -0.053042866 0.70499998 1.5107453e-38
0.027606679 -0.053193338 0.70699996 1.3901738e-38
0.028953355 -0.053193323 0.70699996 1.2624296e-38
0.030342873 -0.053268574 0.70799994 1.3548753e-38
0.031780943 -0.053419046 0.70999998 1.4368416e-38
0.033180032 -0.053494282 0.71099997 1.262314e-38
0.034534309 -0.053494282 0.71099997 1.0872533e-38
0.035888601 -0.053494282 0.71099997 1.2617772e-38
0.037242878 -0.053494282 0.71099997 1.4369139e-38
0.038705718 -0.053644769 0.713 1.557308e-38
0.040063817 -0.053644754 0.713 1.6672558e-38
0.041421931 -0.053644769 0.713 1.2443068e-38
0.042839997 -0.05371999 0.71399999 8.1927896e-39
0.044571418 -0.054171436 0.72000003 6.0615421e-39
0.045942832 -0.054171421 0.72000003 3.963696e-39
0.047511425 -0.054397158 0.72300005 5.6311039e-39
0.048888583 -0.054397158 0.72299999 7.2826882e-39
0.050265711 -0.054397158 0.72299999 7.1865269e-39
0.051642846 -0.054397158 0.72300005 7.0017812e-39
0.053020008 -0.054397158 0.72300005 7.1865297e-39
0.05439714 -0.054397158 0.72299999 7.3705511e-39
-0.02436666 -0.053606667 0.73099995 6.8243852e-39
-0.022974286 -0.053606682 0.73099995 7.6450893e-39
-0.021316206 -0.052946679 0.72200006 5.0599865e-39
-0.019940956 -0.052946679 0.722 2.5822918e-39
-0.018514292 -0.052799992 0.71999997 6.9208716e-39
-0.017142847 -0.052799992 0.71999997 1.1351208e-38
-0.015749533 -0.052726679 0.71899998 1.1528771e-38
-0.014320019 -0.052506678 0.71600002 1.1708045e-38
-0.012956208 -0.052506678 0.71600002 9.3030089e-39
-0.011592389 -0.052506678 0.71599996 6.8116123e-39
-0.010199997 -0.052360006 0.71399999 4.9720326e-39
-0.0088276109 -0.052286677 0.713 3.1256369e-39
-0.0074695079 -0.052286677 0.71299994 2.7582949e-39
-0.006094276 -0.052140005 0.71099997 2.389162e-39
-0.0047199884 -0.051920019 0.70799994 2.6671825e-39
-0.0033666615 -0.051846661 0.70699996 3.0428019e-39
-0.0020199839 -0.051846676 0.70699996 5.1615007e-39
-0.00067047699 -0.051626675 0.704 7.3709658e-39
0.00067047292 -0.051626675 0.704 7.5578963e-39
0.0020114209 -0.051626675 0.704 7.6511555e-39
0.0033523689 -0.051626675 0.704 8.6616921e-39
0.004693334 -0.05162666 0.704 9.5810924e-39
0.0060342839 -0.051626675 0.704 1.0590535e-38
0.0073752329 -0.051626675 0.704 1.1602882e-38
0.0087161958 -0.051626675 0.704 1.0858515e-38
0.010057144 -0.05162669 0.704 1.0194135e-38
0.011398095 -0.051626675 0.704 8.3674614e-39
0.012739058 -0.05162669 0.704 6.6229639e-39
0.014100001 -0.051700003 0.70499992 5.97511e-39
0.01544287 -0.051699989 0.70499992 5.4212048e-39
0.016785715 -0.051700003 0.70500004 3.2153368e-39
0.018180007 -0.051846661 0.70699996 1.010559e-39
0.019526687 -0.051846661 0.7069999 3.6852594e-39
0.02081429 -0.051700003 0.70499998 6.44759e-39
0.022157159 -0.051699989 0.70499998 1.0138677e-38
0.023566695 -0.051846661 0.70699996 1.3918987e-38
0.024913345 -0.051846646 0.70699996 1.3638085e-38
0.02626 -0.051846676 0.70699996 1.3446476e-38
0.027606677 -0.051846661 0.70699996 1.2157862e-38
0.028953355 -0.051846646 0.70699996 1.0869691e-38
0.030428603 -0.052066661 0.70999992 1.0131815e-38
0.031780977 -0.052066661 0.70999998 9.496496e-39
0.033180024 -0.052140005 0.71099997 1.0603899e-38
0.03453432 -0.05213999 0.71099997 1.1602943e-38
0.035888594 -0.052140005 0.71099997 1.0035256e-38
0.037347645 -0.052286677 0.713 8.3886981e-39
0.038705748 -0.052286677 0.71299994 1.1337144e-38
0.040063832 -0.052286677 0.713 1.4280843e-38
0.041480001 -0.052359991 0.71399999 1.077525e-38
0.043019991 -0.052580021 0.71699995 7.2553685e-39
0.044571418 -0.052799992 0.71999997 5.3275406e-39
0.045942862 -0.052800007 0.71999997 3.4008154e-39
0.047445703 -0.052946679 0.722 5.1622168e-39
0.048888568 -0.053019993 0.72299999 6.9120953e-39
0.050265703 -0.053020008 0.72300005 7.0028349e-39
0.051785704 -0.05316665 0.72500002 7.0006951e-39
0.053166673 -0.05316665 0.72499996 7.0939768e-39
0.054547619 -0.053166665 0.72500002 7.187236e-39
-0.028582839 -0.052285723 0.73199999 2.3927508e-39
-0.027188551 -0.052285708 0.73199999 2.1129353e-39
-0.025794271 -0.052285708 0.73199999 1.8457343e-39
-0.024366658 -0.052214287 0.73099995 2.7645026e-39
-0.022974283 -0.052214287 0.73099995 3.6871302e-39
-0.021345725 -0.051642872 0.72300005 1.9289504e-39
-0.019968567 -0.051642872 0.72299999 1.044668e-40
-0.018565714 -0.051571436 0.722 4.43296e-39
-0.017142868 -0.051428579 0.71999997 8.6707066e-39
-0.015749536 -0.051357158 0.71900004 1.1075331e-38
-0.014380009 -0.051357158 0.71899998 1.3362199e-38
-0.012974285 -0.051214285 0.71700001 1.3089869e-38
-0.011608584 -0.0512143 0.71700001 1.2706344e-38
-0.010228573 -0.051142864 0.71599996 8.0219755e-39
-0.0088399956 -0.051000006 0.71400005 3.315765e-39
-0.0074800095 -0.050999992 0.71400005 1.747387e-39
-0.0060942629 -0.050785728 0.71099997 9.3993496e-41
-0.0047333306 -0.050714292 0.70999998 1.2867816e-39
-0.0033714112 -0.050571404 0.70799994 2.3963759e-39
-0.0020228506 -0.050571419 0.70799994 4.9785682e-39
-0.00067142135 -0.050357141 0.70499998 7.5546452e-39
0.00067143404 -0.050357126 0.70499998 7.649729e-39
0.0020114377 -0.050285719 0.704 7.7415574e-39
0.0033523857 -0.050285734 0.704 7.8305161e-39
0.0046933359 -0.050285734 0.704 7.9223306e-39
0.0060342858 -0.050285719 0.704 8.2864229e-39
0.0073857307 -0.050357126 0.70499992 8.6566278e-39
0.0087285647 -0.050357141 0.70499998 8.3764493e-39
0.010071433 -0.050357141 0.70499998 8.0969856e-39
0.0114143 -0.050357141 0.70499998 7.452691e-39
0.01275714 -0.050357156 0.70499998 6.7154987e-39
0.014100009 -0.050357141 0.70499998 5.2360904e-39
0.015486682 -0.050499983 0.70699996 3.6748786e-39
0.016833331 -0.050499998 0.70699996 1.928921e-39
0.018180007 -0.050499998 0.70699996 1.8439686e-40
0.019526685 -0.050499998 0.70699996 2.7586662e-40
0.02087336 -0.050499983 0.7069999 2.8452104e-40
0.022220017 -0.050499998 0.70699996 4.883158e-39
0.023566667 -0.050499998 0.70699996 9.3927901e-39
0.024913345 -0.050499983 0.70699996 1.0594551e-38
0.02626002 -0.050499983 0.7069999 1.1698716e-38
0.027606677 -0.050499998 0.70699996 1.0413726e-38
0.028994303 -0.050571419 0.70799994 9.0182496e-39
0.030342862 -0.050571419 0.70799994 6.7962541e-39
0.031780977 -0.050714292 0.70999998 4.6184513e-39
0.033133347 -0.050714307 0.70999998 8.5086058e-39
0.034534309 -0.050785728 0.71099997 1.233764e-38
0.035888609 -0.050785713 0.71099997 7.3475964e-39
0.037242882 -0.050785728 0.71099997 2.4096869e-39
0.038705733 -0.05092857 0.713 7.1977303e-39
0.040063817 -0.050928555 0.713 1.1885612e-38
0.041479997 -0.050999992 0.71399999 9.1219037e-39
0.043019991 -0.051214285 0.71699995 6.2559653e-39
0.044571426 -0.051428579 0.72000003 4.5003036e-39
0.046070453 -0.051571436 0.72200006 2.7647815e-39
0.047445703 -0.051571436 0.722 4.7041155e-39
0.048888557 -0.051642872 0.72300005 6.5436813e-39
0.050265718 -0.051642872 0.72300005 6.8198926e-39
0.051785711 -0.05178573 0.72499996 7.0021357e-39
0.053166658 -0.05178573 0.72500002 7.0014266e-39
0.054547619 -0.05178573 0.72499996 7.0028602e-39
0.055928588 -0.05178573 0.72499996 7.0035776e-39
-0.030140948 -0.051169522 0.736 2.8547953e-39
-0.028660957 -0.051030494 0.73399997 1.2932331e-39
-0.02726287 -0.051030479 0.73399997 2.6664594e-39
-0.025864769 -0.051030479 0.73399997 4.1329575e-39
-0.024399996 -0.050891437 0.73200005 5.8946923e-39
-0.023005718 -0.050891437 0.73200005 7.6446016e-39
-0.021345712 -0.050265737 0.72300005 6.7244656e-39
-0.019968569 -0.050265722 0.72299999 5.7992821e-39
-0.018565711 -0.050196193 0.722 6.4503688e-39
-0.017142858 -0.05005715 0.72000003 7.1801216e-39
-0.015749514 -0.049987622 0.71899998 7.5619026e-39
-0.014340009 -0.049848594 0.71700001 7.932106e-39
-0.013010484 -0.049987622 0.71900004 9.036992e-39
-0.011608569 -0.049848579 0.71699995 1.0136784e-38
-0.010228594 -0.04977908 0.71600002 6.1701988e-39
-0.0088400031 -0.049640007 0.71400005 2.1125765e-39
-0.0074695079 -0.049570478 0.713 1.8381463e-39
-0.0061114049 -0.049570464 0.71299994 1.4722434e-39
-0.0047533205 -0.049570478 0.713 2.576426e-39
-0.003385681 -0.049431406 0.71099991 3.6752682e-39
-0.0020228543 -0.049222849 0.70799994 5.5270897e-39
-0.00067332498 -0.049153335 0.70699996 7.4642531e-39
0.00067142845 -0.049014293 0.70499998 7.6500835e-39
0.0020142801 -0.049014308 0.70499998 7.8348293e-39
0.0033571485 -0.049014293 0.70499998 8.0149115e-39
0.0047000041 -0.049014293 0.70499998 8.194984e-39
0.0060428688 -0.049014293 0.70499998 8.654509e-39
0.007417147 -0.049222864 0.70799994 9.1161794e-39
0.0087657282 -0.049222849 0.70799994 9.115801e-39
0.01011431 -0.049222849 0.70799994 9.2115672e-39
0.011446672 -0.049153335 0.70699996 9.1139765e-39
0.012793348 -0.049153335 0.70699996 9.0196201e-39
0.014140026 -0.049153335 0.70699996 6.3456189e-39
0.015508587 -0.049222834 0.70799994 3.6748632e-39
0.016857147 -0.049222849 0.70799994 2.6643196e-39
0.018257154 -0.049361907 0.70999998 1.654841e-39
0.019609526 -0.049361907 0.70999998 1.9306992e-39
0.020902872 -0.049222849 0.70799994 2.204412e-39
0.022251453 -0.049222834 0.70799994 4.504963e-39
0.023600006 -0.049222849 0.70799994 6.7043794e-39
0.024948588 -0.049222834 0.70799994 9.207282e-39
0.026297148 -0.049222834 0.70799994 1.1788385e-38
0.027723826 -0.049361907 0.70999998 8.931463e-39
0.029076196 -0.049361922 0.70999998 6.1566174e-39
0.030471433 -0.049431436 0.71099997 4.4116925e-39
0.031825725 -0.049431421 0.71099997 2.7645194e-39
0.033180002 -0.049431436 0.71099997 6.6439778e-39
0.034534294 -0.049431436 0.71099997 1.0503095e-38
0.035989549 -0.049570464 0.71299994 8.0079849e-39
0.037347633 -0.049570478 0.713 5.5309979e-39
0.038759995 -0.049640007 0.71400005 9.4046507e-39
0.040119987 -0.049640007 0.71400005 1.3177074e-38
0.041479994 -0.049639992 0.71399999 1.0319046e-38
0.043019999 -0.049848579 0.71700001 7.3601702e-39
0.044695251 -0.050196193 0.722 6.8101816e-39
0.046134278 -0.050265707 0.72299999 6.1673584e-39
0.047511432 -0.050265692 0.72299999 6.5415415e-39
0.048888568 -0.050265722 0.72300005 6.9121051e-39
0.050404776 -0.050404765 0.72499996 7.0032161e-39
0.051857162 -0.050474279 0.72599995 7.0943369e-39
0.053240016 -0.050474308 0.72599995 7.0025042e-39
0.054622885 -0.050474294 0.72599995 7.0028742e-39
0.056237143 -0.05068288 0.72900003 7.0036014e-39
0.05762573 -0.050682865 0.72899997 6.9121149e-39
-0.030140953 -0.049767621 0.736 2.5757351e-39
-0.028660949 -0.049632378 0.73399997 1.879954e-40
-0.027262848 -0.049632393 0.73399997 3.3100253e-39
-0.025864746 -0.049632378 0.73399997 6.3564145e-39
-0.024399986 -0.04949715 0.73199999 9.0368967e-39
-0.023005709 -0.04949715 0.73199999 1.1608307e-38
-0.021434279 -0.049091436 0.72599995 1.15251e-38
-0.01994095 -0.04882095 0.722 1.1421775e-38
-0.018565711 -0.04882095 0.722 8.5734299e-39
-0.01719049 -0.04882095 0.72200006 5.7172067e-39
-0.015771434 -0.048685722 0.72000003 4.0591497e-39
-0.014380006 -0.048618101 0.71899998 2.4140393e-39
-0.01301048 -0.048618086 0.71899998 4.9890583e-39
-0.011608578 -0.048482873 0.71700001 7.5578584e-39
-0.010242856 -0.048482873 0.71699995 4.2251517e-39
-0.0088400086 -0.048280008 0.71400005 9.187249e-40
-0.0074800001 -0.048279993 0.71399999 1.9289266e-39
-0.0061114049 -0.048212372 0.713 2.854452e-39
-0.0047533205 -0.048212372 0.713 3.9636498e-39
-0.0033857033 -0.048077159 0.71099997 4.9735095e-39
-0.0020285503 -0.048009522 0.70999998 6.1742149e-39
-0.00067332498 -0.047806673 0.70699996 7.2805765e-39
0.00067333953 -0.047806658 0.70699996 7.6511793e-39
0.0020142931 -0.04767143 0.70499998 7.9259557e-39
0.0033666927 -0.047806658 0.70699996 8.1985811e-39
0.0047133351 -0.047806658 0.70699996 8.4711911e-39
0.0060685957 -0.047874279 0.70799994 9.0200251e-39
0.0074171573 -0.047874279 0.70799994 9.4813592e-39
0.0087657245 -0.047874279 0.70799994 9.8512179e-39
0.010114321 -0.047874279 0.70799994 1.0220003e-38
0.011511455 -0.048077159 0.71099997 1.0772102e-38
0.01286573 -0.048077159 0.71099997 1.1227292e-38
0.014220024 -0.048077159 0.71099997 7.4512322e-39
0.015574301 -0.048077159 0.71099997 3.6788148e-39
0.016904766 -0.048009522 0.70999998 3.3990148e-39
0.018282868 -0.048077159 0.71099997 3.1256509e-39
0.019609528 -0.048009522 0.70999998 3.6795225e-39
0.020961918 -0.048009522 0.70999992 4.1372749e-39
0.022251435 -0.047874294 0.70799994 4.1358497e-39
0.023666678 -0.048009537 0.70999998 4.0497582e-39
0.024948597 -0.047874264 0.70799994 7.9247884e-39
0.02637144 -0.048009537 0.70999998 1.178189e-38
0.02772383 -0.048009522 0.70999992 7.5502928e-39
0.0290762 -0.048009537 0.70999998 3.3122029e-39
0.030471444 -0.048077159 0.71099997 2.1125765e-39
0.031825718 -0.048077159 0.71099997 8.3485159e-40
0.033180013 -0.048077159 0.71099997 4.7070891e-39
0.034534287 -0.048077159 0.71099997 8.5608714e-39
0.035888582 -0.048077144 0.71099997 8.6497572e-39
0.037347618 -0.048212372 0.713 8.6630976e-39
0.038705751 -0.048212387 0.71299994 1.1620556e-38
0.040120002 -0.048279993 0.71399999 1.4465271e-38
0.041479986 -0.048279993 0.71399999 1.1525425e-38
0.043019995 -0.048482858 0.71700001 8.4754791e-39
0.044757131 -0.048888586 0.72299999 9.0286417e-39
0.046134289 -0.048888586 0.72299999 9.575703e-39
0.047642849 -0.0490238 0.72500002 8.4740288e-39
0.049023814 -0.049023814 0.72499996 7.2787184e-39
0.050474305 -0.049091421 0.72599995 7.1865101e-39
0.051999997 -0.049226694 0.72800004 7.0943257e-39
0.053460009 -0.049294285 0.72899997 7.0943355e-39
0.05484857 -0.0492943 0.72899997 7.0028658e-39
-0.028660946 -0.048234291 0.73399997 3.950039e-39
-0.027262844 -0.048234291 0.73399997 6.2634692e-39
-0.025864758 -0.048234291 0.73399997 8.6702722e-39
-0.024399988 -0.048102863 0.73200005 1.0050383e-38
-0.023005713 -0.048102848 0.73200005 1.1523002e-38
-0.021434285 -0.047708578 0.72600001 1.124644e-38
-0.020051412 -0.047708578 0.72599995 1.097272e-38
-0.018642846 -0.047642879 0.72499996 9.678407e-39
-0.01721428 -0.047511436 0.72299999 8.2900313e-39
-0.01577143 -0.047314279 0.71999997 8.0151596e-39
-0.014399987 -0.047314279 0.71999997 7.8283441e-39
-0.013010481 -0.04724858 0.71900004 9.8645919e-39
-0.011640957 -0.04724858 0.71900004 1.1982107e-38
-0.010242864 -0.047117151 0.71700001 7.8264663e-39
-0.0088647781 -0.047051452 0.71600002 3.7656365e-39
-0.007479989 -0.046919994 0.71399999 2.6665e-39
-0.0061114216 -0.046854295 0.713 1.5727151e-39
-0.0047533037 -0.046854295 0.71299994 3.2271778e-39
-0.0033856903 -0.046722867 0.71099997 4.9788793e-39
-0.0020285484 -0.046657138 0.70999992 6.0837849e-39
-0.00067332684 -0.04646001 0.70699996 7.2816485e-39
0.00067333766 -0.046459995 0.70699996 7.559362e-39
0.0020200133 -0.046459995 0.70699996 7.835565e-39
0.0033666759 -0.046459995 0.70699996 8.1078204e-39
0.0047200238 -0.046525694 0.70799994 8.3786214e-39
0.006068591 -0.046525694 0.70799994 9.3912795e-39
0.0074381251 -0.046657138 0.70999992 1.0397195e-38
0.0087904939 -0.046657152 0.70999998 1.0770664e-38
0.010142884 -0.046657138 0.70999998 1.1136964e-38
0.011511448 -0.046722867 0.71099997 1.1327842e-38
0.012865743 -0.046722867 0.71099997 1.1605428e-38
0.014220017 -0.046722867 0.71099997 7.5484487e-39
0.015574314 -0.046722867 0.71099997 3.5884199e-39
0.016928587 -0.046722867 0.71099997 2.7579712e-39
0.018282881 -0.046722852 0.71099997 2.0236319e-39
0.019637156 -0.046722867 0.71099997 2.8522884e-39
0.020961899 -0.046657138 0.70999998 3.682056e-39
0.02231429 -0.046657138 0.70999998 4.3216955e-39
0.02366668 -0.046657123 0.70999992 4.9648831e-39
0.02501905 -0.046657138 0.70999998 7.2750988e-39
0.026371442 -0.046657123 0.70999992 9.669995e-39
0.027762868 -0.046722852 0.71099997 5.7978346e-39
0.029117161 -0.046722852 0.71099997 1.9289056e-39
0.030471455 -0.046722837 0.71099991 1.1942216e-39
0.031825732 -0.046722852 0.71099997 5.5140674e-40
0.033273332 -0.04685428 0.713 2.4871604e-39
0.034534302 -0.046722852 0.71099997 4.4142373e-39
0.035989549 -0.04685428 0.713 6.9066764e-39
0.03734763 -0.046854295 0.713 9.401736e-39
0.038759988 -0.046920009 0.71400005 1.1615189e-38
0.040119994 -0.046919994 0.71399999 1.3823846e-38
0.04165427 -0.047117151 0.71700001 1.0872494e-38
0.043139998 -0.04724858 0.71900004 7.9158678e-39
0.044757139 -0.047511436 0.72299999 8.3829822e-39
0.046261914 -0.047642864 0.72500002 8.9389796e-39
0.047642879 -0.047642849 0.72499996 8.1059651e-39
0.049091429 -0.047708593 0.72600001 7.2772722e-39
0.050613351 -0.047840022 0.72800004 7.1854143e-39
0.052071419 -0.047905736 0.72900003 7.0932369e-39
0.053606667 -0.048037134 0.73099995 7.0021357e-39
0.054999042 -0.048037134 0.73099995 6.9103058e-39
0.056391414 -0.048037149 0.73099995 6.9113862e-39
-0.028660946 -0.046836205 0.73399997 7.6395864e-39
-0.027188558 -0.046708547 0.73199999 9.3065962e-39
-0.025794264 -0.046708561 0.73199999 1.0873594e-38
-0.024366666 -0.04664477 0.73099995 1.1155255e-38
-0.022911413 -0.046517141 0.72899997 1.1335002e-38
-0.021493342 -0.046453349 0.72800004 1.0964454e-38
-0.020051431 -0.046325721 0.72599995 1.0509221e-38
-0.018642861 -0.046261914 0.72500002 1.0692891e-38
-0.01721428 -0.046134286 0.72299999 1.087329e-38
-0.015815249 -0.046070479 0.722 1.2066392e-38
-0.014399992 -0.045942865 0.71999997 1.3174183e-38
-0.013010477 -0.045879029 0.71899998 1.4841598e-38
-0.011640953 -0.045879044 0.71899998 1.6391643e-38
-0.010271426 -0.045879029 0.71899998 1.1516431e-38
-0.0088771498 -0.045751445 0.71700001 6.5300396e-39
-0.0075009642 -0.045687638 0.71600002 3.3982945e-39
-0.0061200066 -0.045560025 0.71400005 1.8835133e-40
-0.0047599981 -0.04556001 0.71399999 2.577505e-39
-0.0033952363 -0.045496188 0.713 4.8802391e-39
-0.0020371166 -0.045496188 0.71299994 6.0838172e-39
-0.0006742712 -0.045177154 0.70799994 7.1905417e-39
0.00067430997 -0.045177139 0.70799994 7.4689516e-39
0.0020228706 -0.045177139 0.70799994 7.7433707e-39
0.0033714368 -0.045177139 0.70799994 8.0181499e-39
0.0047333455 -0.045304768 0.70999998 8.2940025e-39
0.0060943076 -0.04536856 0.71099997 9.7690976e-39
0.007448582 -0.045368575 0.71099997 1.1234152e-38
0.0088028768 -0.04536856 0.71099997 1.1605075e-38
0.010142887 -0.045304753 0.70999992 1.1972069e-38
0.011511461 -0.045368575 0.71099997 1.1980691e-38
0.012865736 -0.045368575 0.71099997 1.1876615e-38
0.01422003 -0.045368575 0.71099997 7.6399437e-39
0.01555241 -0.045304768 0.70999998 3.4072656e-39
0.016904777 -0.045304768 0.70999998 2.1126074e-39
0.018257169 -0.045304768 0.70999998 8.2833134e-40
0.019609559 -0.045304768 0.70999992 2.0236137e-39
0.020961929 -0.045304768 0.70999998 3.2182038e-39
0.022314321 -0.045304768 0.70999998 4.5031931e-39
0.023666689 -0.045304768 0.70999998 5.7931837e-39
0.025019052 -0.045304783 0.70999998 6.6329664e-39
0.026371423 -0.045304783 0.70999998 7.4569818e-39
0.027762879 -0.045368575 0.71099997 4.0418562e-39
0.029117174 -0.045368575 0.71099991 5.5174025e-40
0.030557148 -0.045496188 0.71299994 3.6770212e-40
0.031915259 -0.045496188 0.713 1.8404794e-40
0.033273365 -0.045496188 0.71299994 2.7590025e-40
0.03463145 -0.045496188 0.713 2.819987e-40
0.035989534 -0.045496188 0.713 5.1611196e-39
0.037399992 -0.045560025 0.71400005 1.0042796e-38
0.038760003 -0.045559995 0.71399999 1.1613733e-38
0.040232379 -0.045687623 0.71599996 1.3081635e-38
0.041770477 -0.045879044 0.71899998 1.0224302e-38
0.043199982 -0.04594285 0.72000003 7.2805569e-39
0.044695232 -0.046070494 0.72200006 7.8315825e-39
0.046261918 -0.046261899 0.72499996 8.2907361e-39
0.047708575 -0.046325706 0.72600001 7.8250776e-39
0.049091447 -0.046325706 0.72599995 7.2758443e-39
0.050613336 -0.046453349 0.72800004 7.1847123e-39
0.052214295 -0.04664477 0.73099995 7.0014084e-39
0.053679999 -0.046708561 0.73199999 6.9106589e-39
0.055074308 -0.046708561 0.73199999 6.8184661e-39
0.056468587 -0.046708561 0.73200005 6.8184689e-39
-0.030140942 -0.045561902 0.736 7.178604e-39
-0.02866096 -0.045438118 0.73399997 7.4548238e-39
-0.027188569 -0.045314305 0.73199999 8.5622265e-39
-0.02579429 -0.04531429 0.73199999 9.6779277e-39
-0.024366664 -0.04525239 0.73099995 9.9470191e-39
-0.022911403 -0.045128576 0.72899997 1.0319766e-38
-0.021493323 -0.045066677 0.72799999 1.0412343e-38
-0.020051416 -0.044942863 0.72599995 1.0508487e-38
-0.018642858 -0.044880949 0.72499996 1.0970897e-38
-0.017214291 -0.044757165 0.72300005 1.1434017e-38
-0.015815247 -0.044695266 0.722 1.2257662e-38
-0.0144 -0.044571437 0.72000003 1.3001284e-38
-0.01301048 -0.044509538 0.71900004 1.4470979e-38
-0.011640954 -0.044509523 0.71900004 1.5931027e-38
-0.010271442 -0.044509523 0.71899998 1.2244341e-38
-0.0088771367 -0.044385724 0.71699995 8.5411047e-39
-0.0075009624 -0.044323824 0.71600002 6.3391618e-39
-0.0061371652 -0.044323809 0.71600002 4.1329589e-39
-0.0047599869 -0.044199996 0.71399999 5.0592073e-39
-0.003395214 -0.044138096 0.71299994 5.9718744e-39
-0.0020371296 -0.044138096 0.713 6.7252629e-39
-0.00067615992 -0.043952383 0.70999992 7.560406e-39
0.00067619683 -0.043952383 0.70999998 7.7440896e-39
0.002028587 -0.043952383 0.70999992 7.9266844e-39
0.0033714462 -0.043828569 0.70799994 8.2029083e-39
0.0047333473 -0.043952383 0.70999998 8.479868e-39
0.0060942983 -0.044014297 0.71099997 9.3078406e-39
0.007448595 -0.044014283 0.71099997 1.0226868e-38
0.0088028694 -0.044014297 0.71099997 9.8555339e-39
0.010142868 -0.043952368 0.70999998 9.583965e-39
0.011511424 -0.044014283 0.71099997 1.0495494e-38
0.01286572 -0.044014283 0.71099997 1.1413121e-38
0.014200022 -0.043952398 0.70999998 9.7586341e-39
0.015552412 -0.043952383 0.70999992 8.0937528e-39
0.016904779 -0.043952398 0.70999998 5.7888915e-39
0.018257171 -0.043952383 0.70999992 3.5819571e-39
0.019609541 -0.043952383 0.70999998 4.4091814e-39
0.020961931 -0.043952383 0.70999998 5.3268203e-39
0.022314303 -0.043952383 0.70999998 5.6948812e-39
0.023700027 -0.044014283 0.71099997 5.9696688e-39
0.025019083 -0.043952383 0.70999992 7.6377731e-39
0.026408596 -0.044014283 0.71099997 9.3905564e-39
0.02776289 -0.044014283 0.71099997 7.6363718e-39
0.029117165 -0.044014283 0.71099997 5.9696842e-39
0.030557159 -0.044138096 0.713 5.9750484e-39
0.031915244 -0.044138111 0.713 6.0615029e-39
0.03327335 -0.044138096 0.713 5.8853653e-39
0.034631431 -0.044138111 0.713 5.7863902e-39
0.035989538 -0.044138096 0.71299994 8.5633713e-39
0.037399989 -0.044199981 0.71400005 1.1331729e-38
0.03886855 -0.044323824 0.71600002 1.2254767e-38
0.040288568 -0.044385724 0.71699995 1.3174556e-38
0.041770477 -0.044509538 0.71900004 1.1328876e-38
0.043139987 -0.044509538 0.71900004 9.3949299e-39
0.044695232 -0.044695266 0.72200006 8.7488318e-39
0.046261903 -0.044880949 0.72500002 8.1992439e-39
0.04770859 -0.044942863 0.72599995 7.7361106e-39
0.049226668 -0.045066677 0.72799999 7.3676868e-39
0.05068288 -0.045128576 0.72899997 7.0925334e-39
0.052214276 -0.045252375 0.73099995 6.9092226e-39
0.053680029 -0.045314275 0.73199999 6.9099401e-39
0.055224765 -0.045438103 0.73399997 7.0021343e-39
0.056777131 -0.045561902 0.736 6.8184633e-39
-0.030140951 -0.044160001 0.736 6.9899122e-39
-0.028660938 -0.044040002 0.73399997 7.2650543e-39
-0.02726287 -0.044040017 0.73399997 7.8099646e-39
-0.025794273 -0.043920003 0.73199999 8.368532e-39
-0.024399985 -0.043920003 0.73199999 8.8191223e-39
-0.022974286 -0.043859996 0.73099995 9.2015493e-39
-0.021522842 -0.043740027 0.72899997 9.8562556e-39
-0.020106662 -0.04368002 0.72799999 1.0406208e-38
-0.018668573 -0.043560006 0.72600001 1.1247811e-38
-0.017261907 -0.043500014 0.72499996 1.1974243e-38
-0.015815245 -0.043320008 0.722 1.2436647e-38
-0.014400003 -0.043199994 0.72000003 1.2810448e-38
-0.013010474 -0.043140002 0.71899998 1.4110137e-38
-0.011640968 -0.043140002 0.71900004 1.5381451e-38
-0.010271444 -0.043140016 0.71900004 1.2989032e-38
-0.0088771591 -0.043020003 0.71700001 1.0578331e-38
-0.007511423 -0.043020003 0.71699995 9.3765575e-39
-0.0061371503 -0.04296001 0.71600002 8.0973163e-39
-0.0047733532 -0.042960025 0.71600002 7.5538339e-39
-0.0034000047 -0.042839997 0.71400005 7.000356e-39
-0.0020400018 -0.042840011 0.71400005 7.4678292e-39
-0.00067713781 -0.04265999 0.71099997 7.9273808e-39
0.00067715609 -0.04265999 0.71099997 8.0195891e-39
0.0020285815 -0.042599998 0.70999998 8.1110616e-39
0.0033809717 -0.042600013 0.70999998 8.3869212e-39
0.0047333632 -0.042599998 0.70999992 8.5705964e-39
0.0060943114 -0.042659976 0.71099997 8.9386601e-39
0.0074485857 -0.042660005 0.71099997 9.2112687e-39
0.0088028824 -0.04265999 0.71099997 8.1899295e-39
0.010142872 -0.042599998 0.70999998 7.0925643e-39
0.011511438 -0.04265999 0.71099997 9.0042465e-39
0.012865731 -0.042660005 0.71099991 1.0866422e-38
0.014220008 -0.04265999 0.71099997 1.188737e-38
0.015574302 -0.04265999 0.71099991 1.2791001e-38
0.016904783 -0.042600013 0.70999998 9.5512728e-39
0.018257152 -0.042599998 0.70999998 6.2545163e-39
0.019637147 -0.04265999 0.71099997 6.8880336e-39
0.020961935 -0.042599998 0.70999992 7.4480148e-39
0.022314304 -0.042599998 0.70999998 6.7961981e-39
0.02370001 -0.04265999 0.71099991 6.1669828e-39
0.025054313 -0.04265999 0.71099997 8.7412494e-39
0.026408609 -0.04265999 0.71099997 1.1232659e-38
0.027762882 -0.04265999 0.71099997 1.1326659e-38
0.029117178 -0.04265999 0.71099997 1.1319113e-38
0.030557144 -0.042780004 0.713 1.1593172e-38
0.031915251 -0.04277999 0.71299994 1.1869041e-38
0.033273362 -0.04277999 0.713 1.1600714e-38
0.034680005 -0.042839997 0.71400005 1.132127e-38
0.036140945 -0.04296001 0.71599996 1.1974531e-38
0.03750477 -0.042960025 0.71600002 1.2528064e-38
0.038922843 -0.043020017 0.71700001 1.2898643e-38
0.040288541 -0.043020017 0.71700001 1.3261318e-38
0.041770469 -0.043140002 0.71899998 1.2429056e-38
0.043199994 -0.043199994 0.71999997 1.1502453e-38
0.04469524 -0.043320023 0.72200006 9.7532769e-39
0.046261907 -0.043500014 0.72499996 8.0109052e-39
0.047708582 -0.043560021 0.72599995 7.7364665e-39
0.049226683 -0.043680005 0.72799999 7.3680455e-39
0.050682876 -0.043740012 0.72899997 7.0921789e-39
0.052285727 -0.043920003 0.73199999 6.7259145e-39
0.053826686 -0.044040017 0.73399997 6.9099457e-39
0.05537523 -0.044160001 0.736 7.0936124e-39
0.056777157 -0.044160001 0.736 6.8181032e-39
-0.030059036 -0.0426419 0.73399997 7.4505246e-39
-0.028660938 -0.042641915 0.73399997 7.8153512e-39
-0.027188569 -0.042525716 0.73199999 8.2730882e-39
-0.02586475 -0.042641915 0.73399997 8.7276021e-39
-0.024400001 -0.042525731 0.73200005 8.9145017e-39
-0.022974301 -0.042467631 0.73100001 9.1885873e-39
-0.021522842 -0.042351432 0.72899997 9.4702062e-39
-0.020106662 -0.042293347 0.72800004 9.7367738e-39
-0.01866857 -0.042177148 0.72599995 1.0024864e-38
-0.017261889 -0.042119049 0.72499996 1.0206743e-38
-0.015815247 -0.041944794 0.722 1.0581977e-38
-0.014399989 -0.041828565 0.71999997 1.0867561e-38
-0.01302858 -0.04182858 0.72000003 1.1695191e-38
-0.01164095 -0.041770481 0.71899998 1.2525585e-38
-0.010271439 -0.041770481 0.71899998 1.1503483e-38
-0.0088771479 -0.041654296 0.71700001 1.0487916e-38
-0.0075114453 -0.041654296 0.71700001 1.0303889e-38
-0.0061371485 -0.041596211 0.71600002 1.0131333e-38
-0.0047599981 -0.041479997 0.71400005 9.6689216e-39
-0.0034000084 -0.041479997 0.71400005 9.2115784e-39
-0.0020399869 -0.041479997 0.71399999 8.5687692e-39
-0.00067712477 -0.041305713 0.71099997 8.0192079e-39
0.0006771505 -0.041305698 0.71099997 8.0195821e-39
0.0020314443 -0.041305713 0.71099997 8.1114078e-39
0.0033809773 -0.041247614 0.70999998 9.0286767e-39
0.0047400147 -0.041305728 0.71099997 9.9463044e-39
0.0060943095 -0.041305713 0.71099991 1.0682053e-38
0.0074485838 -0.041305713 0.71099997 1.1509998e-38
0.0088028787 -0.041305713 0.71099991 1.0955028e-38
0.010142875 -0.041247614 0.70999992 1.0500159e-38
0.01151145 -0.041305713 0.71099991 1.1600394e-38
0.012865724 -0.041305713 0.71099997 1.2721437e-38
0.014220019 -0.041305713 0.71099991 1.3360701e-38
0.015574295 -0.041305713 0.71099997 1.4101098e-38
0.016904786 -0.041247614 0.70999992 1.2153155e-38
0.018257154 -0.041247614 0.70999998 1.0322905e-38
0.019637158 -0.041305713 0.71099991 1.0494739e-38
0.020991433 -0.041305728 0.71099997 1.0781366e-38
0.022345729 -0.041305713 0.71099997 1.0402543e-38
0.023700003 -0.041305728 0.71099997 1.004848e-38
0.025054298 -0.041305713 0.71099997 1.1326648e-38
0.026408574 -0.041305713 0.71099997 1.2533792e-38
0.027840963 -0.041421883 0.713 1.2434073e-38
0.029199045 -0.041421898 0.713 1.2345458e-38
0.03055718 -0.041421883 0.71299994 1.2242492e-38
0.031959977 -0.041479997 0.71400005 1.2251827e-38
0.033320013 -0.041479997 0.71399999 1.1967002e-38
0.034777116 -0.041596226 0.71600002 1.1698296e-38
0.03614096 -0.041596197 0.71599996 1.1969124e-38
0.037557136 -0.041654281 0.71700001 1.2345431e-38
0.038922839 -0.041654296 0.71700001 1.2243188e-38
0.040400956 -0.041770481 0.71900004 1.2246413e-38
0.041828562 -0.041828565 0.72000003 1.1407333e-38
0.043320004 -0.041944779 0.722 1.0666936e-38
0.044757139 -0.042002864 0.72300005 9.3830581e-39
0.046325728 -0.042177148 0.72599995 8.0991478e-39
0.04784001 -0.042293333 0.72799999 7.6428332e-39
0.049294312 -0.042351432 0.72899997 7.27621e-39
0.050682876 -0.042351447 0.72899997 6.8173927e-39
0.052285731 -0.042525716 0.73199999 6.359653e-39
0.053826656 -0.042641915 0.73399997 6.6340846e-39
0.055375259 -0.0427581 0.736 6.9088681e-39
0.056777153 -0.042758115 0.736 6.7259075e-39
-0.030140957 -0.041356198 0.73600006 7.821105e-39
-0.028739061 -0.041356198 0.736 8.2781244e-39
-0.027262852 -0.041243814 0.73399997 8.73909e-39
-0.025864765 -0.041243829 0.73399997 9.1046383e-39
-0.024399988 -0.041131429 0.73199999 9.1057159e-39
-0.022974301 -0.041075237 0.73099995 9.1021356e-39
-0.02152285 -0.040962853 0.72899997 9.0996329e-39
-0.020106656 -0.04090669 0.72800004 9.0971385e-39
-0.018668577 -0.040794291 0.72599995 8.816628e-39
-0.017261904 -0.040738083 0.72500002 8.4525062e-39
-0.015815245 -0.040569536 0.722 8.7247757e-39
-0.014440005 -0.040569521 0.722 8.9163556e-39
-0.013028563 -0.040457137 0.71999997 9.2768985e-39
-0.011640965 -0.04040096 0.71900004 9.5606194e-39
-0.01027144 -0.040400974 0.71900004 1.0010794e-38
-0.0088771479 -0.04028859 0.71699995 1.0386391e-38
-0.0075009568 -0.040232383 0.71599996 1.1219373e-38
-0.0061371466 -0.040232383 0.71599996 1.2048048e-38
-0.0047600036 -0.040119998 0.71400005 1.1686449e-38
-0.003400014 -0.040119998 0.71400005 1.1317343e-38
-0.0020399925 -0.040119998 0.71399999 9.7604754e-39
-0.00067711173 -0.039951436 0.71099991 8.1096099e-39
0.00067716168 -0.039951436 0.71099997 8.111426e-39
0.0020314574 -0.039951421 0.71099997 8.0185003e-39
0.0033857308 -0.039951436 0.71099997 9.6704504e-39
0.0047400277 -0.039951421 0.71099997 1.1319161e-38
0.0060943021 -0.039951436 0.71099997 1.2516227e-38
0.0074485969 -0.039951436 0.71099991 1.370972e-38
0.0088028712 -0.039951451 0.71099997 1.3803698e-38
0.010157168 -0.039951436 0.71099997 1.3895184e-38
0.011511442 -0.039951436 0.71099997 1.4176082e-38
0.012865737 -0.039951436 0.71099997 1.4451238e-38
0.014220011 -0.039951436 0.71099997 1.4916882e-38
0.015552397 -0.039895244 0.70999992 1.5278455e-38
0.016904768 -0.039895244 0.70999998 1.4820682e-38
0.018257158 -0.039895244 0.70999998 1.426178e-38
0.019637151 -0.039951436 0.71099997 1.4169947e-38
0.020991445 -0.039951436 0.71099997 1.4075956e-38
0.022345722 -0.039951451 0.71099997 1.3984477e-38
0.023700016 -0.039951436 0.71099997 1.3891931e-38
0.025054291 -0.039951451 0.71099997 1.3890861e-38
0.026408585 -0.039951436 0.71099997 1.3801191e-38
0.027840978 -0.040063821 0.713 1.3621837e-38
0.029199082 -0.040063806 0.71299994 1.3337705e-38
0.030557165 -0.040063806 0.713 1.2963171e-38
0.031960022 -0.040119983 0.71399999 1.2505801e-38
0.033320006 -0.040119998 0.71400005 1.2317123e-38
0.034777131 -0.040232413 0.71600002 1.2044841e-38
0.036140949 -0.040232383 0.71599996 1.204125e-38
0.037557136 -0.040288575 0.71699995 1.2044113e-38
0.038922865 -0.040288575 0.71699995 1.1665284e-38
0.040400945 -0.04040096 0.71899998 1.1213281e-38
0.041828569 -0.040457152 0.72000003 1.0470705e-38
0.043379996 -0.040625729 0.72300005 9.7428499e-39
0.044757154 -0.040625729 0.72299999 9.0121246e-39
0.046325721 -0.040794276 0.72600001 8.190619e-39
0.047839995 -0.04090666 0.72799999 7.6428262e-39
0.049294308 -0.040962867 0.72899997 7.092895e-39
0.050682873 -0.040962867 0.72899997 6.5418876e-39
0.052285735 -0.041131444 0.73199999 5.9912292e-39
0.053826671 -0.041243814 0.73399997 6.3582096e-39
0.055375244 -0.041356184 0.736 6.6337077e-39
0.0568543 -0.041412391 0.73699999 6.6336993e-39
-0.030140962 -0.039954267 0.736 7.7289191e-39
-0.02873905 -0.039954297 0.736 8.1862973e-39
-0.027262863 -0.039845727 0.73399997 8.462873e-39
-0.025864761 -0.039845712 0.73399997 8.8359561e-39
-0.024399994 -0.039737143 0.73200005 8.9231295e-39
-0.022974279 -0.039682858 0.73099995 9.0138916e-39
-0.021581907 -0.039682858 0.73099995 9.3798001e-39
-0.020134274 -0.039574303 0.72899997 9.8368308e-39
-0.018668562 -0.039411433 0.72599995 9.370843e-39
-0.017261885 -0.039357148 0.72499996 8.9084201e-39
-0.015837148 -0.039248593 0.72300005 9.0920743e-39
-0.014440002 -0.039194293 0.722 9.3675807e-39
-0.013028569 -0.039085709 0.72000003 9.5516105e-39
-0.01165714 -0.039085723 0.72000003 9.8267582e-39
-0.010271422 -0.039031424 0.71899998 1.0102623e-38
-0.0088771572 -0.038922869 0.71700001 1.047069e-38
-0.0075114211 -0.038922854 0.71699995 1.0933103e-38
-0.0061371448 -0.038868584 0.71599996 1.1297588e-38
-0.0047600092 -0.038760014 0.71400005 1.0937073e-38
-0.0034000047 -0.038760014 0.71400005 1.0569393e-38
-0.0020399981 -0.038760014 0.71399999 9.4792264e-39
-0.00067712105 -0.038597144 0.71099997 8.4758785e-39
0.00067717658 -0.038597144 0.71099997 8.2021923e-39
0.0020314499 -0.038597144 0.71099997 7.9259515e-39
0.0033857457 -0.038597129 0.71099997 9.6621995e-39
0.0047400184 -0.038597144 0.71099997 1.1306592e-38
0.0060943151 -0.038597129 0.71099997 1.2228497e-38
0.0074485894 -0.038597144 0.71099997 1.306003e-38
0.0088028843 -0.038597129 0.71099997 1.324118e-38
0.010157159 -0.038597144 0.71099997 1.3334826e-38
0.011511455 -0.038597129 0.71099997 1.3608554e-38
0.01286573 -0.038597129 0.71099997 1.3970531e-38
0.014220024 -0.038597129 0.71099997 1.4252151e-38
0.015574298 -0.038597129 0.71099997 1.4519373e-38
0.016928593 -0.038597129 0.71099997 1.4066978e-38
0.018282868 -0.038597129 0.71099997 1.3600987e-38
0.019637164 -0.038597129 0.71099997 1.3697131e-38
0.020991437 -0.038597144 0.71099997 1.3878286e-38
0.022345733 -0.038597129 0.71099997 1.3789316e-38
0.023700008 -0.038597144 0.71099997 1.3694619e-38
0.025054302 -0.038597129 0.71099997 1.3698574e-38
0.026482878 -0.038705699 0.713 1.3689264e-38
0.027840961 -0.038705699 0.713 1.3514937e-38
0.029199066 -0.038705699 0.713 1.3317608e-38
0.030557148 -0.038705714 0.713 1.3138576e-38
0.031960014 -0.038759999 0.71399999 1.2858069e-38
0.033413321 -0.038868584 0.71599996 1.2680518e-38
0.034777146 -0.038868584 0.71600002 1.2581874e-38
0.036191411 -0.038922854 0.71700001 1.2775236e-38
0.037557114 -0.038922854 0.71700001 1.3042123e-38
0.038922843 -0.038922869 0.71700001 1.1940803e-38
0.040400945 -0.039031424 0.71899998 1.0837348e-38
0.041828547 -0.039085709 0.72000003 1.037961e-38
0.043380007 -0.039248578 0.72300005 9.9236608e-39
0.044757139 -0.039248578 0.72299999 8.8280906e-39
0.046325736 -0.039411418 0.72599995 7.7325121e-39
0.04784001 -0.039520003 0.72799999 7.4591482e-39
0.049294304 -0.039574303 0.72899997 7.0946858e-39
0.050821912 -0.039682873 0.73099995 6.9095883e-39
0.052285738 -0.039737143 0.73199999 6.633356e-39
0.053826679 -0.039845712 0.73399997 6.6333476e-39
0.055375237 -0.039954282 0.736 6.7258907e-39
0.056854304 -0.040008567 0.73699999 6.5432847e-39
0.058416199 -0.040117137 0.73899996 6.4529122e-39
-0.030140955 -0.038552396 0.736 7.6385354e-39
-0.028739046 -0.038552381 0.736 8.001211e-39
-0.027262863 -0.038447626 0.73399997 8.2734861e-39
-0.025864761 -0.038447626 0.73399997 8.5514967e-39
-0.024399992 -0.038342856 0.73199999 8.7369558e-39
-0.022974297 -0.038290478 0.73100001 8.919545e-39
-0.021522837 -0.038185723 0.72899997 9.752516e-39
-0.020106673 -0.038133346 0.72800004 1.0479309e-38
-0.018668566 -0.03802859 0.72599995 9.9207643e-39
-0.017261904 -0.037976198 0.72500002 9.3683094e-39
-0.01583715 -0.037871443 0.72300005 9.5512545e-39
-0.014440001 -0.03781905 0.722 9.7349297e-39
-0.013028576 -0.037714295 0.72000003 9.9186063e-39
-0.011640963 -0.037661903 0.71900004 1.0010436e-38
-0.010271437 -0.037661903 0.71899998 1.0285939e-38
-0.0088771442 -0.037557147 0.71700001 1.0561807e-38
-0.0075114416 -0.037557147 0.71700001 1.0561452e-38
-0.0061371429 -0.03750477 0.71599996 1.0562183e-38
-0.0047600111 -0.037400015 0.71400005 1.0194139e-38
-0.0033999879 -0.0374 0.71399999 9.7421576e-39
-0.0020400018 -0.03740003 0.71400005 9.2941205e-39
-0.00067902467 -0.037347607 0.71299994 8.7503046e-39
0.00067905785 -0.037347622 0.713 8.2950956e-39
0.0020371552 -0.037347622 0.713 7.8301615e-39
0.0033857233 -0.037242867 0.71099997 9.5621062e-39
0.0047400184 -0.037242852 0.71099997 1.1301928e-38
0.0060943058 -0.037242867 0.71099997 1.184753e-38
0.0074486025 -0.037242852 0.71099997 1.2403204e-38
0.0088028768 -0.037242867 0.71099997 1.2582208e-38
0.010157172 -0.037242852 0.71099997 1.2771258e-38
0.011511446 -0.037242867 0.71099997 1.3136443e-38
0.012865743 -0.037242852 0.71099997 1.3421286e-38
0.014220017 -0.037242867 0.71099997 1.3601381e-38
0.015574311 -0.037242852 0.71099997 1.3697143e-38
0.016928585 -0.037242852 0.71099997 1.3327272e-38
0.018282881 -0.037242852 0.71099997 1.2868455e-38
0.019637156 -0.037242852 0.71099997 1.3231493e-38
0.02099145 -0.037242852 0.71099997 1.360565e-38
0.022345724 -0.037242852 0.71099997 1.350843e-38
0.023766695 -0.037347607 0.71299994 1.342521e-38
0.025124779 -0.037347622 0.713 1.351992e-38
0.026482861 -0.037347607 0.713 1.3612124e-38
0.027879998 -0.037400015 0.71399999 1.3522092e-38
0.029239984 -0.0374 0.71400005 1.3330873e-38
0.0306 -0.037400015 0.71400005 1.3323327e-38
0.032049511 -0.037504785 0.71599996 1.3237607e-38
0.033413336 -0.037504785 0.71599996 1.3148299e-38
0.034825709 -0.037557147 0.71699995 1.3058256e-38
0.036191437 -0.037557147 0.71700001 1.3527117e-38
0.03755714 -0.037557147 0.71700001 1.3973387e-38
0.039031405 -0.037661903 0.71900004 1.2218476e-38
0.040400941 -0.037661888 0.71900004 1.037925e-38
0.041828576 -0.03771428 0.71999997 1.028705e-38
0.043379989 -0.037871443 0.72299999 1.0108038e-38
0.044757146 -0.037871428 0.72299999 8.7358824e-39
0.046453338 -0.038133346 0.72799999 7.2715283e-39
0.047905721 -0.038185738 0.72899997 7.1829144e-39
0.049294282 -0.038185738 0.72900003 7.0928838e-39
0.050821904 -0.038290463 0.73099995 7.1847319e-39
0.05228572 -0.038342856 0.73199999 7.2762044e-39
