# .PCD v0.7 - Point Cloud Data file format
VERSION 0.7
FIELDS x y z rgb
SIZE 4 4 4 4
TYPE F F F F
COUNT 1 1 1 1
WIDTH 957
HEIGHT 1
VIEWPOINT 0 0 0 1 0 0 0
POINTS 957
DATA ascii
0.023499995 -0.055728592 0.70500004 6.9910192e-39
0.02484284 -0.055728607 0.70500004 6.2451739e-39
0.02618571 -0.055728592 0.70500004 5.5238177e-39
0.027528552 -0.055728592 0.70500004 8.9361364e-39
0.028871411 -0.055728592 0.7050001 1.2340525e-38
0.030299997 -0.055886678 0.70700002 1.2336597e-38
0.031691425 -0.055965714 0.708 1.234484e-38
0.033039991 -0.055965714 0.708 1.2702846e-38
0.034388561 -0.055965729 0.708 1.3075202e-38
0.035838105 -0.056123815 0.70999998 1.0690699e-38
0.037190486 -0.05612383 0.70999998 8.1917176e-39
0.038705707 -0.056360967 0.71300006 7.6227161e-39
0.040063798 -0.056360967 0.71300006 6.998554e-39
0.04147999 -0.056440003 0.71400005 9.127663e-39
0.042959999 -0.056598105 0.71599996 1.1139402e-38
0.044385701 -0.056677155 0.71700001 8.6512019e-39
0.04587904 -0.056835257 0.7190001 6.1691548e-39
0.047248557 -0.056835257 0.7190001 6.5415429e-39
0.048618082 -0.056835271 0.7190001 6.8184955e-39
0.049987607 -0.056835271 0.7190001 7.0028952e-39
-0.024066679 -0.055697165 0.72200006 7.82826e-39
-0.022628583 -0.055542879 0.71999997 5.7009768e-39
-0.021257157 -0.055542879 0.72000003 3.2167549e-39
-0.019885723 -0.055542864 0.71999997 7.3504691e-40
-0.018514305 -0.055542864 0.72000003 2.9430463e-39
-0.017119061 -0.055465721 0.71900004 5.0606885e-39
-0.015749536 -0.055465721 0.71900004 6.3546811e-39
-0.014380014 -0.055465721 0.71900004 7.5484964e-39
-0.01301049 -0.055465706 0.71900004 6.4428354e-39
-0.011511435 -0.054848574 0.71099997 5.4262228e-39
-0.010157154 -0.054848604 0.71100003 5.3405194e-39
-0.0088028656 -0.054848604 0.71100003 5.3459088e-39
-0.007438099 -0.054771431 0.70999998 5.8043772e-39
-0.006085719 -0.054771446 0.70999998 6.3528665e-39
-0.0047200127 -0.054617144 0.708 8.4697324e-39
-0.0033714382 -0.054617159 0.708 1.0674887e-38
-0.0020200035 -0.054540001 0.70700002 1.2432342e-38
-0.00067144184 -0.054385744 0.70500004 1.4189823e-38
0.0006714089 -0.054385744 0.7050001 1.3175378e-38
0.0020142782 -0.054385744 0.70500004 1.2263734e-38
0.0033523657 -0.054308571 0.70400006 1.1414867e-38
0.0046999916 -0.054385729 0.70500004 1.0581911e-38
0.0060428502 -0.054385729 0.70500004 9.5703066e-39
0.0073752329 -0.054308586 0.70400006 8.654083e-39
0.008716166 -0.054308586 0.70400012 8.4664449e-39
0.010057124 -0.054308586 0.70400006 8.2914774e-39
0.011398082 -0.054308601 0.70400006 1.2627568e-38
0.01273904 -0.054308601 0.70400006 1.7055069e-38
0.014079982 -0.054308586 0.70400006 1.7514272e-38
0.015420941 -0.054308586 0.70400006 1.7968381e-38
0.016761899 -0.054308586 0.70400006 1.7048902e-38
0.018102841 -0.054308586 0.70400006 1.6128442e-38
0.019471407 -0.054385744 0.70500004 1.5850831e-38
0.020814274 -0.054385744 0.70500004 1.557923e-38
0.022125691 -0.054308586 0.70400006 1.3447959e-38
0.023499988 -0.054385729 0.70500004 1.1226969e-38
0.024842847 -0.054385744 0.70500004 9.9404764e-39
0.026185703 -0.054385729 0.70500004 8.6584228e-39
0.027489509 -0.054308586 0.70400006 1.123633e-38
0.028871419 -0.054385729 0.7050001 1.3722355e-38
0.030299995 -0.054540016 0.70700002 1.4554624e-38
0.031691413 -0.054617159 0.708 1.53833e-38
0.03303998 -0.054617159 0.708 1.5383663e-38
0.034388557 -0.054617144 0.70799994 1.5480504e-38
0.035838101 -0.054771446 0.71000004 1.1518287e-38
0.037242848 -0.054848589 0.71100003 7.5503054e-39
0.038705707 -0.055002876 0.71300006 7.0831924e-39
0.04011998 -0.055080019 0.71400011 6.7302586e-39
0.041479994 -0.055080019 0.71400005 9.0358906e-39
0.042959992 -0.055234306 0.71600002 1.1426059e-38
0.044385698 -0.055311464 0.71700001 9.3040893e-39
0.045942854 -0.055542864 0.72000003 7.2751198e-39
0.047314286 -0.055542864 0.71999997 7.185099e-39
0.048685711 -0.055542864 0.72000003 7.1858221e-39
0.049987607 -0.055465735 0.7190001 7.0947083e-39
-0.024100022 -0.054397173 0.72300005 1.0697414e-38
-0.022691445 -0.054321907 0.72200006 1.0214915e-38
-0.0213162 -0.054321907 0.72200006 5.7870782e-39
-0.019885728 -0.054171436 0.72000003 1.2932429e-39
-0.018514303 -0.054171436 0.72000003 1.74525e-39
-0.017119057 -0.054096214 0.71900004 2.115836e-39
-0.015749536 -0.054096214 0.71900004 1.9300294e-39
-0.014380011 -0.054096214 0.71900004 1.7510107e-39
-0.013010487 -0.0540962 0.71900004 3.4930041e-39
-0.011511446 -0.053494297 0.71100003 5.2447098e-39
-0.010157155 -0.053494297 0.71100003 5.8021954e-39
-0.0088028647 -0.053494282 0.71099997 6.3557335e-39
-0.0074381046 -0.053419046 0.71000004 6.5404961e-39
-0.0060857153 -0.053419046 0.70999998 6.7252181e-39
-0.0047200173 -0.053268574 0.708 9.3034041e-39
-0.0033714438 -0.053268574 0.708 1.1874822e-38
-0.0020200044 -0.053193338 0.70700002 1.2799299e-38
-0.00067333895 -0.053193338 0.70699996 1.3625837e-38
0.00067141635 -0.053042866 0.70500004 1.1055896e-38
0.0020142782 -0.053042866 0.70500004 8.381857e-39
0.0033523694 -0.052967645 0.70400006 8.8295088e-39
0.0046999985 -0.053042881 0.70500004 9.1968648e-39
0.0060428423 -0.053042866 0.70500004 6.8938181e-39
0.0073857014 -0.053042881 0.7050001 4.5993376e-39
0.0087285554 -0.053042881 0.70500004 4.5928524e-39
0.010057127 -0.052967645 0.70400006 4.6076207e-39
0.011398084 -0.052967645 0.70400006 9.9535099e-39
0.012739043 -0.052967645 0.70400006 1.5295805e-38
0.014079986 -0.05296763 0.70400006 1.6876074e-38
0.015420944 -0.05296763 0.70400006 1.8427909e-38
0.0167857 -0.053042881 0.7050001 1.6126957e-38
0.018128566 -0.053042866 0.70500004 1.3822489e-38
0.019471413 -0.053042866 0.7050001 1.3996147e-38
0.020814281 -0.053042866 0.70500004 1.4191987e-38
0.022157125 -0.053042866 0.70500004 1.4841264e-38
0.023499995 -0.053042851 0.70500004 1.5468662e-38
0.02491332 -0.053193338 0.70700002 1.3631927e-38
0.026260002 -0.053193353 0.70700002 1.1790892e-38
0.027606657 -0.053193353 0.70700002 1.3444631e-38
0.02887141 -0.053042866 0.7050001 1.5103827e-38
0.030299995 -0.053193338 0.70700002 1.6775939e-38
0.031691425 -0.053268574 0.708 1.8328166e-38
0.033133347 -0.053419046 0.70999998 1.8150945e-38
0.034485724 -0.053419046 0.70999998 1.7867134e-38
0.035838101 -0.053419046 0.70999998 1.2351211e-38
0.037242856 -0.053494297 0.71100003 6.8123648e-39
0.038705707 -0.053644784 0.71300006 6.6132501e-39
0.040119994 -0.053720005 0.71400005 6.3585796e-39
0.041596189 -0.053870492 0.71600002 9.0433623e-39
0.043019999 -0.053945713 0.71700001 1.1612224e-38
0.044571437 -0.054171421 0.71999997 9.9559355e-39
0.046070475 -0.054321922 0.72200006 8.2935836e-39
0.047445711 -0.054321922 0.72200006 7.9212347e-39
0.04888856 -0.054397173 0.72300005 7.4616929e-39
0.050265707 -0.054397158 0.72300005 7.1865396e-39
-0.024100011 -0.053020008 0.72300005 8.66987e-39
-0.022691442 -0.052946694 0.72200012 9.5824797e-39
-0.021316204 -0.052946694 0.72200006 7.4630816e-39
-0.019885723 -0.052800007 0.72000003 5.445579e-39
-0.018514298 -0.052800007 0.72000003 3.4083446e-39
-0.017142871 -0.052799992 0.72000003 1.4726119e-39
-0.015749536 -0.052726693 0.71900004 1.1956565e-39
-0.014340019 -0.052580021 0.71700001 9.2017525e-40
-0.012920017 -0.052359991 0.71400005 2.5768253e-39
-0.011560022 -0.052360006 0.71400011 4.3292303e-39
-0.010200008 -0.052360021 0.71400005 5.2515271e-39
-0.0088028656 -0.052140005 0.71099997 6.2646099e-39
-0.0074381009 -0.052066691 0.71000004 6.6334078e-39
-0.0060857218 -0.052066676 0.71000004 6.9999959e-39
-0.0047200127 -0.051920019 0.70799994 8.3803618e-39
-0.0033714382 -0.051920019 0.70799994 9.7625802e-39
-0.0020200138 -0.051846676 0.70700002 1.0311104e-38
-0.00067333988 -0.051846676 0.70700002 1.0948558e-38
0.0006733237 -0.051846676 0.70700002 9.3848279e-39
0.0020199975 -0.051846661 0.70700002 7.8064179e-39
0.0033571289 -0.051700033 0.70500004 7.5380973e-39
0.0047133346 -0.051846676 0.70700002 7.268339e-39
0.0060599903 -0.051846676 0.70700002 5.6074163e-39
0.0073856935 -0.051700033 0.7050001 3.8578447e-39
0.0087285619 -0.051700018 0.70500004 3.1234845e-39
0.010071407 -0.051700018 0.70500004 2.4806626e-39
0.011414276 -0.051700018 0.70500004 5.8961791e-39
0.012757135 -0.051700018 0.70500004 9.3081629e-39
0.014099989 -0.051700003 0.70500004 1.2077297e-38
0.015442848 -0.051700018 0.70500004 1.4934205e-38
0.016785691 -0.051700018 0.7050001 1.4006485e-38
0.018128561 -0.051700003 0.70500004 1.3078457e-38
0.019526672 -0.051846676 0.70699996 1.2346297e-38
0.020814274 -0.051700018 0.70500004 1.1708098e-38
0.022157133 -0.051700018 0.70500004 1.0964072e-38
0.023499986 -0.051700003 0.70500004 1.0235155e-38
0.02491333 -0.051846661 0.70700002 1.1617378e-38
0.026259985 -0.051846676 0.70700002 1.2989437e-38
0.02760667 -0.051846676 0.70700002 1.1139719e-38
0.028953323 -0.051846661 0.70700002 9.4003347e-39
0.030342845 -0.051920019 0.708 1.1794264e-38
0.031691428 -0.051920019 0.708 1.4094437e-38
0.033133324 -0.052066676 0.71000004 1.4463911e-38
0.034485701 -0.052066676 0.71000004 1.4832959e-38
0.035838109 -0.052066676 0.70999998 1.0039845e-38
0.037242848 -0.052140005 0.71099997 5.3268259e-39
0.038705707 -0.052286677 0.71300006 4.3209459e-39
0.040232368 -0.052506693 0.71600002 3.3225936e-39
0.041654281 -0.052580021 0.71700001 5.8121965e-39
0.043019991 -0.052580021 0.71700001 8.4011935e-39
0.044571418 -0.052800007 0.71999997 8.0231133e-39
0.046070468 -0.052946694 0.72200006 7.7461817e-39
0.047445714 -0.052946694 0.72200006 7.5557032e-39
0.048820935 -0.052946679 0.72200006 7.2780275e-39
0.050265703 -0.053020023 0.72300005 6.9106687e-39
-0.021257162 -0.051428564 0.72000003 9.2208662e-39
-0.019885728 -0.051428579 0.71999997 9.4823989e-39
-0.018488593 -0.051357172 0.7190001 5.1532317e-39
-0.01714287 -0.051428579 0.72000003 8.3048654e-40
-0.015705731 -0.0512143 0.71700001 4.5989635e-40
-0.014340012 -0.0512143 0.71700001 9.328584e-41
-0.012956194 -0.051142879 0.71599996 1.7477723e-39
-0.011560017 -0.051000021 0.71400011 3.3158099e-39
-0.010200012 -0.051000006 0.71400005 4.7016128e-39
-0.0088400152 -0.051000006 0.71400005 6.0827424e-39
-0.0074800197 -0.051000006 0.71400011 6.7281118e-39
-0.0060857181 -0.050714292 0.70999998 7.2765912e-39
-0.004733339 -0.050714292 0.70999998 7.4555777e-39
-0.0033714438 -0.050571434 0.708 7.6435632e-39
-0.0020200147 -0.050500013 0.70700002 7.9176446e-39
-0.00067334081 -0.050499998 0.70700002 8.1920581e-39
0.00067333301 -0.050499998 0.70699996 7.7278415e-39
0.0020199891 -0.050500013 0.70700002 7.2665145e-39
0.003357128 -0.050357156 0.70500004 6.3402688e-39
0.0046999967 -0.050357141 0.70500004 5.3336825e-39
0.00606 -0.050499998 0.70699996 4.2255749e-39
0.0073857 -0.050357156 0.7050001 3.1238754e-39
0.0087285554 -0.050357141 0.70500004 1.7455933e-39
0.010071414 -0.050357141 0.70500004 2.7910923e-40
0.011414283 -0.050357156 0.70500004 1.7499261e-39
0.012757126 -0.050357156 0.70500004 3.2311897e-39
0.014099996 -0.050357156 0.70500004 7.3742491e-39
0.01544284 -0.05035717 0.70500004 1.1422163e-38
0.016785696 -0.05035717 0.7050001 1.1885623e-38
0.018128566 -0.050357156 0.70500004 1.2251907e-38
0.019526668 -0.050499998 0.70700002 1.0786146e-38
0.020873325 -0.050499998 0.70700002 9.2062535e-39
0.022219991 -0.050499998 0.70700002 7.0717592e-39
0.023566661 -0.050500013 0.70700002 4.9872409e-39
0.02491333 -0.050499998 0.70700002 9.6120933e-39
0.026259985 -0.050499998 0.70700002 1.4085046e-38
0.027606666 -0.050499998 0.70700002 8.9084551e-39
0.028953321 -0.050499998 0.70700002 3.6864155e-39
0.030342847 -0.050571449 0.708 6.8135153e-39
0.031691425 -0.050571434 0.70799994 9.8555857e-39
0.033133328 -0.050714292 0.70999998 1.0777548e-38
0.034485709 -0.050714307 0.71000004 1.1699774e-38
0.035838101 -0.050714292 0.71000004 7.8325648e-39
0.037242856 -0.050785728 0.71099997 3.8639124e-39
0.038597137 -0.050785728 0.71100003 2.0207495e-39
0.040232375 -0.051142879 0.71599996 1.90159e-40
0.041654274 -0.0512143 0.71700001 2.6657924e-39
0.04313999 -0.051357158 0.71900004 5.0682135e-39
0.044571426 -0.051428579 0.71999997 6.1730995e-39
0.04594285 -0.051428579 0.72000003 7.1876059e-39
0.047445711 -0.051571436 0.72200006 7.1854662e-39
0.048888553 -0.051642872 0.72300005 7.0943383e-39
0.0502657 -0.051642887 0.72300005 6.7262705e-39
-0.021257157 -0.05005715 0.72000003 8.2017032e-39
-0.019885723 -0.05005715 0.72000003 8.7426969e-39
-0.01848859 -0.049987622 0.7190001 4.8752267e-39
-0.017119069 -0.049987622 0.7190001 1.1034889e-39
-0.015749544 -0.049987637 0.7190001 1.194939e-39
-0.014340011 -0.049848594 0.71699995 1.1942244e-39
-0.0129562 -0.049779065 0.71600002 2.5757043e-39
-0.011560012 -0.049639992 0.71400005 3.9539948e-39
-0.010200016 -0.049640007 0.71400005 5.0686171e-39
-0.0088400207 -0.049640007 0.71400011 6.2696518e-39
-0.0074695405 -0.049570478 0.71300006 6.8217381e-39
-0.0060942871 -0.049431436 0.71099997 7.4627859e-39
-0.0047333343 -0.049361907 0.70999998 7.7350568e-39
-0.0033809545 -0.049361907 0.70999998 8.009843e-39
-0.0020228738 -0.049222864 0.70800006 8.3771822e-39
-0.00067429728 -0.049222849 0.70799994 8.7455822e-39
0.00067333208 -0.049153335 0.70700002 8.561893e-39
0.0020199872 -0.04915335 0.70700002 8.3853896e-39
0.003366661 -0.049153335 0.70700002 7.731412e-39
0.0047133169 -0.049153335 0.70700002 7.1743258e-39
0.0060599986 -0.049153335 0.70700002 5.0563935e-39
0.0074066548 -0.049153335 0.70700002 3.0331133e-39
0.0087533351 -0.049153335 0.70700002 2.4842233e-39
0.01007142 -0.049014308 0.70500004 1.9364403e-39
0.011414275 -0.049014322 0.70500004 2.9448385e-39
0.012757133 -0.049014322 0.70500004 4.043315e-39
0.014099988 -0.049014308 0.70500004 5.9815826e-39
0.015442846 -0.049014322 0.70500004 7.8211554e-39
0.016785704 -0.049014322 0.7050001 1.0132101e-38
0.018179998 -0.049153335 0.70699996 1.2523079e-38
0.019526653 -0.049153335 0.70700002 9.2094933e-39
0.020873334 -0.049153335 0.70699996 5.9736709e-39
0.022219989 -0.049153335 0.70700002 4.319857e-39
0.023566671 -0.049153335 0.70699996 2.6726811e-39
0.024913326 -0.049153335 0.70700002 7.6584661e-39
0.026297145 -0.049222849 0.708 1.2615719e-38
0.027645711 -0.049222849 0.708 9.1061685e-39
0.028994277 -0.049222834 0.708 5.602736e-39
0.030428564 -0.049361907 0.71000004 8.0058325e-39
0.031825714 -0.049431436 0.71099997 1.0492267e-38
0.033179995 -0.049431436 0.71100003 1.2161149e-38
0.034534283 -0.049431451 0.71100003 1.39074e-38
0.035888571 -0.049431451 0.71099997 9.5760043e-39
0.037347604 -0.049570493 0.71300006 5.2349862e-39
0.03892285 -0.049848579 0.71700001 5.4272682e-39
0.040288575 -0.049848579 0.71700001 5.6081114e-39
0.041770469 -0.049987622 0.71900004 6.0719944e-39
0.043139994 -0.049987622 0.71900004 6.6143544e-39
0.044571429 -0.05005715 0.71999997 6.9960008e-39
0.046070471 -0.050196193 0.72200006 7.3705314e-39
0.047511432 -0.050265707 0.72300005 7.2790687e-39
0.048888564 -0.050265737 0.72300005 7.1879507e-39
0.050265711 -0.050265737 0.72300005 6.9117253e-39
0.05185714 -0.050474294 0.72600001 6.6365804e-39
-0.022785718 -0.049023814 0.72499996 6.3589579e-39
-0.021404773 -0.049023814 0.72499996 7.1933821e-39
-0.019885726 -0.048685722 0.72000003 7.9208648e-39
-0.018514302 -0.048685722 0.72000003 4.6847145e-39
-0.01714287 -0.048685707 0.72000003 1.3786311e-39
-0.015749546 -0.048618115 0.7190001 1.8381617e-39
-0.01434002 -0.048482887 0.71700001 2.3009307e-39
-0.012974301 -0.048482873 0.71700001 3.4991011e-39
-0.011592388 -0.048415251 0.71600002 4.6050998e-39
-0.010228589 -0.048415251 0.71600002 5.5331671e-39
-0.0088647706 -0.048415236 0.71599996 6.3629124e-39
-0.0074800141 -0.048280008 0.71400005 7.0093454e-39
-0.0061114468 -0.048212387 0.71300006 7.6478708e-39
-0.0047600213 -0.048280023 0.71400011 8.0112471e-39
-0.0033809619 -0.048009537 0.71000004 8.2842481e-39
-0.0020228692 -0.047874309 0.708 8.7434312e-39
-0.00067429448 -0.047874309 0.708 9.2040464e-39
0.00067332276 -0.047806673 0.70700002 9.3887964e-39
0.0020199965 -0.047806658 0.70699996 9.4842206e-39
0.0033666592 -0.047806673 0.70700002 9.2097917e-39
0.0047133262 -0.047806658 0.70699996 8.9263875e-39
0.0060599963 -0.047806673 0.70700002 5.883615e-39
0.0074066631 -0.047806673 0.70699996 2.8526695e-39
0.0087533193 -0.047806658 0.70700002 3.2217912e-39
0.010100001 -0.047806658 0.70699996 3.4990885e-39
0.011446657 -0.047806673 0.70700002 4.2337697e-39
0.012757125 -0.047671445 0.70500004 4.8741393e-39
0.014099995 -0.04767143 0.70500004 4.5957951e-39
0.015486659 -0.047806673 0.70700002 4.2391969e-39
0.01683333 -0.047806673 0.70700002 8.4819069e-39
0.018179996 -0.047806673 0.70700002 1.2704556e-38
0.019526653 -0.047806673 0.70700002 7.7386343e-39
0.020873334 -0.047806673 0.70700002 2.7626277e-39
0.022219989 -0.047806673 0.70700002 1.5615636e-39
0.023599997 -0.047874294 0.708 3.7961175e-40
0.024948563 -0.047874294 0.708 5.7326882e-39
0.02629713 -0.047874294 0.708 1.1048712e-38
0.027723812 -0.048009522 0.70999998 9.2980665e-39
0.029076191 -0.048009537 0.70999998 7.4534239e-39
0.030471431 -0.048077159 0.71099997 9.2983454e-39
0.03182571 -0.048077159 0.71100003 1.1056217e-38
0.033180002 -0.048077159 0.71100003 1.3650292e-38
0.034534276 -0.048077159 0.71099997 1.6116527e-38
0.035989512 -0.048212387 0.71300006 1.1328474e-38
0.037399985 -0.048280008 0.71400005 6.5404765e-39
0.038922843 -0.048482887 0.71700001 8.7535009e-39
0.040400948 -0.048618101 0.71900004 1.0955786e-38
0.041770473 -0.048618086 0.71900004 9.5836624e-39
0.043139998 -0.048618086 0.71900004 8.1023988e-39
0.044571422 -0.048685707 0.71999997 7.8253999e-39
0.046134282 -0.048888586 0.72300005 7.5531346e-39
0.047511414 -0.048888586 0.72300005 7.3723475e-39
0.0490238 -0.049023814 0.72499996 7.1879535e-39
0.050404757 -0.049023829 0.72500002 7.0964725e-39
0.052071426 -0.049294285 0.72900003 7.0039223e-39
0.053460006 -0.049294285 0.72899997 7.0035678e-39
-0.027188588 -0.048102863 0.73200005 9.1259114e-39
-0.025794307 -0.048102863 0.73200005 8.8449679e-39
-0.024400022 -0.048102863 0.73200011 8.8406056e-39
-0.022785727 -0.047642879 0.72500002 8.7531506e-39
-0.021404773 -0.047642864 0.72499996 9.9542624e-39
-0.019968584 -0.047511451 0.72300005 1.1246698e-38
-0.018514287 -0.047314279 0.71999997 6.9063177e-39
-0.017142871 -0.047314279 0.72000003 2.6636049e-39
-0.015749544 -0.047248594 0.71900004 1.9314461e-39
-0.014340011 -0.047117151 0.71700001 1.2947031e-39
-0.012956201 -0.047051452 0.71600002 2.9477476e-39
-0.011592393 -0.047051452 0.71600002 4.6072564e-39
-0.010228583 -0.047051437 0.71599996 5.4413218e-39
-0.0088400133 -0.046920009 0.71400005 6.3643375e-39
-0.0074695423 -0.046854295 0.71300006 7.0993774e-39
-0.0061114468 -0.046854295 0.71300006 7.7411188e-39
-0.0047533447 -0.046854295 0.71300006 8.1963194e-39
-0.0033857173 -0.046722867 0.71099997 8.5557833e-39
-0.0020285782 -0.046657152 0.71000004 9.1136262e-39
-0.000674301 -0.046525709 0.708 9.6625106e-39
0.00067426619 -0.046525709 0.708 9.9427031e-39
0.0020199956 -0.046459995 0.70700002 1.0309698e-38
0.0033666587 -0.04646001 0.70700002 1.0132494e-38
0.0047133248 -0.04646001 0.70700002 1.0039907e-38
0.0060599959 -0.046459995 0.70700002 6.0730089e-39
0.0074066618 -0.04646001 0.70700002 2.118703e-39
0.0087533183 -0.04646001 0.70700002 2.5800329e-39
0.010099999 -0.04646001 0.70700002 3.0427907e-39
0.011446655 -0.046460025 0.70700002 4.1433733e-39
0.012793321 -0.04646001 0.70700002 5.2454273e-39
0.014139992 -0.04646001 0.70700002 5.1500325e-39
0.015486659 -0.04646001 0.70700002 5.0581676e-39
0.016833328 -0.04646001 0.70700002 7.8289873e-39
0.018179994 -0.04646001 0.70700002 1.0686645e-38
0.01952666 -0.04646001 0.70699996 6.0776458e-39
0.020873332 -0.046459995 0.70700002 1.5619223e-39
0.022251416 -0.046525724 0.708 9.1907383e-40
0.023599982 -0.046525724 0.708 2.7624497e-40
0.025019046 -0.046657152 0.70999998 2.9534845e-39
0.026371427 -0.046657138 0.71000004 5.6203097e-39
0.027762841 -0.046722867 0.71100003 6.2581429e-39
0.029117133 -0.046722867 0.71099997 6.8998885e-39
0.03055713 -0.046854295 0.71300006 9.3030089e-39
0.031915221 -0.04685431 0.71300006 1.1702316e-38
0.033273321 -0.046854295 0.71300006 1.3549174e-38
0.034631424 -0.046854295 0.71300006 1.5478037e-38
0.036040001 -0.046920024 0.71400005 1.0685328e-38
0.037504759 -0.047051452 0.71600002 5.9877329e-39
0.038922854 -0.047117151 0.71700001 8.6620886e-39
0.040400937 -0.04724858 0.7190001 1.1429006e-38
0.041770462 -0.04724858 0.7190001 9.7673698e-39
0.043139983 -0.04724858 0.7190001 8.2021488e-39
0.044571422 -0.047314279 0.71999997 7.8300719e-39
0.046134267 -0.047511451 0.72300005 7.5527843e-39
0.047511414 -0.047511451 0.72300005 7.2783666e-39
0.049023818 -0.047642864 0.72499996 7.0954047e-39
0.050613318 -0.047840022 0.7280001 7.0950362e-39
0.052071426 -0.047905736 0.72900003 7.1865185e-39
0.053460002 -0.047905706 0.72899997 7.095046e-39
-0.028739067 -0.046963833 0.73600006 9.2184209e-39
-0.027262866 -0.04683619 0.73399997 9.5897412e-39
-0.025759056 -0.04664477 0.73100001 9.9545552e-39
-0.024200015 -0.046325721 0.72600001 1.0598464e-38
-0.022817153 -0.046325721 0.72600001 1.1149871e-38
-0.021434292 -0.046325706 0.72599995 1.280725e-38
-0.020023821 -0.046261914 0.72500002 1.4457711e-38
-0.018565724 -0.046070509 0.72200006 9.2140531e-39
-0.01714287 -0.045942865 0.72000003 3.8671494e-39
-0.015749536 -0.045879044 0.71900004 2.0207565e-39
-0.014380013 -0.045879044 0.71900004 1.86922e-40
-0.012974302 -0.045751445 0.71700001 2.3902635e-39
-0.011608591 -0.045751445 0.71700001 4.5118335e-39
-0.010200013 -0.045559995 0.71400005 5.4438484e-39
-0.008840018 -0.04556001 0.71400005 6.3639928e-39
-0.007480015 -0.04556001 0.71400011 7.0986725e-39
-0.0061114477 -0.045496203 0.71300006 7.8340572e-39
-0.0047533447 -0.045496203 0.71300006 8.3850533e-39
-0.0033857266 -0.045368589 0.71100003 8.8435386e-39
-0.0020285745 -0.045304768 0.70999998 9.492868e-39
-0.00067429541 -0.045177154 0.708 1.0039566e-38
0.00067427178 -0.045177154 0.708 1.05938e-38
0.0020228454 -0.045177154 0.708 1.1052614e-38
0.0033666675 -0.045113333 0.70699996 1.1153415e-38
0.0047133244 -0.045113333 0.70700002 1.1135113e-38
0.0060600047 -0.045113318 0.70699996 6.2491718e-39
0.0074066608 -0.045113333 0.70700002 1.2914745e-39
0.0087533267 -0.045113333 0.70699996 1.93646e-39
0.010099998 -0.045113333 0.70700002 2.4878317e-39
0.011462838 -0.045177154 0.708 4.0508274e-39
0.01279332 -0.045113347 0.70700002 5.5191429e-39
0.014140001 -0.045113333 0.70700002 5.7010455e-39
0.015486658 -0.045113347 0.70700002 5.7946564e-39
0.016833337 -0.045113347 0.70700002 7.1814991e-39
0.018205702 -0.045177169 0.708 8.5611671e-39
0.01955428 -0.045177154 0.70799994 4.4152813e-39
0.020902846 -0.045177154 0.70799994 2.7766169e-40
0.022251414 -0.045177154 0.70799994 1.8403113e-40
0.023666672 -0.045304768 0.70999998 9.220684e-41
0.025019052 -0.045304783 0.70999998 9.2218051e-41
0.026408561 -0.045368589 0.71100003 9.6894184e-41
0.027762851 -0.045368589 0.71099997 3.2146501e-39
0.029117141 -0.045368589 0.71099997 6.3535517e-39
0.030557141 -0.045496203 0.71300006 9.3116535e-39
0.031915218 -0.045496203 0.71300006 1.2255492e-38
0.033273321 -0.045496203 0.71300006 1.3549519e-38
0.034679983 -0.04556001 0.71400005 1.4738678e-38
0.036039989 -0.04556001 0.71400005 1.0130362e-38
0.037504762 -0.045687623 0.71599996 5.4402933e-39
0.038922861 -0.045751445 0.71700001 8.66099e-39
0.040400937 -0.045879059 0.7190001 1.1787706e-38
0.041770462 -0.045879059 0.7190001 1.0038531e-38
0.043139983 -0.045879073 0.7190001 8.2003454e-39
0.044571426 -0.04594285 0.71999997 7.9233647e-39
0.046134274 -0.046134301 0.72300005 7.5545878e-39
0.047511425 -0.046134301 0.72300005 7.2769303e-39
0.049023811 -0.046261914 0.72500002 6.9106505e-39
0.050613325 -0.046453349 0.72800004 7.1857843e-39
0.052071437 -0.046517141 0.72899997 7.369821e-39
0.053460002 -0.046517156 0.72899997 7.1861584e-39
-0.028778117 -0.045623817 0.73700011 8.5708949e-39
-0.027337151 -0.045561902 0.73600006 9.0318997e-39
-0.025794303 -0.045314305 0.73200005 9.4989945e-39
-0.024200011 -0.044942863 0.72600001 1.0139714e-38
-0.022785725 -0.044880949 0.72499996 1.078758e-38
-0.021434287 -0.044942863 0.72599995 1.2165824e-38
-0.020023823 -0.044880949 0.72500002 1.345003e-38
-0.018565729 -0.044695251 0.72200006 1.0038429e-38
-0.017142873 -0.044571452 0.72000003 6.5296585e-39
-0.015749536 -0.044509538 0.71900004 5.3336348e-39
-0.014380015 -0.044509538 0.71900004 4.1329645e-39
-0.0129743 -0.044385724 0.71700001 4.5996809e-39
-0.011592392 -0.044323824 0.71600002 5.1464312e-39
-0.010228583 -0.044323809 0.71599996 5.8072583e-39
-0.0088400142 -0.044199996 0.71400005 6.5491127e-39
-0.0074800178 -0.044200011 0.71400011 7.1919556e-39
-0.0061200131 -0.044200011 0.71400005 7.8355187e-39
-0.0047533456 -0.044138111 0.71300006 8.1110224e-39
-0.0033857275 -0.044014312 0.71100003 8.3887163e-39
-0.0020314364 -0.044014312 0.71099997 8.7560933e-39
-0.00067618972 -0.043952383 0.70999998 9.0308403e-39
0.00067427364 -0.043828584 0.708 8.6602277e-39
0.0020228408 -0.043828569 0.708 8.2960975e-39
0.003371408 -0.043828569 0.708 9.574603e-39
0.0047199898 -0.043828584 0.708 1.0853505e-38
0.006068557 -0.043828584 0.708 8.3703803e-39
0.0074171247 -0.043828584 0.708 5.8814641e-39
0.0087656919 -0.043828584 0.708 4.3202298e-39
0.010114284 -0.043828569 0.70799994 2.8501514e-39
0.011462851 -0.043828569 0.70799994 4.0476058e-39
0.012811418 -0.043828569 0.708 5.2429232e-39
0.014159985 -0.043828569 0.708 5.0560432e-39
0.015508567 -0.043828569 0.708 4.8709317e-39
0.016857132 -0.043828569 0.708 6.8109509e-39
0.0182057 -0.043828569 0.708 8.8384799e-39
0.019554267 -0.043828569 0.708 6.5292927e-39
0.02090285 -0.043828569 0.708 4.3166299e-39
0.022314288 -0.043952398 0.71000004 4.224793e-39
0.023666667 -0.043952398 0.71000004 4.1329603e-39
0.02505428 -0.044014297 0.71100003 4.227667e-39
0.026408568 -0.044014297 0.71100003 4.4084864e-39
0.02776286 -0.044014297 0.71099997 5.7910593e-39
0.029117137 -0.044014297 0.71100003 7.2729969e-39
0.030557128 -0.044138111 0.71300006 1.0136054e-38
0.031959984 -0.044199996 0.71400011 1.298875e-38
0.033319991 -0.044200011 0.71400011 1.3914695e-38
0.03467999 -0.044199996 0.71400005 1.4838037e-38
0.03614096 -0.044323824 0.71599996 1.1695863e-38
0.037557136 -0.044385724 0.71700001 8.5537164e-39
0.039031416 -0.044509552 0.7190001 1.0036706e-38
0.040400937 -0.044509538 0.7190001 1.1604363e-38
0.041770462 -0.044509538 0.7190001 1.0314355e-38
0.043139983 -0.044509538 0.7190001 9.1165395e-39
0.044571429 -0.044571437 0.72000003 8.1985335e-39
0.046134278 -0.04475715 0.72300005 7.3730804e-39
0.047642868 -0.044880949 0.72499996 7.1872458e-39
0.049023811 -0.044880964 0.72500002 7.0024804e-39
0.050613336 -0.045066692 0.72800004 6.9102666e-39
0.052214291 -0.04525239 0.73099995 6.8187996e-39
0.053606667 -0.04525239 0.73100001 6.8195269e-39
0.054999042 -0.04525239 0.73099995 6.9120728e-39
-0.028778106 -0.044220008 0.73700005 7.9118895e-39
-0.027337153 -0.044160016 0.73600006 8.4675786e-39
-0.025794309 -0.043920018 0.73200005 9.0229188e-39
-0.024300007 -0.043740027 0.72899997 9.7655187e-39
-0.022880021 -0.043680035 0.72800004 1.0408723e-38
-0.0214343 -0.043560021 0.72600001 1.1434336e-38
-0.020023821 -0.043500014 0.72499996 1.2432291e-38
-0.018565733 -0.043320037 0.72200006 1.0868538e-38
-0.01714287 -0.043199994 0.72000003 9.2050876e-39
-0.015771434 -0.043199994 0.71999997 8.6508376e-39
-0.014380012 -0.043140002 0.71900004 8.0069171e-39
-0.012974299 -0.043020003 0.71699995 6.91207e-39
-0.011592387 -0.04296001 0.71599996 5.8057757e-39
-0.010228581 -0.04296001 0.71600002 6.272523e-39
-0.0088647716 -0.042960025 0.71599996 6.6405895e-39
-0.0074800132 -0.042840011 0.71400005 7.1923283e-39
-0.0061200103 -0.042840011 0.71400005 7.7433203e-39
-0.0047600148 -0.042840011 0.71400005 7.834776e-39
-0.0033952512 -0.042780004 0.71300006 7.9273402e-39
-0.0020314364 -0.042660005 0.71099997 8.019547e-39
-0.00067619624 -0.042600013 0.71000004 8.0155758e-39
0.00067426899 -0.042480014 0.70800006 6.8112872e-39
0.0020228454 -0.042479999 0.70799994 5.5298895e-39
0.0033714201 -0.042480014 0.70799994 8.0876473e-39
0.0047199875 -0.042480014 0.70799994 1.0586607e-38
0.0060685556 -0.042480014 0.708 1.0589506e-38
0.0074171373 -0.042480014 0.708 1.0489024e-38
0.0087904669 -0.042600013 0.71000004 6.7961967e-39
0.010114271 -0.042480014 0.708 3.1331843e-39
0.011495235 -0.042599998 0.70999998 4.0458023e-39
0.012847614 -0.042599998 0.70999998 4.9716991e-39
0.014199994 -0.042599998 0.70999998 4.4095752e-39
0.015508554 -0.042480014 0.708 3.8693242e-39
0.016857121 -0.042480014 0.708 6.4443054e-39
0.018257145 -0.042600028 0.71000004 9.0221467e-39
0.019609524 -0.042600013 0.71000004 8.7304874e-39
0.020961914 -0.042600013 0.70999998 8.3688837e-39
0.022314291 -0.042599998 0.70999998 8.2655688e-39
0.023699991 -0.04265999 0.71099997 8.1877295e-39
0.025054272 -0.042660005 0.71100003 8.4607318e-39
0.026408561 -0.04265999 0.71099997 8.6469126e-39
0.027840938 -0.042780019 0.71300006 8.4510419e-39
0.02919904 -0.042780004 0.71300006 8.1992355e-39
0.030599985 -0.042840011 0.71400005 1.097011e-38
0.031959988 -0.042840011 0.71400011 1.3726621e-38
0.033319987 -0.042840011 0.71400005 1.4373785e-38
0.034777138 -0.042960025 0.71600002 1.4922642e-38
0.036191419 -0.043020003 0.71700001 1.3261705e-38
0.037557129 -0.043020003 0.71700001 1.1600045e-38
0.039031416 -0.043140016 0.71900004 1.1511787e-38
0.040457126 -0.043200009 0.72000003 1.1417788e-38
0.041828573 -0.043199994 0.71999997 1.0681299e-38
0.043199982 -0.043200009 0.72000003 9.9412373e-39
0.044695225 -0.043320023 0.72200012 8.5640678e-39
0.046261899 -0.043500014 0.72500002 7.0954131e-39
0.047642842 -0.043500014 0.72500002 7.095769e-39
0.049091425 -0.043560021 0.72600001 7.0024846e-39
0.050682865 -0.043740012 0.72899997 6.6336937e-39
0.05221428 -0.043859996 0.73100001 6.267795e-39
0.053973325 -0.044160031 0.73600006 6.5451022e-39
0.055450488 -0.044220023 0.73700005 6.7276956e-39
-0.028778106 -0.042816199 0.73700005 8.0858621e-39
-0.027374292 -0.042816184 0.73700005 8.3653048e-39
-0.025864771 -0.042641915 0.73399997 8.6347339e-39
-0.024366677 -0.042467631 0.73100001 9.0096303e-39
-0.022817157 -0.042177148 0.72600001 9.2804746e-39
-0.021404775 -0.042119063 0.72500002 9.8436845e-39
-0.019968584 -0.042002879 0.72300005 1.0394676e-38
-0.018591443 -0.042002879 0.72300005 9.7535992e-39
-0.017190492 -0.041944779 0.72200006 9.1175597e-39
-0.015771439 -0.041828565 0.71999997 9.1096591e-39
-0.014380013 -0.041770481 0.71900004 9.2090308e-39
-0.012974303 -0.041654281 0.71700001 8.1027015e-39
-0.011608592 -0.041654296 0.71700001 7.0957718e-39
-0.010242874 -0.041654311 0.71700001 7.0968789e-39
-0.0088647697 -0.041596226 0.71600002 7.1905277e-39
-0.0074800085 -0.041479997 0.71400005 7.4667712e-39
-0.0061200131 -0.041480012 0.71400005 7.8344327e-39
-0.0047600195 -0.041480012 0.71400011 8.843149e-39
-0.0033952522 -0.041421898 0.71300006 9.8540457e-39
-0.0020314392 -0.041305713 0.71100003 1.0128824e-38
-0.00067619159 -0.041247629 0.70999998 1.0496877e-38
0.00067427364 -0.041131444 0.708 1.0033747e-38
0.0020228482 -0.041131444 0.708 9.5778049e-39
0.0033714219 -0.041131444 0.708 1.0958213e-38
0.0047199894 -0.041131444 0.708 1.2447709e-38
0.0060685561 -0.041131444 0.708 1.2623526e-38
0.0074380925 -0.041247614 0.70999998 1.2811101e-38
0.0087904716 -0.041247629 0.70999998 1.0773817e-38
0.010142851 -0.041247614 0.71000004 8.8510131e-39
0.011495229 -0.041247644 0.71000004 9.2108217e-39
0.012847608 -0.041247644 0.71000004 9.5856942e-39
0.014199998 -0.041247629 0.70999998 9.3004992e-39
0.015552376 -0.041247629 0.70999998 9.0282283e-39
0.016904769 -0.041247629 0.70999998 1.0409354e-38
0.018257149 -0.041247629 0.70999998 1.1799807e-38
0.019609528 -0.041247629 0.71000004 1.1695781e-38
0.020961907 -0.041247629 0.71000004 1.1611479e-38
0.022345709 -0.041305728 0.71099997 1.1417046e-38
0.023699988 -0.041305728 0.71100003 1.1339929e-38
0.025054278 -0.041305728 0.71099997 1.1419938e-38
0.026408568 -0.041305728 0.71099997 1.1522154e-38
0.027840938 -0.041421913 0.71300006 1.1139723e-38
0.02919904 -0.041421913 0.71300006 1.0877883e-38
0.030599989 -0.041480012 0.71400011 1.206855e-38
0.032049518 -0.041596211 0.71599996 1.3267043e-38
0.033413332 -0.041596211 0.71600002 1.3353822e-38
0.034825698 -0.041654296 0.71700001 1.354326e-38
0.036191422 -0.041654296 0.71699995 1.2521615e-38
0.037661891 -0.04177051 0.71900004 1.1511413e-38
0.039031416 -0.041770495 0.71900004 1.1411314e-38
0.040457129 -0.041828565 0.72000003 1.1323049e-38
0.041828565 -0.041828565 0.71999997 1.0121279e-38
0.043319985 -0.041944779 0.72200006 8.9238456e-39
0.044695232 -0.041944779 0.72200006 8.0098108e-39
0.046325702 -0.042177163 0.72600001 7.1858067e-39
0.047708575 -0.042177148 0.72600001 7.0032161e-39
0.049226664 -0.042293347 0.72800004 6.9106547e-39
0.050821908 -0.042467631 0.73100001 6.5433029e-39
0.052285701 -0.042525731 0.73200005 6.2674433e-39
0.053973332 -0.042758115 0.73600006 6.4518374e-39
0.05545048 -0.042816184 0.73700005 6.542961e-39
-0.030263824 -0.041524775 0.73900002 8.095915e-39
-0.028778115 -0.041412406 0.73700011 8.2749113e-39
-0.027374301 -0.041412406 0.73700005 8.2727477e-39
-0.025864771 -0.041243814 0.73399997 8.2695345e-39
-0.024366673 -0.041075252 0.73099995 8.265964e-39
-0.02288002 -0.04090669 0.7280001 8.1751963e-39
-0.0214343 -0.040794291 0.72600001 8.2655884e-39
-0.02002383 -0.040738098 0.72500002 8.2698904e-39
-0.018591452 -0.040625729 0.72300005 8.6329248e-39
-0.017190486 -0.040569536 0.722 9.0070757e-39
-0.015771434 -0.040457152 0.71999997 9.6452536e-39
-0.014380021 -0.040400974 0.7190001 1.0295287e-38
-0.013010497 -0.040400974 0.7190001 9.2851045e-39
-0.011608581 -0.04028856 0.71700001 8.2813895e-39
-0.01024287 -0.040288575 0.71700001 8.0116423e-39
-0.0088647632 -0.040232383 0.71599996 7.6471842e-39
-0.0075009624 -0.040232383 0.71600002 7.8333803e-39
-0.0061200196 -0.040120013 0.71400011 7.9230298e-39
-0.004760013 -0.040119998 0.71400005 9.8490305e-39
-0.0033952531 -0.040063806 0.71300006 1.1776128e-38
-0.0020314401 -0.039951436 0.71100003 1.2328924e-38
-0.00067618879 -0.039895259 0.70999998 1.2879574e-38
0.00067619031 -0.039895259 0.70999998 1.3248348e-38
0.0020228426 -0.039782844 0.708 1.3525303e-38
0.0033809494 -0.039895259 0.70999998 1.3903421e-38
0.0047333287 -0.039895259 0.71000004 1.4270787e-38
0.0060857073 -0.039895259 0.71000004 1.4646046e-38
0.007438086 -0.039895259 0.71000004 1.5005461e-38
0.0087904753 -0.039895244 0.70999998 1.4729202e-38
0.010142854 -0.039895259 0.70999998 1.4449041e-38
0.011495234 -0.039895244 0.70999998 1.4360802e-38
0.012847613 -0.039895259 0.70999998 1.4171752e-38
0.014199992 -0.039895244 0.71000004 1.4177852e-38
0.015552371 -0.039895259 0.71000004 1.4082425e-38
0.016904749 -0.039895259 0.71000004 1.4364744e-38
0.018282846 -0.039951451 0.71100003 1.4545922e-38
0.019637136 -0.039951451 0.71100003 1.4733556e-38
0.020991426 -0.039951451 0.71099997 1.4818566e-38
0.022345707 -0.039951451 0.71100003 1.4635242e-38
0.023699995 -0.039951451 0.71100003 1.435543e-38
0.025054287 -0.039951451 0.71099997 1.4356865e-38
0.026482843 -0.040063821 0.71300006 1.4261785e-38
0.027840935 -0.040063821 0.71300006 1.3891199e-38
0.02923999 -0.040119998 0.71400005 1.3523884e-38
0.030599978 -0.040120013 0.71400011 1.3159081e-38
0.032049511 -0.040232398 0.71600002 1.278705e-38
0.033413336 -0.040232383 0.71599996 1.2414661e-38
0.034825698 -0.04028859 0.71700001 1.2049139e-38
0.036191422 -0.04028859 0.71700001 1.167752e-38
0.037661895 -0.040400974 0.71900004 1.1308734e-38
0.039031416 -0.040400974 0.71900004 1.1207203e-38
0.040457133 -0.040457152 0.72000003 1.1121813e-38
0.041828569 -0.040457152 0.71999997 9.4651756e-39
0.043319985 -0.040569551 0.72200006 7.81967e-39
0.04475712 -0.040625744 0.72300005 7.5488271e-39
0.04632571 -0.040794291 0.72600001 7.277645e-39
0.047839992 -0.04090669 0.72800004 7.0043105e-39
0.049294297 -0.040962867 0.72899997 6.7284215e-39
0.050821904 -0.041075252 0.73099995 6.5443679e-39
0.052285705 -0.041131444 0.73200005 6.2677922e-39
0.053973336 -0.041356198 0.73600006 6.3599935e-39
0.055375233 -0.041356198 0.73600006 6.3599991e-39
-0.031800032 -0.040280022 0.7420001 7.6349284e-39
-0.030304771 -0.040171437 0.74000001 7.8182547e-39
-0.028856205 -0.040117137 0.73899996 8.0933899e-39
-0.027374301 -0.040008597 0.73700011 8.1819842e-39
-0.02586478 -0.039845727 0.73400003 8.2713197e-39
-0.024366681 -0.039682873 0.73100001 8.359219e-39
-0.022880025 -0.039520033 0.7280001 8.449244e-39
-0.021434294 -0.039411418 0.72600001 8.5410613e-39
-0.020023819 -0.039357163 0.72500002 8.6329136e-39
-0.018591441 -0.039248593 0.72300005 8.8166014e-39
-0.017190482 -0.039194293 0.72200006 9.0921023e-39
-0.015771439 -0.039085709 0.71999997 9.4601547e-39
-0.014400013 -0.039085709 0.72000003 9.8271548e-39
-0.013010498 -0.039031439 0.7190001 9.0049555e-39
-0.011640967 -0.039031439 0.7190001 8.2742232e-39
-0.010242874 -0.038922869 0.71700001 7.8240197e-39
-0.0088771628 -0.038922869 0.71700001 7.3691554e-39
-0.0075009698 -0.038868599 0.71600002 7.6464639e-39
-0.0061200177 -0.038760014 0.71400011 7.9194327e-39
-0.0047600102 -0.038760014 0.71400005 9.660333e-39
-0.0033952531 -0.038705714 0.71300006 1.1490932e-38
-0.0020314392 -0.038597144 0.71099997 1.1859695e-38
-0.00067714899 -0.038597144 0.71099997 1.2229907e-38
0.00067618472 -0.038542874 0.71000004 1.2503261e-38
0.002028574 -0.038542844 0.70999998 1.2871341e-38
0.0033809531 -0.038542874 0.70999998 1.3058621e-38
0.0047333324 -0.038542874 0.70999998 1.3330192e-38
0.0060857111 -0.038542874 0.70999998 1.370472e-38
0.0074380906 -0.038542874 0.71000004 1.4162076e-38
0.0087904697 -0.038542874 0.71000004 1.3885822e-38
0.010142848 -0.038542874 0.71000004 1.3701811e-38
0.011511425 -0.038597144 0.71099997 1.3700752e-38
0.012865704 -0.038597144 0.71100003 1.3695735e-38
0.014219994 -0.038597144 0.71100003 1.3609645e-38
0.015552375 -0.038542859 0.70999998 1.3615731e-38
0.016904753 -0.038542889 0.71000004 1.3705401e-38
0.018282853 -0.038597144 0.71100003 1.3795114e-38
0.019637143 -0.038597144 0.71099997 1.3886977e-38
0.020991433 -0.038597144 0.71099997 1.3977715e-38
0.022345699 -0.038597144 0.71100003 1.3699318e-38
0.023699988 -0.038597144 0.71099997 1.3415907e-38
0.02505428 -0.038597144 0.71099997 1.3607097e-38
0.026482843 -0.038705714 0.71300006 1.3787531e-38
0.027840935 -0.038705714 0.71300006 1.3513451e-38
0.029239992 -0.038760029 0.71400011 1.3320474e-38
0.030685708 -0.038868599 0.71600002 1.2957457e-38
0.032049518 -0.038868584 0.71599996 1.2674041e-38
0.033413332 -0.038868584 0.71600002 1.2310627e-38
0.034825705 -0.038922869 0.71700001 1.193901e-38
0.036191415 -0.038922854 0.71700001 1.1667479e-38
0.037661891 -0.039031439 0.71900004 1.1297258e-38
0.039031416 -0.039031424 0.71900004 1.102282e-38
0.040457137 -0.039085723 0.72000003 1.0839143e-38
0.041828569 -0.039085709 0.71999997 9.4669861e-39
0.043320004 -0.039194308 0.72200006 8.1873721e-39
0.044757131 -0.039248578 0.72300005 7.6410073e-39
0.04632571 -0.039411433 0.72600001 7.1876045e-39
0.047839988 -0.039520033 0.72800004 6.9124918e-39
0.049294282 -0.039574303 0.72899997 6.637665e-39
0.0508219 -0.039682873 0.73100001 6.4521625e-39
0.052285708 -0.039737158 0.73200005 6.3578243e-39
0.053826671 -0.039845727 0.73399997 6.2681482e-39
-0.031842865 -0.038919069 0.74300003 7.3558346e-39
-0.030386688 -0.038866676 0.74200004 7.631697e-39
-0.028895248 -0.038761921 0.74000001 7.9064833e-39
-0.027448587 -0.038709529 0.73900002 8.0905102e-39
-0.025864774 -0.038447626 0.73400003 8.2702393e-39
-0.02440002 -0.038342871 0.73200005 8.4506873e-39
-0.022911437 -0.038185738 0.72900003 8.6332709e-39
-0.02143429 -0.03802859 0.72599995 8.816572e-39
-0.020051435 -0.03802859 0.72599995 8.9084201e-39
-0.018642869 -0.037976198 0.72500002 9.0002696e-39
-0.017214306 -0.037871443 0.72300005 9.0920995e-39
-0.015815249 -0.037819065 0.72200006 9.1839294e-39
-0.014400017 -0.03771428 0.72000003 9.2761334e-39
-0.013010493 -0.037661918 0.7190001 8.725489e-39
-0.011640969 -0.037661918 0.7190001 8.1809444e-39
-0.010271445 -0.037661918 0.7190001 7.6403473e-39
-0.0088771526 -0.037557133 0.71700001 7.0018134e-39
-0.0075114416 -0.037557147 0.71700001 7.4638691e-39
-0.0061371569 -0.037504785 0.71600002 7.9180019e-39
-0.0047733393 -0.037504785 0.71599996 9.5656375e-39
-0.0034000205 -0.037400015 0.71400011 1.1119655e-38
-0.0020371585 -0.037347622 0.71300006 1.138905e-38
-0.0006771583 -0.037242867 0.71100003 1.1575953e-38
0.00067713094 -0.037242867 0.71100003 1.1847157e-38
0.002031422 -0.037242867 0.71099997 1.2130557e-38
0.0033857019 -0.037242882 0.71100003 1.2313514e-38
0.0047399914 -0.037242882 0.71100003 1.2411095e-38
0.006094282 -0.037242867 0.71099997 1.2863462e-38
0.0074485717 -0.037242867 0.71099997 1.3238682e-38
0.0088028517 -0.037242867 0.71100003 1.3133918e-38
0.010157142 -0.037242867 0.71099997 1.2957789e-38
0.011511432 -0.037242867 0.71099997 1.3136803e-38
0.012865711 -0.037242882 0.71100003 1.3236534e-38
0.014220002 -0.037242867 0.71099997 1.3132863e-38
0.015574277 -0.037242852 0.71099997 1.305358e-38
0.016928555 -0.037242867 0.71100003 1.3045685e-38
0.018282846 -0.037242867 0.71099997 1.3052512e-38
0.019637138 -0.037242867 0.71099997 1.3041045e-38
0.020991415 -0.037242867 0.71100003 1.3052872e-38
0.022345707 -0.037242852 0.71100003 1.2768386e-38
0.023766655 -0.037347637 0.71300006 1.2499694e-38
0.025124757 -0.037347622 0.71300006 1.2960305e-38
0.026482843 -0.037347637 0.71300006 1.3330521e-38
0.027840935 -0.037347637 0.71300006 1.3237974e-38
0.029239992 -0.037400015 0.71400005 1.3053227e-38
0.030599995 -0.0374 0.71400005 1.2768393e-38
0.032094277 -0.037557147 0.71699995 1.249288e-38
0.033459987 -0.037557162 0.71699995 1.2214497e-38
0.034825705 -0.037557162 0.71700001 1.1847167e-38
0.03629237 -0.037661903 0.71900004 1.1572033e-38
0.037661895 -0.037661903 0.71900004 1.1297595e-38
0.039031416 -0.037661903 0.71900004 1.0931322e-38
0.040457141 -0.037714295 0.72000003 1.047502e-38
0.041944753 -0.037819065 0.72200006 9.5602579e-39
0.04338 -0.037871458 0.72300005 8.555433e-39
0.044757131 -0.037871443 0.72300005 7.8236049e-39
0.046453327 -0.038133331 0.72800004 7.0010539e-39
0.047839984 -0.038133375 0.7280001 6.8199164e-39
0.049294282 -0.038185738 0.72900003 6.5447491e-39
0.050821904 -0.038290463 0.73099995 6.4518178e-39
0.05242857 -0.038447641 0.73400003 6.3603466e-39
0.053973339 -0.038552396 0.73600006 6.1777574e-39
-0.03325811 -0.037503831 0.74300003 6.9867186e-39
-0.031842865 -0.037503816 0.74300003 7.354041e-39
-0.030386692 -0.037453346 0.74200004 7.5362574e-39
-0.028895251 -0.037352376 0.74000001 7.7181417e-39
-0.027448591 -0.037301905 0.73899996 7.9021771e-39
-0.025935255 -0.03715048 0.73600006 8.1762486e-39
-0.024400014 -0.036948584 0.73200005 8.3584847e-39
-0.022974297 -0.036898084 0.73099995 8.6332695e-39
-0.021522868 -0.036797173 0.72899997 8.8165762e-39
-0.020051442 -0.036645733 0.72600001 9.000257e-39
-0.018668586 -0.036645733 0.72600001 9.0921009e-39
-0.017261917 -0.036595233 0.72499996 9.2757677e-39
-0.015815252 -0.036443822 0.72200006 9.183928e-39
-0.014400013 -0.036342867 0.72000003 9.1839308e-39
-0.013028579 -0.036342852 0.72000003 8.7254736e-39
-0.011640966 -0.036292396 0.71900004 8.2670332e-39
-0.010271444 -0.036292396 0.71900004 7.821147e-39
-0.0089019202 -0.036292396 0.7190001 7.3698714e-39
-0.0075114453 -0.036191441 0.71700001 7.645029e-39
-0.0061457334 -0.036191456 0.71700001 8.0084081e-39
-0.0047733439 -0.036140956 0.71600002 9.5627774e-39
-0.0034095256 -0.036140956 0.71599996 1.1114644e-38
-0.0020371603 -0.035989515 0.71300006 1.148054e-38
-0.00067906751 -0.03598953 0.71300006 1.184717e-38
0.00067902711 -0.03598953 0.71300006 1.2310656e-38
0.0020371282 -0.035989515 0.71300006 1.2775198e-38
0.0033952238 -0.03598953 0.71300006 1.3150415e-38
0.0047533261 -0.03598953 0.71300006 1.3524215e-38
0.0060942895 -0.03588859 0.71099997 1.3706092e-38
0.007448554 -0.03588859 0.71100003 1.3804745e-38
0.0088028442 -0.035888575 0.71099997 1.3609596e-38
0.010157135 -0.035888575 0.71099997 1.3512019e-38
0.011511415 -0.035888605 0.71100003 1.3887609e-38
0.012865704 -0.035888605 0.71099997 1.4357549e-38
0.014219995 -0.035888605 0.71099997 1.4072356e-38
0.015574276 -0.03588859 0.71100003 1.3796857e-38
0.016928563 -0.03588859 0.71100003 1.3979459e-38
0.018282853 -0.03588859 0.71099997 1.4165276e-38
0.019637134 -0.035888605 0.71100003 1.3888329e-38
0.020991424 -0.03588859 0.71100003 1.370932e-38
0.022345714 -0.03588859 0.71099997 1.3425203e-38
0.02369998 -0.03588859 0.71100003 1.3150066e-38
0.025124755 -0.03598953 0.71300006 1.3611765e-38
0.026482843 -0.035989515 0.71300006 1.4070962e-38
0.027840935 -0.035989545 0.71300006 1.3705432e-38
0.029199038 -0.03598953 0.71300006 1.3344527e-38
0.030557124 -0.035989515 0.71300006 1.2962456e-38
0.032049518 -0.036140956 0.71599996 1.2589379e-38
0.033413332 -0.036140956 0.71600002 1.2216659e-38
0.034825698 -0.036191441 0.71700001 1.1938997e-38
0.036191408 -0.036191456 0.71700001 1.1664204e-38
0.037661899 -0.036292411 0.7190001 1.1389049e-38
0.039031409 -0.036292396 0.7190001 1.0932376e-38
0.040457129 -0.036342852 0.72000003 1.0476802e-38
0.041944761 -0.036443822 0.72200006 9.6560394e-39
0.043499999 -0.036595248 0.72500002 8.8338107e-39
0.044880956 -0.036595248 0.72500002 8.0087122e-39
0.046517149 -0.036797129 0.72899997 7.1832801e-39
0.047905717 -0.036797158 0.72899997 7.0024888e-39
0.049429528 -0.036898099 0.73100001 6.8206101e-39
0.050891422 -0.036948584 0.73200005 6.7284145e-39
0.052428566 -0.037049539 0.73400003 6.637658e-39
0.053826652 -0.037049539 0.73400003 6.3610781e-39
-0.033258107 -0.036088578 0.74300003 6.9874459e-39
-0.031800013 -0.036040016 0.74200004 7.354062e-39
-0.030304773 -0.03594286 0.74000001 7.4405095e-39
-0.028895244 -0.03594286 0.73999995 7.5323478e-39
-0.027448587 -0.035894297 0.73900002 7.8067809e-39
-0.025935257 -0.035748594 0.73600006 7.9911539e-39
-0.024466686 -0.035651453 0.73400003 8.2659289e-39
-0.022974299 -0.035505719 0.73100001 8.5414298e-39
-0.021522867 -0.035408564 0.72900003 8.8165734e-39
-0.020051442 -0.03526286 0.72600001 9.0002514e-39
-0.018668581 -0.03526286 0.72600001 9.1839294e-39
-0.017261913 -0.035214283 0.72499996 9.3675962e-39
-0.015815254 -0.035068594 0.72200006 9.2757551e-39
-0.014400017 -0.034971438 0.72000003 9.0920855e-39
-0.013028583 -0.034971438 0.71999997 8.7247449e-39
-0.011640968 -0.034922875 0.71900004 8.2706093e-39
-0.010271444 -0.034922875 0.71900004 8.0073193e-39
-0.008901922 -0.034922875 0.71900004 7.7357743e-39
-0.0075114435 -0.034825735 0.71700001 7.9212558e-39
-0.0061457241 -0.034825735 0.71700001 8.0091186e-39
-0.0047733383 -0.034777142 0.71599996 9.562762e-39
-0.0034095312 -0.034777157 0.71600002 1.1116069e-38
-0.0020371603 -0.034631439 0.71300006 1.1571655e-38
-0.0006790582 -0.034631424 0.71300006 1.2032635e-38
0.00067902711 -0.034631439 0.71300006 1.2680515e-38
0.0020371282 -0.034631439 0.71300006 1.3328725e-38
0.0033952233 -0.034631439 0.71300006 1.3988414e-38
0.0047533256 -0.034631453 0.71300006 1.4629828e-38
0.0060942722 -0.034534298 0.71100003 1.4540145e-38
0.0074485615 -0.034534298 0.71100003 1.4354321e-38
0.0088028526 -0.034534268 0.71099997 1.4171369e-38
0.010157133 -0.034534283 0.71100003 1.3983751e-38
0.011511422 -0.034534298 0.71100003 1.4727043e-38
0.012865712 -0.034534298 0.71099997 1.5460651e-38
0.014220002 -0.034534298 0.71099997 1.5002191e-38
0.015574282 -0.034534298 0.71100003 1.4537995e-38
0.016928557 -0.034534283 0.71099997 1.4910362e-38
0.01833427 -0.034631439 0.71300006 1.5183729e-38
0.019692373 -0.034631439 0.71300006 1.4729945e-38
0.021050459 -0.034631439 0.71300006 1.4258913e-38
0.022408552 -0.034631439 0.71300006 1.4073432e-38
0.023766652 -0.034631439 0.71300006 1.3796138e-38
0.02512474 -0.034631453 0.71300006 1.4357201e-38
0.026482843 -0.034631439 0.71300006 1.4808136e-38
0.027840946 -0.034631453 0.71300006 1.416745e-38
0.029239997 -0.034680001 0.71400005 1.3518852e-38
0.030685712 -0.034777157 0.71599996 1.3055718e-38
0.032094266 -0.034825735 0.71700001 1.2587574e-38
0.033459995 -0.03482572 0.71700001 1.2306688e-38
0.034922838 -0.03492289 0.7190001 1.203119e-38
0.036292363 -0.03492289 0.7190001 1.1756049e-38
0.037714276 -0.034971423 0.72000003 1.1481612e-38
0.039085709 -0.034971438 0.71999997 1.1023864e-38
0.04056951 -0.035068579 0.72200006 1.0479692e-38
0.042119049 -0.035214283 0.72499996 9.7529252e-39
0.043560002 -0.03526286 0.72600001 9.0207299e-39
0.045128576 -0.035408564 0.72899997 8.193472e-39
0.046644766 -0.035505734 0.73100001 7.2761974e-39
