# .PCD v0.7 - Point Cloud Data file format
VERSION 0.7
FIELDS x y z rgb
SIZE 4 4 4 4
TYPE F F F F
COUNT 1 1 1 1
WIDTH 958
HEIGHT 1
VIEWPOINT 0 0 0 1 0 0 0
POINTS 958
DATA ascii
-0.0077838143 -0.0049533099 0.74300003 1.3995992e-38
-0.0063685686 -0.0049533322 0.74300003 1.4266478e-38
-0.0049533332 -0.0049533322 0.74300003 1.4539473e-38
-0.0035380875 -0.0049533248 0.74300003 1.4728184e-38
-0.0021142745 -0.00493332 0.74000001 1.5013394e-38
-0.00070475176 -0.0049333349 0.74000001 1.5282819e-38
0.00070476072 -0.00493332 0.73999995 1.5282477e-38
0.0021142829 -0.0049333274 0.73999995 1.5279271e-38
0.0035238126 -0.00493332 0.73999995 1.5385479e-38
0.0049333363 -0.0049333274 0.73999995 1.5453957e-38
0.0063428585 -0.00493332 0.74000001 1.5435621e-38
0.0077419141 -0.0049266592 0.73900002 1.5362442e-38
0.0091619119 -0.0049333274 0.74000001 1.5283884e-38
0.010571435 -0.0049333349 0.74000001 1.5171577e-38
0.011980955 -0.0049333274 0.73999995 1.4602246e-38
0.013372393 -0.0049266517 0.73900002 1.3959416e-38
0.014780005 -0.0049266592 0.73900002 1.5887979e-38
0.016187627 -0.0049266592 0.73900002 1.7772451e-38
0.017619053 -0.0049333274 0.74000001 1.7708289e-38
0.019028576 -0.0049333274 0.74000001 1.7585192e-38
0.020438107 -0.0049333349 0.74000001 1.0928861e-38
0.021847619 -0.00493332 0.73999995 4.3410979e-39
0.023319995 -0.0049466491 0.74199998 1.0417306e-38
0.024733329 -0.0049466491 0.74199998 1.6485283e-38
0.026181912 -0.0049533248 0.74300003 1.4841948e-38
0.027597148 -0.0049533248 0.74300003 1.3064016e-38
0.029012393 -0.0049533248 0.74300003 1.0379206e-38
0.030509524 -0.0049666688 0.74500006 7.7350498e-39
0.032057129 -0.0049866363 0.74799997 1.0686043e-38
0.033481903 -0.0049866512 0.74800003 1.3626542e-38
0.034906659 -0.0049866438 0.74799997 1.3076575e-38
0.036574289 -0.0050199702 0.75299996 1.2427288e-38
0.038008571 -0.0050199777 0.75299996 1.2234308e-38
0.039547611 -0.0050332993 0.755 1.1959137e-38
0.040985722 -0.0050333217 0.75500005 9.2976756e-39
0.042423811 -0.0050333217 0.75500005 6.6337287e-39
0.043920014 -0.0050399974 0.75600004 6.63337e-39
0.045599997 -0.005066663 0.75999999 6.6329944e-39
0.047480956 -0.005113326 0.76700002 6.6344139e-39
0.048941914 -0.005113326 0.76700002 6.5432987e-39
0.050468579 -0.0051199794 0.76800001 6.4525408e-39
0.052066661 -0.0051333234 0.76999998 6.3596277e-39
-0.032785706 -0.0036428645 0.76500005 8.8180251e-39
-0.031246683 -0.0036333203 0.76299995 8.6347115e-39
-0.029715253 -0.0036237985 0.76099998 8.5425228e-39
-0.028228574 -0.003619045 0.76000005 9.2768523e-39
-0.026710469 -0.0036095232 0.75800002 1.0010446e-38
-0.02526667 -0.0036095083 0.75800002 1.0379208e-38
-0.02372857 -0.0035952181 0.75500005 1.0837669e-38
-0.022290483 -0.0035952255 0.75500005 1.1023851e-38
-0.020797143 -0.0035856888 0.75299996 1.1296848e-38
-0.019337131 -0.0035809502 0.75200003 1.1672082e-38
-0.017904753 -0.0035809353 0.75200003 1.2125518e-38
-0.016428562 -0.003571406 0.75 1.2222733e-38
-0.014960005 -0.0035618916 0.74799997 1.2306336e-38
-0.013517138 -0.0035571381 0.74700004 1.295279e-38
-0.012061903 -0.0035476089 0.74500006 1.3595279e-38
-0.010642871 -0.003547594 0.745 1.3601016e-38
-0.0092238132 -0.0035476089 0.74500006 1.3500586e-38
-0.0077838073 -0.0035380945 0.74300003 1.3693239e-38
-0.0063857227 -0.0035476089 0.74500006 1.3867592e-38
-0.0049533262 -0.003538087 0.74300003 1.4152433e-38
-0.0035380949 -0.003538087 0.74300003 1.4427218e-38
-0.0021142862 -0.0035238117 0.73999995 1.4710611e-38
-0.0007047634 -0.0035238042 0.74000001 1.5075102e-38
0.00070477423 -0.0035238117 0.74000001 1.507512e-38
0.0021142969 -0.0035238042 0.74000001 1.5156914e-38
0.0035238089 -0.0035238042 0.73999995 1.5258078e-38
0.0049333321 -0.0035237968 0.73999995 1.5245156e-38
0.0063342946 -0.0035190359 0.73900002 1.51569e-38
0.0077419137 -0.0035190359 0.73900002 1.5069339e-38
0.0091619082 -0.0035238042 0.74000001 1.5073256e-38
0.010557155 -0.0035190433 0.73900002 1.5061428e-38
0.011980961 -0.0035238117 0.74000001 1.4694096e-38
0.013372386 -0.0035190284 0.73900002 1.4234942e-38
0.014780015 -0.0035190359 0.73900002 1.6181446e-38
0.016209528 -0.0035238042 0.73999995 1.8154165e-38
0.017619049 -0.0035237968 0.73999995 1.8348647e-38
0.01902858 -0.0035238042 0.73999995 1.8432209e-38
0.020493329 -0.0035333186 0.74199998 1.3078104e-38
0.021906665 -0.0035333186 0.74199998 7.8330748e-39
0.023319999 -0.0035333186 0.74199998 1.0960858e-38
0.024766674 -0.003538087 0.74300003 1.4111951e-38
0.026181912 -0.003538087 0.74300003 1.4104047e-38
0.02759715 -0.003538087 0.74300003 1.4083539e-38
0.029012386 -0.003538087 0.74300003 1.1225456e-38
0.030591432 -0.0035571381 0.74700004 8.3850407e-39
0.032057144 -0.0035618991 0.74800003 9.9498595e-39
0.0334819 -0.0035618842 0.74800003 1.1512484e-38
0.034906652 -0.0035618916 0.74799997 1.1326645e-38
0.036574293 -0.0035857037 0.75300002 1.1235559e-38
0.038008578 -0.0035857037 0.75300002 1.1594681e-38
0.039547626 -0.0035952181 0.75500005 1.1958055e-38
0.040985718 -0.0035952181 0.75500005 9.2958791e-39
0.042479999 -0.0035999939 0.75600004 6.7241321e-39
0.04392001 -0.0036000013 0.75600004 6.5404667e-39
0.045659989 -0.003623791 0.76099998 6.4471738e-39
0.047542863 -0.0036571398 0.76800001 6.4493038e-39
0.050599996 -0.0036666542 0.77000004 6.3596151e-39
-0.031246679 -0.0021799877 0.76300001 8.909855e-39
-0.029676193 -0.0021714196 0.76000005 9.1857244e-39
-0.028228572 -0.0021714345 0.76000005 9.6445488e-39
-0.026710486 -0.0021657124 0.75800002 1.0102646e-38
-0.025266677 -0.002165705 0.75800002 1.056146e-38
-0.023728581 -0.0021571219 0.755 1.0929153e-38
-0.022290479 -0.002157107 0.755 1.1204292e-38
-0.020797137 -0.0021514073 0.75300002 1.1388323e-38
-0.019362846 -0.0021514148 0.75300002 1.1571637e-38
-0.017904757 -0.0021485612 0.75200003 1.1664188e-38
-0.016428573 -0.0021428466 0.75000006 1.2030812e-38
-0.014960011 -0.0021371171 0.74799997 1.2306328e-38
-0.013517139 -0.0021342859 0.74700004 1.267368e-38
-0.012061914 -0.0021285489 0.745 1.3041739e-38
-0.010642855 -0.0021285564 0.74500006 1.3224693e-38
-0.0092238132 -0.0021285638 0.74500006 1.3316535e-38
-0.0078047658 -0.0021285564 0.745 1.3408378e-38
-0.0063857227 -0.0021285713 0.74500006 1.3500222e-38
-0.0049533336 -0.0021228492 0.74300003 1.3867572e-38
-0.0035380982 -0.0021228492 0.74300003 1.4145231e-38
-0.0021200054 -0.0021199808 0.74199998 1.4510422e-38
-0.00070476014 -0.0021142811 0.73999995 1.4789535e-38
0.00070476305 -0.0021142736 0.73999995 1.496964e-38
0.002119998 -0.0021199957 0.74199998 1.5062549e-38
0.0035238154 -0.0021142811 0.74000001 1.5061471e-38
0.0049333386 -0.0021142885 0.74000001 1.5061466e-38
0.0063428581 -0.0021142662 0.73999995 1.4877789e-38
0.0077523813 -0.0021142736 0.73999995 1.4696241e-38
0.0091619045 -0.0021142662 0.73999995 1.487773e-38
0.010571435 -0.0021142811 0.73999995 1.496957e-38
0.011980956 -0.0021142736 0.74000001 1.4785904e-38
0.013390487 -0.0021142811 0.74000001 1.4512937e-38
0.01480001 -0.0021142811 0.74000001 1.6540879e-38
0.016209533 -0.0021142811 0.74000001 1.8512555e-38
0.017619045 -0.0021142662 0.73999995 1.8915495e-38
0.019028576 -0.0021142736 0.73999995 1.9259453e-38
0.020493325 -0.0021199882 0.74199998 1.5301493e-38
0.021906659 -0.0021199808 0.74199998 1.1232042e-38
0.023351436 -0.0021228418 0.74300003 1.1388818e-38
0.024766674 -0.0021228492 0.74300003 1.1611596e-38
0.02618191 -0.0021228492 0.74300003 1.3378e-38
0.02759715 -0.0021228567 0.74300003 1.5099851e-38
0.029012384 -0.0021228492 0.74300003 1.2053431e-38
0.030632371 -0.0021371171 0.74799997 9.0279046e-39
0.032057136 -0.002137132 0.74800003 9.2159028e-39
0.033481888 -0.0021371245 0.74799997 9.3041454e-39
0.034906656 -0.0021371171 0.74799997 9.6650246e-39
0.036525719 -0.0021485463 0.75200003 9.9419772e-39
0.038008571 -0.0021514073 0.75299996 1.0950028e-38
0.039547622 -0.0021571219 0.75500005 1.1867293e-38
0.04104 -0.0021599904 0.75600004 9.3877216e-39
0.042479999 -0.0021599978 0.75600004 6.8159648e-39
0.044036206 -0.0021657199 0.75800002 6.5400954e-39
0.045659982 -0.0021742657 0.76099998 6.1730939e-39
0.047109514 -0.0021742657 0.76100004 6.2652685e-39
-0.029676205 -0.00072380155 0.76000005 9.36975e-39
-0.028228583 -0.000723809 0.76000005 9.7360199e-39
-0.026710479 -0.0007218942 0.75800002 1.0194487e-38
-0.02526667 -0.00072190911 0.75800002 1.0656899e-38
-0.023759993 -0.00072000176 0.75600004 1.1204666e-38
-0.022290489 -0.00071901828 0.755 1.1483384e-38
-0.020852387 -0.00071902573 0.755 1.1755306e-38
-0.019337138 -0.00071619451 0.75200003 1.1847143e-38
-0.017904758 -0.00071617961 0.75200003 1.1938977e-38
-0.016428582 -0.00071427226 0.75 1.2214481e-38
-0.014960017 -0.00071236491 0.74799997 1.2581825e-38
-0.013535246 -0.00071235001 0.74799997 1.2857332e-38
-0.012061913 -0.00070951879 0.74500006 1.3224677e-38
-0.010642856 -0.00070953369 0.74500006 1.3408351e-38
-0.0092238225 -0.00070950389 0.74500006 1.3592021e-38
-0.0078047658 -0.00070951879 0.74500006 1.3683855e-38
-0.006385718 -0.00070950389 0.745 1.3775699e-38
-0.0049533262 -0.00070760399 0.74300003 1.3959378e-38
-0.0035380907 -0.00070761144 0.74300003 1.4234891e-38
-0.0021200092 -0.00070665777 0.74199998 1.4602239e-38
-0.00070475735 -0.00070474297 0.73999995 1.4878128e-38
0.00070476538 -0.00070475787 0.73999995 1.5153657e-38
0.0021200022 -0.00070665777 0.74199998 1.5429515e-38
0.0035238108 -0.00070475787 0.73999995 1.5337314e-38
0.0049333405 -0.00070475787 0.74000001 1.5245117e-38
0.0063428637 -0.00070475787 0.74000001 1.5061443e-38
0.0077523859 -0.00070475042 0.74000001 1.4969578e-38
0.0091619063 -0.00070475787 0.73999995 1.5061384e-38
0.01057143 -0.00070475042 0.73999995 1.515322e-38
0.012013337 -0.00070665777 0.74200004 1.4877712e-38
0.013390481 -0.00070475787 0.73999995 1.4602239e-38
0.014800006 -0.00070476532 0.74000001 1.6180337e-38
0.01620953 -0.00070475787 0.74000001 1.786793e-38
0.017619057 -0.00070475042 0.74000001 1.7049776e-38
0.019079993 -0.00070665032 0.74199998 1.6215616e-38
0.020493329 -0.00070665032 0.74199998 1.4735376e-38
0.021906663 -0.00070665777 0.74199998 1.3343519e-38
0.023351436 -0.00070761144 0.74300003 1.2608857e-38
0.024766674 -0.00070761144 0.74300003 1.1976078e-38
0.026181908 -0.00070760399 0.74300003 1.3728869e-38
0.027597155 -0.00070761889 0.74300003 1.54665e-38
0.029012384 -0.00070759654 0.74300003 1.1877313e-38
0.030632377 -0.00071236491 0.74800003 8.2932346e-39
0.032057133 -0.00071235746 0.74800003 8.7527877e-39
0.033481892 -0.00071235746 0.74799997 9.2112519e-39
0.034906656 -0.00071236491 0.74799997 9.3902622e-39
0.036525723 -0.00071617216 0.75200003 9.5703388e-39
0.038008578 -0.00071713328 0.75300002 1.0857104e-38
0.039547615 -0.00071903318 0.755 1.2142079e-38
0.04104 -0.00071997941 0.75600004 9.3870097e-39
0.042479999 -0.00071999431 0.75600004 6.723409e-39
0.044152379 -0.000723809 0.76000005 6.081264e-39
0.045659997 -0.00072473288 0.76100004 5.5316705e-39
-0.029715253 0.00072478503 0.76100004 9.4608736e-39
-0.028265728 0.00072478503 0.76099998 9.8271478e-39
-0.026780969 0.000723809 0.75999999 1.0198789e-38
-0.02526666 0.00072190166 0.75800002 1.0849883e-38
-0.023759993 0.00072000176 0.75600004 1.1403757e-38
-0.022320004 0.00072000921 0.75600004 1.1769657e-38
-0.020852381 0.00071907043 0.755 1.2131624e-38
-0.019337127 0.00071617961 0.75200003 1.2122662e-38
-0.017904749 0.00071620196 0.75200003 1.2122657e-38
-0.016384779 0.00071239471 0.74799997 1.2489995e-38
-0.014960008 0.00071241707 0.74799997 1.2765507e-38
-0.013517145 0.00071144104 0.74699998 1.3041019e-38
-0.012061898 0.00070951879 0.74500006 1.3316522e-38
-0.010642866 0.00070954114 0.74500006 1.3592026e-38
-0.0092238076 0.00070952624 0.74500006 1.3775692e-38
-0.0078047751 0.00070953369 0.745 1.3867523e-38
-0.006385718 0.00070953369 0.74500006 1.3959367e-38
-0.0049533336 0.00070761144 0.74300003 1.4143046e-38
-0.0035380982 0.00070763379 0.74300003 1.4326728e-38
-0.0021199989 0.00070666522 0.74199998 1.4694083e-38
-0.00070475874 0.00070477277 0.74000001 1.4969962e-38
0.00070476398 0.00070476532 0.74000001 1.5337318e-38
0.0021142843 0.00070478767 0.73999995 1.5705019e-38
0.0035238066 0.00070477277 0.73999995 1.552063e-38
0.0049333363 0.00070476532 0.73999995 1.5336952e-38
0.0063428595 0.00070477277 0.74000001 1.5336945e-38
0.0077419067 0.00070382655 0.73900002 1.5245082e-38
0.0091619138 0.00070477277 0.74000001 1.5336889e-38
0.010571437 0.00070476532 0.74000001 1.5336899e-38
0.012013335 0.00070667267 0.74200004 1.4969566e-38
0.01339048 0.00070476532 0.73999995 1.4603681e-38
0.014800003 0.00070477277 0.73999995 1.5893704e-38
0.016209526 0.00070475787 0.73999995 1.7121e-38
0.017619055 0.00070477277 0.74000001 1.5198986e-38
0.019079996 0.00070667267 0.74199998 1.3175688e-38
0.02049333 0.00070668012 0.74199998 1.4264394e-38
0.021906668 0.00070667267 0.74199998 1.5373257e-38
0.023351435 0.00070761889 0.74300003 1.3818533e-38
0.024766671 0.00070763379 0.74300003 1.2256234e-38
0.026181912 0.00070761889 0.74300003 1.4002884e-38
0.027597137 0.00070763379 0.74300003 1.5743068e-38
0.029012382 0.00070761889 0.74300003 1.1695464e-38
0.030632379 0.00071240216 0.74800003 7.5557032e-39
0.032057136 0.00071239471 0.74799997 8.3825926e-39
0.033481896 0.00071240962 0.74799997 9.1161808e-39
0.034906652 0.00071240216 0.74799997 9.206203e-39
0.036525723 0.00071620196 0.75200009 9.2044149e-39
0.038008571 0.00071716309 0.75300002 1.0765624e-38
0.039547618 0.00071907043 0.755 1.2326106e-38
0.04104 0.00072000921 0.75600004 9.4788438e-39
0.042479996 0.00072000176 0.75600004 6.5397436e-39
0.044326656 0.00072669238 0.76299995 5.7128598e-39
0.045779999 0.00072667748 0.76300001 4.8881186e-39
0.047233321 0.00072667748 0.76299995 5.9915641e-39
-0.029715249 0.0021743104 0.76099998 9.1850154e-39
-0.028414274 0.0021857172 0.76500005 9.8282324e-39
-0.026816206 0.0021743104 0.76099998 1.0565769e-38
-0.025266677 0.0021657273 0.75800002 1.1227971e-38
-0.023759993 0.0021600053 0.75600004 1.1974137e-38
-0.022320004 0.0021600127 0.75600004 1.2335024e-38
-0.020797139 0.0021514446 0.75300002 1.2694842e-38
-0.019337129 0.0021485761 0.75200003 1.2315313e-38
-0.017904753 0.0021485835 0.75200003 1.2030831e-38
-0.016384769 0.0021371692 0.74799997 1.212266e-38
-0.014960014 0.0021371692 0.74799997 1.230634e-38
-0.013517137 0.0021343008 0.74700004 1.2490021e-38
-0.012061909 0.0021285862 0.74500006 1.2765519e-38
-0.010642851 0.0021285787 0.74500006 1.2949181e-38
-0.0092238178 0.0021285862 0.745 1.322468e-38
-0.0077838176 0.0021228641 0.74300003 1.3316507e-38
-0.0063685719 0.0021228641 0.74300003 1.3408351e-38
-0.0049533364 0.0021228716 0.74299997 1.3683864e-38
-0.0035380907 0.0021228567 0.74300003 1.3959389e-38
-0.0021200026 0.002120018 0.74199998 1.4234912e-38
-0.00070475548 0.002114296 0.74000001 1.4602619e-38
0.00070476771 0.0021143034 0.74000001 1.4970325e-38
0.0021142899 0.0021142885 0.74000001 1.533875e-38
0.0035190568 0.0021114498 0.73900002 1.515365e-38
0.0049333326 0.002114296 0.73999995 1.496961e-38
0.0063428557 0.002114296 0.73999995 1.5061435e-38
0.0077419165 0.0021114349 0.73900002 1.5153244e-38
0.0091619091 0.0021142885 0.74000001 1.5061382e-38
0.010571432 0.0021142885 0.74000001 1.5061401e-38
0.012013339 0.0021199957 0.74200004 1.4877748e-38
0.01337239 0.0021114498 0.73900002 1.4785923e-38
0.014780008 0.0021114424 0.73900002 1.5905178e-38
0.016209526 0.002114296 0.73999995 1.7134943e-38
0.017619049 0.002114296 0.73999995 1.5385077e-38
0.019028572 0.0021143034 0.74000001 1.3544078e-38
0.020493327 0.0021200106 0.74199998 1.3997531e-38
0.021906661 0.002120018 0.74199998 1.446462e-38
0.023351436 0.0021228567 0.74300003 1.4370652e-38
0.024766672 0.002122879 0.74300003 1.4186202e-38
0.02618191 0.0021228641 0.74300003 1.2803943e-38
0.027597146 0.0021228716 0.74300003 1.1430373e-38
0.029012391 0.0021228641 0.74300003 8.5633994e-39
0.030591426 0.0021342859 0.74700004 5.7086125e-39
0.032057133 0.0021371692 0.74799997 7.6439794e-39
0.033481888 0.0021371692 0.74799997 9.5721241e-39
0.034906663 0.0021371543 0.74800003 9.6639161e-39
0.036525723 0.0021485835 0.75200003 9.7554111e-39
0.038008571 0.0021514595 0.75299996 1.0857455e-38
0.039547615 0.0021571666 0.755 1.1958761e-38
0.040985711 0.0021571741 0.755 9.2955288e-39
0.042479996 0.0021600053 0.75600004 6.6315847e-39
0.044326656 0.0021800175 0.76299995 6.081292e-39
0.045779992 0.0021800026 0.76300001 5.5306224e-39
0.047233313 0.0021800101 0.76299995 5.9908606e-39
-0.029949516 0.0036523715 0.76700002 8.9155919e-39
-0.028414272 0.0036428645 0.76500005 9.9186133e-39
-0.026816206 0.0036238283 0.76099998 1.085957e-38
-0.025266672 0.0036095306 0.75800002 1.1706178e-38
-0.023759993 0.0036000013 0.75600004 1.2528036e-38
-0.022320004 0.0036000162 0.75600004 1.2901836e-38
-0.020852381 0.0035952479 0.75500005 1.3163363e-38
-0.019337134 0.0035809577 0.75200003 1.2504024e-38
-0.017857144 0.0035714433 0.75 1.185434e-38
-0.016384775 0.0035619214 0.74799997 1.1847146e-38
-0.01496001 0.0035619214 0.74800003 1.1759262e-38
-0.013517154 0.003557153 0.74700004 1.1938991e-38
-0.012061907 0.0035476238 0.74500006 1.2125528e-38
-0.01064286 0.0035476387 0.745 1.2398161e-38
-0.0091990456 0.0035381019 0.74300003 1.2582904e-38
-0.0077838106 0.0035381094 0.74300003 1.2673659e-38
-0.0063685649 0.0035380945 0.74300003 1.2765498e-38
-0.0049533295 0.0035381168 0.74300003 1.3132844e-38
-0.0035380982 0.0035381019 0.74300003 1.3500195e-38
-0.0021200068 0.003533341 0.74199998 1.3867545e-38
-0.00070476712 0.0035238266 0.73999995 1.423525e-38
0.00070382521 0.0035190582 0.73900002 1.4602238e-38
0.0021114363 0.0035190508 0.73900002 1.4879185e-38
0.0035190554 0.0035190657 0.73900002 1.478592e-38
0.0049333381 0.0035238117 0.74000001 1.4602239e-38
0.0063428688 0.0035238042 0.74000001 1.4785902e-38
0.0077419076 0.0035190582 0.73900002 1.496956e-38
0.0091619045 0.0035238191 0.73999995 1.4877711e-38
0.010557156 0.0035190582 0.73900002 1.4785886e-38
0.012013334 0.003533341 0.74200004 1.4877732e-38
0.013372387 0.0035190582 0.73899996 1.4880248e-38
0.014780009 0.0035190582 0.73900002 1.5990173e-38
0.016209532 0.0035238042 0.74000001 1.7121634e-38
0.017619045 0.0035238266 0.73999995 1.5570136e-38
0.019028576 0.0035238191 0.73999995 1.3908522e-38
0.02049333 0.0035333484 0.74199998 1.3716993e-38
0.021906665 0.0035333484 0.74199998 1.3539095e-38
0.023319993 0.003533341 0.74199998 1.4829129e-38
0.024766671 0.0035381019 0.74300003 1.611476e-38
0.026181916 0.0035381019 0.74300003 1.1596459e-38
0.027597146 0.0035381019 0.74300003 7.0025421e-39
0.029012391 0.0035381019 0.74300003 5.4187483e-39
0.030509522 0.0035476312 0.74500006 3.8679439e-39
0.032057125 0.0035619214 0.74799997 6.9117842e-39
0.033481888 0.0035619363 0.74799997 9.9423261e-39
0.03486 0.0035571605 0.74700004 1.0121306e-38
0.036282852 0.0035571456 0.74700004 1.0306428e-38
0.037705712 0.003557153 0.74700004 1.0949654e-38
0.039547611 0.0035952553 0.755 1.1591779e-38
0.040985715 0.0035952553 0.75500005 9.2040506e-39
-0.031410486 0.0051133484 0.76699996 1.1233707e-38
-0.029949514 0.0051133335 0.76700002 1.150742e-38
-0.028414277 0.0051000044 0.76500005 1.215242e-38
-0.026816193 0.0050733462 0.76100004 1.2808203e-38
-0.025333337 0.0050666705 0.76000005 1.1148366e-38
-0.023759991 0.0050400123 0.75600004 9.4895876e-39
-0.022320002 0.0050400048 0.75600004 1.0780307e-38
-0.020797137 0.0050200149 0.75300002 1.2165028e-38
-0.019337134 0.0050133392 0.75200003 1.3163034e-38
-0.017904745 0.0050133392 0.75200003 1.4249602e-38
-0.016384771 0.0049866885 0.74800003 1.4256027e-38
-0.014960014 0.004986681 0.74800003 1.434284e-38
-0.013517156 0.0049800128 0.74700004 1.4898876e-38
-0.012061918 0.0049666911 0.74500006 1.5439485e-38
-0.01064286 0.0049666762 0.74500006 1.5722525e-38
-0.0092238029 0.0049666762 0.74500006 1.5983683e-38
-0.0078047705 0.0049666762 0.74500006 1.5903685e-38
-0.0063685724 0.0049533471 0.74300003 1.5796424e-38
-0.0049533364 0.0049533397 0.74300003 1.599301e-38
-0.0035380907 0.0049533471 0.74300003 1.6163407e-38
-0.0021199957 0.004946664 0.74199998 1.6360352e-38
-0.00070475362 0.0049333349 0.74000001 1.6532187e-38
0.00070475886 0.0049333498 0.73999995 1.663658e-38
0.0021142885 0.0049333423 0.73999995 1.6625823e-38
0.0035238117 0.0049333423 0.73999995 1.6450407e-38
0.004933334 0.0049333349 0.74000001 1.6347085e-38
0.0063428646 0.0049333423 0.74000001 1.6076235e-38
0.0077523873 0.0049333274 0.74000001 1.5796065e-38
0.0091619119 0.0049333423 0.74000001 1.5430517e-38
0.01057143 0.0049333498 0.73999995 1.515322e-38
0.012013335 0.0049466714 0.74200004 1.5061386e-38
0.013372391 0.0049266666 0.73900002 1.4969553e-38
0.01478001 0.0049266815 0.73900002 1.6000551e-38
0.01620953 0.0049333423 0.74000001 1.6944026e-38
0.017619053 0.0049333274 0.74000001 1.4182511e-38
0.019028584 0.0049333423 0.74000001 1.1425347e-38
0.020493329 0.0049466789 0.74199998 1.2341244e-38
0.021906663 0.0049466714 0.74199998 1.3257134e-38
0.023351431 0.0049533546 0.74300003 1.455615e-38
0.024766669 0.0049533471 0.74300003 1.585792e-38
0.026181905 0.0049533397 0.74300003 1.3265291e-38
0.027597144 0.0049533397 0.74300003 1.07678e-38
0.02901238 0.0049533471 0.74299997 6.8030924e-39
0.030509524 0.0049666688 0.74500006 2.7594481e-39
0.032014281 0.0049800053 0.74700004 6.9110443e-39
0.033437137 0.0049799979 0.74700004 1.1052236e-38
0.034859996 0.0049800128 0.74699998 1.1046481e-38
0.036574289 0.0050200149 0.75299996 1.1041475e-38
0.038008571 0.0050200298 0.75299996 1.1315922e-38
0.039547626 0.0050333515 0.75500005 1.1591781e-38
0.040985711 0.0050333515 0.75500005 9.0178671e-39
-0.032914292 0.0065828711 0.76800001 1.3364612e-38
-0.031533346 0.0066000223 0.76999998 1.3737335e-38
-0.029949518 0.0065742806 0.76700002 1.409714e-38
-0.028414277 0.0065571442 0.76500005 1.4467346e-38
-0.026886679 0.0065400153 0.76299995 1.4736034e-38
-0.025366684 0.0065228716 0.76099998 1.0589444e-38
-0.023822868 0.0064971596 0.75800002 6.3635752e-39
-0.022320004 0.0064800233 0.75600004 8.748787e-39
-0.020797141 0.0064543113 0.75299996 1.1151243e-38
-0.019337138 0.0064457133 0.75200003 1.3916736e-38
-0.017857151 0.0064285919 0.75 1.6574948e-38
-0.016384777 0.0064114407 0.74800003 1.6768309e-38
-0.014960006 0.0064114481 0.74799997 1.6855841e-38
-0.013517149 0.0064028576 0.74700004 1.7873568e-38
-0.012061903 0.0063857287 0.74500006 1.8787605e-38
-0.01064287 0.0063857362 0.745 1.906884e-38
-0.0092238123 0.0063857287 0.74500006 1.9337172e-38
-0.0078047547 0.0063857138 0.74500006 1.90692e-38
-0.0063857227 0.0063857287 0.745 1.8783646e-38
-0.0049666651 0.0063857213 0.74500006 1.8787231e-38
-0.0035380838 0.0063685626 0.74300003 1.8781851e-38
-0.0021199998 0.0063600093 0.74199998 1.8877994e-38
-0.00070666516 0.0063600093 0.74199998 1.887369e-38
0.00070477236 0.0063428581 0.74000001 1.8694325e-38
0.0021142848 0.006342873 0.73999995 1.8411286e-38
0.003523808 0.0063428655 0.73999995 1.8226182e-38
0.0049333377 0.006342873 0.73999995 1.8033529e-38
0.0063428599 0.0063428581 0.73999995 1.7284483e-38
0.0077523831 0.0063428655 0.74000001 1.6552311e-38
0.0091619138 0.0063428655 0.74000001 1.6078786e-38
0.010571435 0.0063428655 0.74000001 1.5528831e-38
0.012013333 0.0063600019 0.74200004 1.5336891e-38
0.013426667 0.0063600093 0.74200004 1.5067844e-38
0.014780011 0.0063342899 0.73900002 1.5914097e-38
0.016209524 0.006342873 0.73999995 1.6747436e-38
0.017619055 0.0063428581 0.74000001 1.2882459e-38
0.019028578 0.006342873 0.74000001 8.9379062e-39
0.02049333 0.0063600168 0.74199998 1.0964813e-38
0.021906665 0.0063600168 0.74199998 1.2898026e-38
0.023320001 0.0063600093 0.74199998 1.4188032e-38
0.024733327 0.0063600168 0.74199998 1.5475859e-38
0.026181905 0.0063685849 0.74300003 1.5022399e-38
0.02759715 0.0063685849 0.74300003 1.4535937e-38
0.029012378 0.0063685775 0.74300003 8.0819609e-39
0.030509518 0.0063857362 0.74500006 1.6631521e-39
0.031928569 0.0063857213 0.74500006 6.920007e-39
0.033437137 0.0064028725 0.74700004 1.2153921e-38
0.034860004 0.0064028576 0.74700004 1.1970617e-38
0.036282849 0.0064028725 0.74699998 1.1780128e-38
0.038008574 0.0064542964 0.75300002 1.1680039e-38
0.03944286 0.0064543113 0.75300002 1.1494208e-38
0.040985718 0.0064714476 0.75500005 8.91958e-39
0.042423803 0.0064714402 0.755 6.3539174e-39
-0.034869522 0.0081609711 0.77900004 1.0602048e-38
-0.032914296 0.008045733 0.76799995 1.2363066e-38
-0.031451438 0.008045733 0.76799995 1.2631398e-38
-0.029949518 0.00803525 0.76700002 1.2910482e-38
-0.028414275 0.0080142915 0.76500005 1.3364269e-38
-0.026886683 0.0079933405 0.76299995 1.382414e-38
-0.025333334 0.0079619065 0.76000005 1.0318583e-38
-0.023822861 0.0079409629 0.75800002 6.7287466e-39
-0.022320004 0.0079200119 0.75600004 9.0282199e-39
-0.020852385 0.0079095438 0.755 1.1243789e-38
-0.019362859 0.0078885853 0.75300002 1.3918176e-38
-0.017857149 0.0078571662 0.75 1.658898e-38
-0.016384767 0.0078362152 0.74799997 1.6774844e-38
-0.014960011 0.0078362077 0.74799997 1.6969282e-38
-0.013517151 0.0078257248 0.74700004 1.7979116e-38
-0.012094282 0.0078257248 0.74700004 1.9094751e-38
-0.010642854 0.0078047737 0.74500006 1.9176519e-38
-0.0092238123 0.0078047663 0.74500006 1.9369159e-38
-0.0078047649 0.0078047812 0.74500006 1.9176161e-38
-0.0063857222 0.0078047588 0.74500006 1.9094365e-38
-0.0049666748 0.0078047812 0.745 1.9267268e-38
-0.0035381017 0.0077838227 0.74300003 1.9553182e-38
-0.0021200036 0.0077733472 0.74199998 1.9452024e-38
-0.00070666888 0.0077733472 0.74199998 1.9461351e-38
0.00070666574 0.0077733397 0.74200004 1.9357317e-38
0.0021200008 0.0077733323 0.74199998 1.9272296e-38
0.0035333349 0.0077733397 0.74200004 1.8983872e-38
0.0049466696 0.0077733248 0.74200004 1.880664e-38
0.0063600042 0.0077733397 0.74200004 1.8052206e-38
0.0077733318 0.0077733397 0.74200004 1.7416535e-38
0.0091866665 0.0077733472 0.74200004 1.6655307e-38
0.010600002 0.0077733397 0.74200004 1.6004887e-38
0.012013336 0.0077733397 0.74200004 1.5527734e-38
0.013390485 0.0077523887 0.74000001 1.5061386e-38
0.014800008 0.0077523887 0.74000001 1.5907638e-38
0.016209519 0.0077523887 0.73999995 1.6749227e-38
0.017619049 0.0077523962 0.73999995 1.2881736e-38
0.019079993 0.0077733472 0.74199998 9.0200657e-39
0.020493327 0.0077733397 0.74199998 1.0592473e-38
0.021906661 0.0077733472 0.74199998 1.2171216e-38
0.023319995 0.0077733397 0.74199998 1.2252969e-38
0.024766678 0.0077838153 0.74300003 1.2335504e-38
0.026181903 0.0077838227 0.74300003 1.0772174e-38
0.02759715 0.0077838153 0.74300003 9.302042e-39
0.029012376 0.0077838227 0.74300003 5.7939516e-39
0.030509528 0.0078047663 0.74500006 2.2995336e-39
0.031928558 0.0078047737 0.745 4.9781829e-39
0.033437133 0.0078257248 0.74699998 7.6529239e-39
0.03486 0.0078257173 0.74700004 9.6740545e-39
0.03628286 0.0078257173 0.74700004 1.1693696e-38
0.038008574 0.0078886077 0.75299996 1.1589641e-38
0.039442856 0.0078885928 0.75299996 1.1581743e-38
0.040877141 0.0078885853 0.75299996 8.9210192e-39
0.042423807 0.0079095587 0.755 6.3535615e-39
-0.03957333 0.009706676 0.78400004 8.1931595e-39
-0.038079999 0.009706676 0.78400004 7.8989303e-39
-0.036353331 0.0096447766 0.77899998 7.5463187e-39
-0.034780025 0.0096200183 0.77699995 9.4867261e-39
-0.032914296 0.0095085949 0.76799995 1.1327378e-38
-0.031451434 0.00950858 0.76800001 1.1513915e-38
-0.029949509 0.0094961971 0.76700002 1.1696523e-38
-0.028414272 0.0094714314 0.76500005 1.2346202e-38
-0.026816195 0.0094219148 0.76100004 1.289468e-38
-0.025333341 0.0094095394 0.76000005 1.0039505e-38
-0.023822853 0.0093847588 0.75800002 7.0975473e-39
-0.022320004 0.0093600154 0.75600004 9.2076197e-39
-0.020852396 0.0093476474 0.755 1.1337092e-38
-0.01936285 0.0093228817 0.75299996 1.3922513e-38
-0.017904755 0.0093104839 0.75200009 1.6489258e-38
-0.016428581 0.0092857331 0.75 1.6772312e-38
-0.014960017 0.0092609748 0.74799997 1.7048182e-38
-0.013517153 0.0092485696 0.74700004 1.816169e-38
-0.012094283 0.0092485845 0.74700004 1.9259038e-38
-0.010642854 0.0092238039 0.74500006 1.9265124e-38
-0.0092238225 0.0092238188 0.74500006 1.9259379e-38
-0.0078047649 0.0092238113 0.74500006 1.9355872e-38
-0.0063857175 0.0092238337 0.745 1.9351572e-38
-0.0049666744 0.0092238188 0.74500006 1.9817928e-38
-0.0035476168 0.0092238188 0.74500006 2.0178825e-38
-0.0021228483 0.009199053 0.74300003 2.0098842e-38
-0.00070761278 0.009199068 0.74300003 1.9901182e-38
0.00070666202 0.0091866627 0.74199998 2.000163e-38
0.0021199971 0.0091866702 0.74200004 1.9990864e-38
0.0035333317 0.0091866702 0.74200004 1.9722528e-38
0.0049466663 0.0091866776 0.74200004 1.9430154e-38
0.0063600005 0.0091866702 0.74200004 1.8792319e-38
0.0077733351 0.0091866776 0.74200004 1.8131161e-38
0.0091866711 0.0091866702 0.74200004 1.7304628e-38
0.010600004 0.0091866776 0.74200004 1.6364358e-38
0.012013339 0.0091866702 0.74200004 1.5708203e-38
0.013390481 0.0091619119 0.74000001 1.4975303e-38
0.01480001 0.0091619045 0.74000001 1.5906202e-38
0.016209533 0.0091619119 0.74000001 1.6742774e-38
0.017666662 0.0091866851 0.74199998 1.287493e-38
0.019079996 0.0091866702 0.74199998 9.0146441e-39
0.02049333 0.0091866776 0.74199998 1.021392e-38
0.021936195 0.0091990605 0.74299997 1.132491e-38
0.023319991 0.0091866851 0.74199998 1.0225751e-38
0.024766667 0.0091990605 0.74299997 9.1090146e-39
0.026181908 0.009199068 0.74300003 6.6125943e-39
0.027597146 0.0091990605 0.74299997 4.0483513e-39
0.029012388 0.0091990456 0.74300003 3.4922936e-39
0.030509515 0.0092238113 0.745 2.853415e-39
0.031928565 0.0092238113 0.74500006 3.039621e-39
0.033347618 0.0092238113 0.74500006 3.1429387e-39
0.034766663 0.0092238262 0.74500006 7.3788552e-39
0.036185708 0.0092238113 0.74500006 1.1598975e-38
0.038008582 0.0093228742 0.75300002 1.1586411e-38
0.039442863 0.0093228668 0.75300002 1.1583532e-38
0.040877145 0.0093228742 0.75300002 8.9210121e-39
-0.039573338 0.011200018 0.78400004 8.3746739e-39
-0.038080007 0.011200003 0.78400004 7.9032351e-39
-0.036353346 0.011128582 0.77900004 7.5315995e-39
-0.034780007 0.011100024 0.77699995 8.8259172e-39
-0.032914288 0.010971449 0.76800001 1.0108377e-38
-0.031451434 0.010971442 0.76799995 1.0297062e-38
-0.029988578 0.010971442 0.76799995 1.0566149e-38
-0.028414279 0.010928594 0.76500005 1.1407414e-38
-0.026816206 0.010871455 0.76099998 1.2154989e-38
-0.02526667 0.010828577 0.75800002 1.123625e-38
-0.023759991 0.010800011 0.75600004 1.0219979e-38
-0.022320002 0.010800011 0.75599998 1.1516455e-38
-0.020852381 0.010785729 0.75500005 1.2902992e-38
-0.019362858 0.010757163 0.75300002 1.3445072e-38
-0.017904757 0.010742866 0.75200003 1.4080735e-38
-0.016428577 0.010714315 0.75 1.4265469e-38
-0.015000001 0.010714307 0.75 1.445309e-38
-0.013535243 0.010685734 0.74800003 1.50963e-38
-0.012094285 0.010671437 0.74700004 1.583098e-38
-0.010671431 0.010671437 0.74700004 1.5923888e-38
-0.0092485752 0.010671422 0.74700004 1.6108624e-38
-0.0078047751 0.010642871 0.745 1.6107535e-38
-0.0063857171 0.010642871 0.74500006 1.610755e-38
-0.0049666595 0.010642871 0.74500006 1.6381995e-38
-0.0035476265 0.010642871 0.74500006 1.6653577e-38
-0.0021228562 0.010614291 0.74300003 1.6747586e-38
-0.0007076207 0.010614283 0.74300003 1.6829024e-38
0.00070667273 0.010600016 0.74199998 1.6929116e-38
0.0021199994 0.010600001 0.74200004 1.7109194e-38
0.0035333349 0.010600016 0.74200004 1.7016993e-38
0.0049466696 0.010600008 0.74200004 1.6909377e-38
0.0063600037 0.010600001 0.74200004 1.6639972e-38
0.0077733309 0.010600001 0.74200004 1.6439053e-38
0.0091866683 0.010599993 0.74200004 1.6173201e-38
0.010600002 0.010600008 0.74200004 1.5887982e-38
0.012013337 0.010600001 0.74200004 1.5429853e-38
0.013426671 0.010600008 0.74200004 1.5061411e-38
0.014840005 0.010599993 0.74200004 1.6090948e-38
0.01625333 0.010600016 0.74199998 1.7216305e-38
0.017666664 0.010600008 0.74199998 1.2971797e-38
0.01908 0.010600016 0.74199998 8.8165846e-39
0.020520957 0.010614283 0.74300003 1.0478934e-38
0.021936193 0.010614298 0.74300003 1.2229937e-38
0.023351431 0.010614291 0.74300003 1.1963429e-38
0.024766667 0.010614306 0.74300003 1.1670315e-38
0.026181916 0.010614291 0.74300003 8.7272434e-39
0.027597144 0.010614306 0.74300003 5.6941609e-39
0.029012389 0.010614291 0.74300003 4.9627055e-39
0.030509524 0.010642864 0.74500006 4.2352494e-39
0.032014284 0.010671437 0.74700004 5.9891454e-39
0.033437137 0.010671437 0.74700004 7.8165031e-39
0.034766667 0.010642864 0.74500006 9.5767778e-39
0.036185715 0.010642879 0.745 1.1328832e-38
0.038008574 0.010757156 0.75299996 1.1407042e-38
0.03944286 0.010757163 0.75299996 1.1490256e-38
0.040985715 0.010785729 0.755 8.8298857e-39
0.04259238 0.010828577 0.75799996 6.2609903e-39
0.044152383 0.010857143 0.76000005 5.8943518e-39
0.045600001 0.010857143 0.76000005 5.6181194e-39
0.047047608 0.010857157 0.75999999 5.2514851e-39
-0.036353335 0.012612388 0.77900004 7.4404815e-39
-0.034780025 0.012580007 0.77699995 8.1769703e-39
-0.033000011 0.012466677 0.76999998 8.8194502e-39
-0.031451441 0.012434304 0.76799995 9.1839126e-39
-0.02987141 0.012385719 0.76500005 9.4612463e-39
-0.028414277 0.012385726 0.76500005 1.0470393e-38
-0.026816204 0.012320973 0.76099998 1.1407377e-38
-0.025333336 0.012304775 0.76000005 1.2437991e-38
-0.023759993 0.012240008 0.75600004 1.3356719e-38
-0.022320002 0.012240015 0.75599998 1.3918866e-38
-0.020852378 0.012223817 0.75500005 1.4363351e-38
-0.019362861 0.012191452 0.75299996 1.2965745e-38
-0.017904745 0.012175247 0.75200003 1.1583181e-38
-0.016428577 0.012142874 0.75 1.1663528e-38
-0.014999997 0.012142867 0.75000006 1.1763973e-38
-0.013535248 0.012110502 0.74800003 1.2030872e-38
-0.012094288 0.012094289 0.74699998 1.2314985e-38
-0.010671433 0.012094304 0.74700004 1.2581881e-38
-0.009248578 0.012094289 0.74700004 1.2866707e-38
-0.007825708 0.012094297 0.74700004 1.2857374e-38
-0.0063857171 0.012061909 0.74500006 1.2774514e-38
-0.0049666693 0.012061916 0.74500006 1.2949225e-38
-0.0035476268 0.012061909 0.74500006 1.3048964e-38
-0.0021228585 0.012029544 0.74300003 1.3408425e-38
-0.00070761278 0.012029536 0.74300003 1.3689674e-38
0.00070666854 0.012013339 0.74199998 1.3959444e-38
0.0021200036 0.012013339 0.74199998 1.4149928e-38
0.0035333307 0.012013339 0.74200004 1.4234945e-38
0.0049466663 0.012013331 0.74200004 1.4329657e-38
0.0063600005 0.012013346 0.74200004 1.4510467e-38
0.0077733351 0.012013339 0.74200004 1.4694124e-38
0.0091866711 0.012013346 0.74200004 1.5061453e-38
0.010600005 0.012013331 0.74200004 1.5428785e-38
0.01201334 0.012013339 0.74200004 1.5245106e-38
0.013426667 0.012013331 0.74200004 1.5065357e-38
0.014839991 0.012013353 0.74199998 1.636287e-38
0.016253326 0.012013339 0.74199998 1.766651e-38
0.01766666 0.012013353 0.74199998 1.3162275e-38
0.019079994 0.012013346 0.74199998 8.5554344e-39
0.020520959 0.012029536 0.74300003 1.0839126e-38
0.021936195 0.012029544 0.74300003 1.3161947e-38
0.02335144 0.012029529 0.74300003 1.3727694e-38
0.024766676 0.012029529 0.74300003 1.4264319e-38
0.026181914 0.012029529 0.74300003 1.0839461e-38
0.027597142 0.012029529 0.74300003 7.3572457e-39
0.029090477 0.012061916 0.74500006 6.4288449e-39
0.030509518 0.012061916 0.745 5.5320881e-39
0.032057129 0.012110487 0.74799997 9.0488148e-39
0.033481888 0.012110502 0.74799997 1.2433396e-38
0.035000008 0.012142874 0.75 1.1782595e-38
0.036428574 0.012142874 0.75000006 1.1045058e-38
0.038008586 0.012191452 0.75300002 1.122193e-38
0.039547611 0.012223832 0.755 1.1401651e-38
0.040985718 0.012223832 0.75500005 8.8302528e-39
0.04259238 0.01227238 0.75800002 6.1695234e-39
0.044152379 0.012304768 0.76000005 5.8039638e-39
0.045480002 0.01227238 0.75800002 5.4355471e-39
0.046923801 0.012272395 0.75799996 5.0674904e-39
-0.036353331 0.0140962 0.77900004 6.5214104e-39
-0.034780014 0.014060028 0.77699995 7.7163579e-39
-0.033000007 0.013933353 0.76999998 8.9098494e-39
-0.031451434 0.013897158 0.76800001 9.1846272e-39
-0.029949514 0.013879046 0.76700002 9.552356e-39
-0.028414275 0.013842858 0.76500005 1.0104473e-38
-0.026816193 0.013770476 0.76100004 1.0749808e-38
-0.025333347 0.013752401 0.75999999 1.1594238e-38
-0.023822855 0.013716199 0.75800002 1.2533052e-38
-0.022319993 0.013680004 0.75600004 1.2800319e-38
-0.020852391 0.013661914 0.755 1.3166222e-38
-0.019414287 0.013661928 0.755 1.231889e-38
-0.017904762 0.013607636 0.75200003 1.1479808e-38
-0.016472371 0.013607621 0.75200003 1.1847143e-38
-0.015000006 0.013571456 0.75 1.2214484e-38
-0.013535254 0.013535254 0.74799997 1.2489988e-38
-0.012094295 0.013517141 0.74700004 1.285733e-38
-0.010671435 0.013517164 0.74699998 1.3132836e-38
-0.0092485808 0.013517149 0.74700004 1.3408343e-38
-0.0078257108 0.013517149 0.74700004 1.3408343e-38
-0.0063857124 0.013480961 0.74500006 1.3500178e-38
-0.0049666693 0.013480946 0.74500006 1.3592014e-38
-0.0035476219 0.013480969 0.745 1.3775686e-38
-0.0021228516 0.013444766 0.74300003 1.4051192e-38
-0.00070762023 0.013444766 0.74300003 1.4418534e-38
0.00070761523 0.013444766 0.74300003 1.451037e-38
0.0021228613 0.013444766 0.74300003 1.4694042e-38
0.003533334 0.013426676 0.74200004 1.4785878e-38
0.004953335 0.013444781 0.74300003 1.478589e-38
0.0063600037 0.013426669 0.74200004 1.4877737e-38
0.0077733384 0.013426676 0.74200004 1.5061412e-38
0.0091866739 0.013426669 0.74200004 1.5153252e-38
0.010600001 0.013426676 0.74200004 1.5336931e-38
0.012013336 0.013426661 0.74200004 1.5153269e-38
0.01342667 0.013426676 0.74200004 1.4969577e-38
0.014839994 0.013426684 0.74199998 1.6363589e-38
0.016253328 0.013426676 0.74199998 1.7863809e-38
0.017666662 0.013426676 0.74199998 1.4457287e-38
0.019079998 0.013426676 0.74199998 1.0954644e-38
0.020520955 0.013444781 0.74300003 1.3621839e-38
0.021936195 0.013444766 0.74300003 1.6218728e-38
0.023351429 0.013444781 0.74299997 1.6869134e-38
0.024766669 0.013444774 0.74300003 1.7421534e-38
0.026181912 0.013444774 0.74300003 1.5751944e-38
0.027671434 0.013480969 0.74500006 1.4181054e-38
0.029168567 0.013517156 0.74699998 9.2057924e-39
0.030632373 0.013535269 0.74799997 4.2525092e-39
0.032057125 0.013535261 0.74799997 8.5860906e-39
0.033571433 0.013571441 0.75 1.2911592e-38
0.035000008 0.013571464 0.75 1.2067042e-38
0.036525726 0.013607629 0.75200003 1.1316243e-38
0.038008578 0.013625734 0.75300002 1.1404159e-38
0.039547618 0.013661921 0.75500005 1.1584604e-38
0.040985715 0.013661928 0.75500005 9.0146483e-39
0.042479999 0.013680011 0.75600004 6.4453984e-39
0.044152379 0.013752386 0.76000005 5.8025401e-39
0.045599993 0.013752386 0.75999999 5.1607819e-39
-0.036353335 0.015580021 0.77899998 5.5112256e-39
-0.034690492 0.015500017 0.77499998 7.2575504e-39
-0.033085726 0.015440024 0.77199996 9.0031296e-39
-0.031533349 0.015400022 0.76999998 9.2764725e-39
-0.029988578 0.015360013 0.76799995 9.5523588e-39
-0.028414274 0.015299998 0.76500005 9.8286037e-39
-0.026816204 0.015220016 0.76099998 1.010588e-38
-0.025333345 0.015200011 0.76000005 1.084018e-38
-0.023822861 0.015160002 0.75800002 1.1585996e-38
-0.022319993 0.015120007 0.75600004 1.1766091e-38
-0.020880004 0.015120007 0.75600004 1.1950112e-38
-0.019414298 0.015100025 0.755 1.1663478e-38
-0.017904753 0.015040003 0.75200003 1.1387973e-38
-0.016472373 0.01504001 0.75200003 1.2030824e-38
-0.015000004 0.01500003 0.75 1.2673674e-38
-0.013571426 0.015000015 0.75 1.3041017e-38
-0.012110489 0.014960028 0.74799997 1.3316527e-38
-0.010671427 0.014940001 0.74700004 1.3683873e-38
-0.0092485826 0.014940009 0.74699998 1.3959388e-38
-0.0078257136 0.014940009 0.74700004 1.4051232e-38
-0.006385712 0.014899999 0.74500006 1.4143053e-38
-0.0049666795 0.014900014 0.745 1.432671e-38
-0.0035476214 0.014899999 0.74500006 1.4418544e-38
-0.0021228585 0.014860012 0.74300003 1.4785885e-38
-0.00070761278 0.014860019 0.74300003 1.506176e-38
0.00070762221 0.014860012 0.74300003 1.5153605e-38
0.0021228609 0.014860004 0.74300003 1.5245078e-38
0.0035380959 0.014860012 0.74300003 1.5245074e-38
0.004953342 0.014859997 0.74300003 1.5245089e-38
0.0063599995 0.014840014 0.74200004 1.5336941e-38
0.0077733351 0.014839999 0.74200004 1.533693e-38
0.0091866683 0.014839992 0.74200004 1.5336919e-38
0.010600004 0.014840007 0.74200004 1.5245096e-38
0.012013339 0.014840007 0.74200004 1.5061439e-38
0.013426673 0.014840007 0.74200004 1.4786636e-38
0.014839998 0.014840007 0.74199998 1.6442173e-38
0.016253324 0.014840014 0.74199998 1.8038181e-38
0.017666658 0.014840014 0.74199998 1.575665e-38
0.019079993 0.014840022 0.74199998 1.3351371e-38
0.020520946 0.014860012 0.74300003 1.6290846e-38
0.021936193 0.014860012 0.74300003 1.9254755e-38
0.023351429 0.014860004 0.74300003 1.9924928e-38
0.024766674 0.014860012 0.74300003 2.0559504e-38
0.026181901 0.014860012 0.74300003 2.0749252e-38
0.027671425 0.014900006 0.745 2.090453e-38
0.029168574 0.014940001 0.74700004 1.196092e-38
0.030632364 0.014960021 0.74799997 2.9646753e-39
0.032057125 0.014960013 0.74799997 8.2226638e-39
0.033571426 0.015000015 0.75000006 1.3366121e-38
0.035 0.015000023 0.75 1.2441979e-38
0.036525723 0.015040018 0.75200003 1.1506754e-38
0.038008574 0.01506003 0.75299996 1.1676783e-38
0.039442856 0.015060022 0.75299996 1.176754e-38
0.040877141 0.01506003 0.75299996 9.2894149e-39
0.042479999 0.01512 0.75600004 6.7205265e-39
0.044152379 0.015200011 0.76000005 5.8000122e-39
0.045659982 0.015220016 0.76099998 4.7891169e-39
-0.036353342 0.017063841 0.77899998 7.1635541e-39
-0.034780007 0.017020009 0.77700001 8.3660447e-39
-0.03308573 0.016910493 0.77199996 9.5584586e-39
-0.031533338 0.016866684 0.77000004 9.83144e-39
-0.029988572 0.01682286 0.76800001 1.0103016e-38
-0.028488565 0.016800962 0.76700002 1.0292441e-38
-0.026886674 0.016713351 0.76300001 1.0474653e-38
-0.02536667 0.016669534 0.76100004 1.0930937e-38
-0.023822853 0.016603805 0.75800002 1.1479808e-38
-0.022379054 0.016603827 0.75800002 1.1574884e-38
-0.020880004 0.016560026 0.75600004 1.1755315e-38
-0.019414295 0.016538121 0.755 1.1663468e-38
-0.017928561 0.016494304 0.75300002 1.1571644e-38
-0.016472379 0.016472384 0.75200003 1.2030833e-38
-0.015000002 0.01642859 0.75 1.239818e-38
-0.013571424 0.01642859 0.75000006 1.2765528e-38
-0.012142857 0.016428597 0.75 1.3041041e-38
-0.010714289 0.016428605 0.75 1.3316553e-38
-0.009260959 0.01638478 0.74799997 1.3592077e-38
-0.0078257155 0.016362868 0.74699998 1.3775764e-38
-0.0064028609 0.016362876 0.74700004 1.3959409e-38
-0.0049666641 0.016319051 0.74500006 1.4143052e-38
-0.0035476314 0.016319066 0.745 1.4418555e-38
-0.0021228516 0.016275249 0.74300003 1.4694058e-38
-0.00070761604 0.016275249 0.74299997 1.4969943e-38
0.00070761523 0.016275249 0.74300003 1.5061798e-38
0.0021199984 0.01625333 0.74200004 1.52451e-38
0.0035333335 0.016253337 0.74200004 1.524509e-38
0.004953342 0.016275242 0.74300003 1.5245111e-38
0.0063600028 0.016253337 0.74200004 1.5336966e-38
0.007773337 0.016253337 0.74200004 1.533694e-38
0.009186673 0.016253345 0.74200004 1.5336913e-38
0.010600001 0.016253337 0.74200004 1.5336931e-38
0.012013337 0.016253345 0.74200004 1.5153279e-38
0.013426661 0.016253345 0.74199998 1.5061439e-38
0.014839996 0.016253337 0.74199998 1.6452958e-38
0.01625333 0.016253345 0.74199998 1.7773823e-38
0.01769048 0.016275249 0.74300003 1.5474361e-38
0.019105719 0.016275249 0.74300003 1.3158408e-38
0.020520955 0.016275242 0.74300003 1.4449869e-38
0.021936201 0.016275235 0.74300003 1.5676116e-38
0.023351427 0.016275249 0.74300003 1.789031e-38
0.024833335 0.016319059 0.74500006 2.0101182e-38
0.026252382 0.016319051 0.745 2.0378487e-38
0.027745711 0.016362868 0.74700004 2.0655683e-38
0.02916857 0.016362853 0.74700004 1.2068243e-38
0.030632365 0.016384788 0.74799997 3.4931036e-39
0.03205714 0.01638478 0.74800003 7.1901997e-39
0.033571415 0.016428605 0.75 1.0980206e-38
0.035000004 0.01642859 0.75 1.1430414e-38
0.036525719 0.016472384 0.75200003 1.1877707e-38
0.038008578 0.016494311 0.75300002 1.1865104e-38
0.039547618 0.016538121 0.75500005 1.1947965e-38
0.040985715 0.016538113 0.755 9.105004e-39
0.042479999 0.016560018 0.75600004 6.357111e-39
0.044210464 0.016669534 0.76099998 5.5273587e-39
0.045779984 0.016713351 0.76299995 4.7937608e-39
0.047542851 0.016822875 0.76799995 3.4072698e-39
0.049133331 0.016866684 0.76999998 2.0218313e-39
0.050600007 0.016866677 0.77000004 1.8406574e-39
0.05193143 0.016822867 0.76799995 1.6541319e-39
-0.036353335 0.018547632 0.77900004 8.7365915e-39
-0.034690488 0.018452398 0.77500004 9.4849255e-39
-0.033085719 0.018380962 0.77199996 1.0119508e-38
-0.031533334 0.018333346 0.77000004 1.0387108e-38
-0.030066678 0.018333353 0.76999998 1.0573297e-38
-0.028414277 0.0182143 0.76500005 1.0762716e-38
-0.026886681 0.018166676 0.76300001 1.0848799e-38
-0.025366683 0.018119067 0.76099998 1.1112457e-38
-0.023885718 0.01809524 0.76000005 1.1304383e-38
-0.022379046 0.018047623 0.75800002 1.1481602e-38
-0.020880004 0.018000014 0.75600004 1.1575586e-38
-0.019414281 0.017976202 0.75500005 1.1663472e-38
-0.017928567 0.017928585 0.75300002 1.1759257e-38
-0.016472368 0.017904758 0.75200003 1.1938986e-38
-0.015000001 0.017857172 0.75 1.2127682e-38
-0.013571433 0.017857172 0.75 1.2490004e-38
-0.012142856 0.017857157 0.75 1.2768386e-38
-0.010714288 0.017857172 0.75 1.3041027e-38
-0.0092857201 0.017857164 0.75 1.3226499e-38
-0.0078362096 0.01780954 0.74799997 1.3500219e-38
-0.0064028632 0.017785735 0.74699998 1.3687104e-38
-0.0049800081 0.017785728 0.74700004 1.4051204e-38
-0.0035476165 0.017738096 0.74500006 1.4418547e-38
-0.002122859 0.017690472 0.74300003 1.4602218e-38
-0.00070666702 0.017666675 0.74200004 1.478626e-38
0.0007066676 0.017666668 0.74200004 1.4969944e-38
0.0021200026 0.017666675 0.74200004 1.5153253e-38
0.0035333368 0.017666675 0.74200004 1.5245088e-38
0.0049466649 0.017666675 0.74200004 1.5245095e-38
0.0063599995 0.017666668 0.74200004 1.5336937e-38
0.0077733337 0.017666668 0.74200004 1.533692e-38
0.0091866683 0.017666675 0.74200004 1.5336905e-38
0.010600003 0.017666675 0.74200004 1.5336922e-38
0.012013338 0.017666668 0.74200004 1.533694e-38
0.013426663 0.017666675 0.74199998 1.5337659e-38
0.014860006 0.017690487 0.74300003 1.6441838e-38
0.016253324 0.017666675 0.74199998 1.7488635e-38
0.017690482 0.01769048 0.74300003 1.5299667e-38
0.019105725 0.017690487 0.74300003 1.2976862e-38
0.020520953 0.017690495 0.74300003 1.2490051e-38
0.021936201 0.01769048 0.74300003 1.2068997e-38
0.023414291 0.017738111 0.74500006 1.5858027e-38
0.024833331 0.017738104 0.74500006 1.9536118e-38
0.026252383 0.017738111 0.74500006 2.0007501e-38
0.027745707 0.017785728 0.74699998 2.0355724e-38
0.029168572 0.017785728 0.74700004 1.2163245e-38
0.030632367 0.017809547 0.74799997 3.9611877e-39
0.032057133 0.017809547 0.74800003 6.2484655e-39
0.033571422 0.017857164 0.75 8.4783798e-39
0.035000004 0.017857149 0.75 1.0420949e-38
0.03652573 0.017904766 0.75200009 1.2245059e-38
0.038008574 0.017928593 0.75299996 1.2141342e-38
0.039547615 0.017976217 0.755 1.2043035e-38
0.040985711 0.01797621 0.755 9.0092211e-39
0.042592384 0.018047623 0.75800002 5.9833076e-39
0.044210475 0.018119067 0.76100004 5.3418899e-39
0.046020009 0.018261909 0.76700002 4.699047e-39
0.047542863 0.018285722 0.76800001 3.5033961e-39
0.049005717 0.018285736 0.76800001 2.3052229e-39
0.050468571 0.018285736 0.76799995 2.7672632e-39
0.05193143 0.018285729 0.76799995 3.1353296e-39
-0.034690481 0.019928582 0.77499998 9.5763966e-39
-0.033085719 0.019851446 0.77199996 1.0496887e-38
-0.031615257 0.019851446 0.77199996 1.0581172e-38
-0.029988581 0.019748591 0.76799995 1.0673009e-38
-0.028488569 0.019722864 0.76700002 1.1503476e-38
-0.026886674 0.019620009 0.76299995 1.242219e-38
-0.025366681 0.019568592 0.76099998 1.288316e-38
-0.023885727 0.019542865 0.76000005 1.3347359e-38
-0.022379052 0.019491427 0.75800002 1.3155795e-38
-0.020880004 0.019439995 0.75600004 1.3055354e-38
-0.019414293 0.019414306 0.75500005 1.3240463e-38
-0.017904749 0.019337147 0.75200003 1.3423772e-38
-0.016472369 0.01933714 0.75200003 1.3887968e-38
-0.014999999 0.019285738 0.75 1.4346787e-38
-0.013571432 0.019285738 0.75 1.452974e-38
-0.012142854 0.019285738 0.75000006 1.4797e-38
-0.010714285 0.019285738 0.75 1.4986413e-38
-0.0092857182 0.019285753 0.75 1.5068919e-38
-0.0078361901 0.019234307 0.74800003 1.5354107e-38
-0.0064028553 0.01920858 0.74700004 1.5625668e-38
-0.0049800104 0.01920858 0.74699998 1.5072502e-38
-0.0035476161 0.019157149 0.74500006 1.460221e-38
-0.0021228516 0.019105718 0.74300003 1.4694049e-38
-0.00070667121 0.019079998 0.74200004 1.4877726e-38
0.00070666388 0.019080013 0.74200004 1.5061401e-38
