# .PCD v0.7 - Point Cloud Data file format
VERSION 0.7
FIELDS x y z rgb
SIZE 4 4 4 4
TYPE F F F F
COUNT 1 1 1 1
WIDTH 955
HEIGHT 1
VIEWPOINT 0 0 0 1 0 0 0
POINTS 955
DATA ascii
-0.0048133628 -0.059822857 0.722 8.1794604e-39
-0.0034381179 -0.059822857 0.722 3.2243177e-39
-0.0020628711 -0.059822872 0.722 4.6086941e-39
-0.00068572816 -0.059657156 0.71999997 5.9801225e-39
0.00068570022 -0.059657156 0.71999997 5.058892e-39
0.0020571267 -0.059657156 0.72000003 4.1405175e-39
0.003438049 -0.059822857 0.722 2.5717624e-39
0.0048132939 -0.059822857 0.722 1.0184903e-39
0.0061885649 -0.059822872 0.722 1.841103e-39
0.0075742723 -0.059905738 0.72300005 2.5804575e-39
0.0089514395 -0.059905723 0.72300005 2.1126788e-39
0.010314242 -0.059822857 0.722 1.5616476e-39
0.011689487 -0.059822857 0.722 3.3065025e-39
0.013082831 -0.059905723 0.72299999 4.9671e-39
0.014459972 -0.059905738 0.72300005 9.4878724e-39
0.01588092 -0.060071453 0.72499996 1.3989235e-38
0.017261852 -0.060071424 0.72499996 1.3528612e-38
0.018668549 -0.060154319 0.72599995 1.2979748e-38
0.020106647 -0.06031999 0.72799999 1.1230208e-38
0.021522824 -0.06040287 0.72899997 9.4860661e-39
0.022974242 -0.060568571 0.73099995 1.0957961e-38
0.024366632 -0.060568571 0.73100001 1.2438805e-38
0.025794292 -0.060651436 0.73199999 1.2812244e-38
0.027188547 -0.060651451 0.73199999 1.3080545e-38
0.028660934 -0.060817152 0.73400003 9.8404433e-39
0.030181885 -0.061065719 0.73699999 6.6322854e-39
0.031714238 -0.0613143 0.73999995 6.6351426e-39
0.033213302 -0.061480016 0.74200004 6.5422323e-39
0.034673352 -0.061562866 0.74299997 6.7248285e-39
0.036185712 -0.061728582 0.74500006 6.8191892e-39
0.037604753 -0.061728597 0.74500006 6.8206381e-39
-0.039954349 -0.059580952 0.736 4.9738865e-39
-0.038342882 -0.059257135 0.73199999 6.2664148e-39
-0.036948599 -0.05925715 0.73199999 7.660128e-39
-0.035554286 -0.059257135 0.73199999 7.5615144e-39
-0.034113381 -0.059176207 0.73099995 7.5635953e-39
-0.032765716 -0.059257165 0.73199999 4.4188742e-39
-0.031328604 -0.059176192 0.73099995 1.3779234e-39
-0.029936245 -0.059176192 0.73099995 8.2693285e-40
-0.028465748 -0.059014291 0.72899997 3.6808888e-40
-0.027077179 -0.059014276 0.72899997 1.7488233e-39
-0.025688607 -0.059014305 0.72899997 3.2286575e-39
-0.024266712 -0.058933333 0.72799999 7.7465951e-39
-0.022722857 -0.058528587 0.72300005 1.2349868e-38
-0.021345746 -0.058528572 0.72300005 1.2990941e-38
-0.019968577 -0.058528587 0.72300005 1.3622619e-38
-0.018642901 -0.058690503 0.72499996 1.1413855e-38
-0.017214298 -0.058528572 0.72300005 9.217e-39
-0.015837157 -0.058528572 0.72300005 9.4889416e-39
-0.014460017 -0.058528572 0.72299999 9.7601265e-39
-0.013082876 -0.058528572 0.72300005 1.0220363e-38
-0.011705709 -0.058528587 0.72300005 1.0680274e-38
-0.010328597 -0.058528572 0.72299999 1.1880248e-38
-0.0089390967 -0.058447614 0.722 1.3066944e-38
-0.0075638518 -0.058447629 0.722 1.0955454e-38
-0.0061885789 -0.058447614 0.722 8.9299903e-39
-0.0048133628 -0.058447614 0.722 6.2545023e-39
-0.0034381179 -0.058447629 0.722 3.6820687e-39
-0.0020629028 -0.058447614 0.722 4.5129293e-39
-0.00068573561 -0.058285743 0.71999997 5.3426858e-39
0.00068758707 -0.058447629 0.722 7.0000379e-39
0.0020571416 -0.058285743 0.72000003 8.6548327e-39
0.003438049 -0.058447614 0.722 6.352809e-39
0.0048133181 -0.058447629 0.722 4.0411304e-39
0.0061885333 -0.058447614 0.722 3.3993511e-39
0.00757425 -0.058528572 0.72299999 2.6635909e-39
0.0089514172 -0.058528572 0.72300005 2.020741e-39
0.010328558 -0.058528587 0.72300005 1.4697281e-39
0.011705696 -0.058528572 0.72299999 2.2051295e-39
0.013082837 -0.058528587 0.72300005 2.9413059e-39
0.014460004 -0.058528587 0.72300005 7.7329521e-39
0.015880935 -0.058690488 0.72500002 1.2610269e-38
0.017285712 -0.058771446 0.72599995 1.3164142e-38
0.018668566 -0.058771431 0.72600001 1.3803764e-38
0.020106619 -0.058933347 0.72799999 1.2889714e-38
0.021522824 -0.059014305 0.72899997 1.2057471e-38
0.022974258 -0.059176207 0.73100001 1.2616393e-38
0.024399996 -0.059257135 0.73199999 1.3265689e-38
0.025864724 -0.059419066 0.73399997 1.3360024e-38
0.027262855 -0.059419066 0.73400003 1.3543282e-38
0.028739013 -0.059580982 0.736 1.0775964e-38
0.030181868 -0.05966191 0.73699999 8.0202084e-39
0.031714235 -0.059904769 0.73999995 7.3702105e-39
0.03321331 -0.06006667 0.74200004 6.6319351e-39
0.034673311 -0.060147613 0.74299997 6.8173941e-39
0.036185708 -0.060309559 0.74500006 7.00287e-39
0.037604775 -0.060309559 0.74500006 6.9117631e-39
-0.038447641 -0.058020979 0.73399997 2.5725121e-39
-0.036948606 -0.057862878 0.73199999 3.9633387e-39
-0.035554297 -0.057862878 0.73199999 4.8842258e-39
-0.034160014 -0.057862863 0.73199999 5.7993129e-39
-0.032765731 -0.057862878 0.73200005 3.769207e-39
-0.031371444 -0.057862863 0.73199999 1.7499135e-39
-0.02993623 -0.057783827 0.73100001 1.1942482e-39
-0.028543843 -0.057783797 0.73099995 5.5318079e-40
-0.027151454 -0.057783812 0.73100001 6.4321001e-40
-0.02565336 -0.05754666 0.72799999 6.5186022e-40
-0.024266684 -0.057546675 0.72799999 4.3364428e-39
-0.022880042 -0.05754666 0.72799999 7.9248473e-39
-0.021345712 -0.057151437 0.72300005 9.4907198e-39
-0.019968601 -0.057151437 0.72300005 1.0948599e-38
-0.018642886 -0.057309553 0.72499996 9.5631642e-39
-0.017261956 -0.057309538 0.72499996 8.1949714e-39
-0.015880994 -0.057309538 0.72499996 9.1262519e-39
-0.014500034 -0.057309538 0.72500002 9.947389e-39
-0.01308287 -0.057151452 0.72300005 1.0505575e-38
-0.011705733 -0.057151437 0.72300005 1.0960459e-38
-0.010328592 -0.057151437 0.72300005 1.059277e-38
-0.0089390948 -0.057072386 0.722 1.0219696e-38
-0.0075743133 -0.057151452 0.72300005 7.4502892e-39
-0.0061886096 -0.057072371 0.722 4.6965933e-39
-0.0048133647 -0.057072386 0.722 4.4099003e-39
-0.0034381198 -0.057072386 0.722 4.1387266e-39
-0.0020629028 -0.057072371 0.722 4.4185659e-39
-0.00068571884 -0.056914285 0.71999997 4.6998415e-39
0.00068758707 -0.057072386 0.722 8.9436753e-39
0.0020628022 -0.057072371 0.722 1.3168463e-38
0.0034380732 -0.057072386 0.722 1.0143268e-38
0.0048133181 -0.057072386 0.722 7.0882497e-39
0.0061971126 -0.057151422 0.72299999 4.9594783e-39
0.0075742798 -0.057151422 0.72300005 2.7622409e-39
0.0089514228 -0.057151437 0.72300005 2.020741e-39
0.01032856 -0.057151407 0.72299999 1.2907206e-39
0.011705703 -0.057151437 0.72300005 1.1023861e-39
0.01308284 -0.057151422 0.72299999 9.2953032e-40
0.014499962 -0.057309538 0.72500002 6.0763174e-39
0.01588089 -0.057309523 0.72499996 1.1144465e-38
0.017285731 -0.057388604 0.72600001 1.2897568e-38
0.018668558 -0.057388604 0.72599995 1.4551333e-38
0.020106643 -0.057546675 0.72799999 1.4650353e-38
0.021522827 -0.057625726 0.72899997 1.464102e-38
0.022974268 -0.057783827 0.73099995 1.4368378e-38
0.024399988 -0.057862878 0.73199999 1.3998187e-38
0.025864754 -0.058020964 0.73400003 1.4002513e-38
0.027262855 -0.058020979 0.73399997 1.3993508e-38
0.028738994 -0.058179051 0.736 1.1699737e-38
0.030181881 -0.058258101 0.73699999 9.3920166e-39
0.031714264 -0.058495238 0.73999995 8.1016617e-39
0.033123769 -0.058495253 0.73999995 6.7252055e-39
0.03462664 -0.05865334 0.74199998 6.9103114e-39
0.036088567 -0.05873239 0.74300003 7.0947013e-39
0.037503812 -0.05873239 0.74299997 7.0947027e-39
-0.038709566 -0.057008579 0.73899996 2.9412526e-39
-0.037049539 -0.056622893 0.73400003 3.7670588e-39
-0.035651464 -0.056622863 0.73399997 3.8621271e-39
-0.034160022 -0.056468591 0.73199999 3.9492935e-39
-0.032765709 -0.056468576 0.73200005 5.7974758e-39
-0.031371452 -0.056468591 0.73199999 7.6374143e-39
-0.029936243 -0.056391448 0.73100001 7.5498836e-39
-0.028543828 -0.056391448 0.73100001 7.4458512e-39
-0.027151467 -0.056391463 0.73099995 4.141567e-39
-0.025688626 -0.056237161 0.72899997 9.1873611e-40
-0.024300028 -0.056237161 0.72899997 2.4878513e-39
-0.022880014 -0.056160018 0.72799999 4.1448293e-39
-0.02143429 -0.056005716 0.72599995 6.9009619e-39
-0.02002386 -0.055928603 0.72499996 9.6488816e-39
-0.018642901 -0.055928603 0.72500002 1.0029167e-38
-0.017261945 -0.055928588 0.72499996 1.0383955e-38
-0.015902843 -0.056005731 0.72600001 8.8345913e-39
-0.014500053 -0.055928588 0.72499996 7.274478e-39
-0.013119092 -0.055928588 0.72500002 7.0936909e-39
-0.011738162 -0.055928588 0.72499996 6.9207903e-39
-0.010357176 -0.055928603 0.72499996 6.9125465e-39
-0.0089762155 -0.055928603 0.72500002 6.9215218e-39
-0.0075742817 -0.055774301 0.72300005 6.1721354e-39
-0.0061971704 -0.055774301 0.72300005 5.4341514e-39
-0.0048200032 -0.055774286 0.72300005 3.7706377e-39
-0.0034428919 -0.055774286 0.72299999 2.1151087e-39
-0.0020629028 -0.055697143 0.722 2.4835465e-39
-0.00068572443 -0.055542871 0.72000003 2.8491453e-39
0.00068569649 -0.055542856 0.71999997 6.5412696e-39
0.002057123 -0.055542856 0.71999997 1.0330231e-38
0.0034380751 -0.055697158 0.722 1.1153551e-38
0.00481332 -0.055697143 0.722 1.1964187e-38
0.0061971443 -0.055774301 0.72300005 1.0953895e-38
0.0075742556 -0.055774286 0.72299999 9.9454986e-39
0.0089514228 -0.055774286 0.72299999 9.668916e-39
0.010328564 -0.055774316 0.72300005 9.4784291e-39
0.011705675 -0.055774286 0.72300005 8.9324383e-39
0.013082842 -0.055774301 0.72300005 8.475821e-39
0.014499946 -0.055928588 0.72499996 1.0959375e-38
0.015880905 -0.055928588 0.72499996 1.3453244e-38
0.01728572 -0.056005746 0.72600001 1.3999915e-38
0.018719973 -0.056160003 0.72799999 1.4557403e-38
0.020106647 -0.056160018 0.72800004 1.4455899e-38
0.021522803 -0.056237131 0.72899997 1.4364754e-38
0.022974253 -0.056391433 0.73099995 1.3894787e-38
0.024399977 -0.056468576 0.73199999 1.352965e-38
0.025794264 -0.056468576 0.73199999 1.3338139e-38
0.027262853 -0.056622863 0.73399997 1.3146559e-38
0.028660931 -0.056622878 0.73399997 1.1128312e-38
0.03018187 -0.056854308 0.73699999 9.1958068e-39
0.031714264 -0.057085723 0.73999995 7.9158341e-39
0.033123795 -0.057085723 0.73999995 6.7266418e-39
0.034673307 -0.057317153 0.74299997 6.9106757e-39
0.036088552 -0.057317138 0.74299997 7.0946971e-39
0.037503798 -0.057317138 0.74299997 6.9117337e-39
-0.041749552 -0.055901915 0.74299997 1.8399469e-39
-0.040117178 -0.055600956 0.73899996 3.2174808e-39
-0.038604781 -0.055450484 0.73699999 3.4025881e-39
-0.037150506 -0.055375248 0.736 3.493346e-39
-0.035748612 -0.055375248 0.736 2.7561495e-39
-0.034253333 -0.055224776 0.73400003 2.0301241e-39
-0.032855257 -0.055224776 0.73399997 7.8337461e-39
-0.031371437 -0.055074304 0.73199999 1.3540432e-38
-0.029936235 -0.054999039 0.73099995 1.4013569e-38
-0.028543845 -0.054999039 0.73100001 1.4364402e-38
-0.027151484 -0.054999039 0.73099995 7.7421964e-39
-0.025688626 -0.054848582 0.72899997 1.1146208e-39
-0.024300028 -0.054848582 0.72899997 7.3508754e-40
-0.02288001 -0.054773346 0.72800004 2.7949178e-40
-0.021434272 -0.054622874 0.72600001 4.3195319e-39
-0.020023845 -0.054547638 0.72499996 8.2911159e-39
-0.018668562 -0.054622874 0.72600001 1.0428144e-38
-0.017285734 -0.054622874 0.72599995 1.2519147e-38
-0.015902853 -0.054622874 0.72599995 8.5529541e-39
-0.014519994 -0.054622889 0.72600001 4.516874e-39
-0.013119077 -0.054547623 0.72500002 3.6738725e-39
-0.011738147 -0.054547638 0.72499996 2.7705703e-39
-0.010357187 -0.054547653 0.72500002 3.2146684e-39
-0.0089762304 -0.054547623 0.72499996 3.5942241e-39
-0.0075743068 -0.054397151 0.72300005 4.8828077e-39
-0.0061971378 -0.054397136 0.72300005 6.1673794e-39
-0.0048200255 -0.054397136 0.72300005 3.122767e-39
-0.0034428583 -0.054397136 0.72300005 9.2925706e-41
-0.0020629028 -0.0543219 0.722 5.5139974e-40
-0.00068765599 -0.054321915 0.722 9.2201655e-40
0.00068758894 -0.0543219 0.722 4.1334367e-39
0.0020628283 -0.0543219 0.722 7.3850181e-39
0.0034380732 -0.054321915 0.722 1.2084804e-38
0.0048199827 -0.054397151 0.72300005 1.6759368e-38
0.0061971201 -0.054397136 0.72299999 1.6946192e-38
0.0075951917 -0.054547638 0.72499996 1.7037312e-38
0.0089761531 -0.054547638 0.72499996 1.7323224e-38
0.010357083 -0.054547638 0.72499996 1.7583653e-38
0.011738042 -0.054547638 0.72499996 1.6856134e-38
0.01311903 -0.054547638 0.72500002 1.6011354e-38
0.01449996 -0.054547638 0.72499996 1.592386e-38
0.015946653 -0.054773346 0.72800004 1.5732629e-38
0.017333297 -0.054773346 0.72799999 1.509083e-38
0.018797103 -0.054999053 0.73099995 1.444224e-38
0.02013424 -0.054848582 0.72899997 1.4250317e-38
0.021581877 -0.054999053 0.73099995 1.4064492e-38
0.023005713 -0.055074289 0.73200005 1.3500206e-38
0.024399996 -0.055074289 0.73199999 1.2957113e-38
0.02586475 -0.055224791 0.73400003 1.2674101e-38
0.027262852 -0.055224776 0.73399997 1.2310691e-38
0.028739013 -0.055375248 0.736 1.0654411e-38
0.030181879 -0.055450484 0.73699999 8.9188457e-39
0.031714231 -0.055676207 0.73999995 7.8232602e-39
0.033123791 -0.055676192 0.73999995 6.7252013e-39
0.034673348 -0.0559019 0.74299997 6.9110471e-39
0.036185719 -0.056052387 0.74500006 7.0954173e-39
0.037604757 -0.056052402 0.74500006 6.6365804e-39
-0.04488004 -0.05485335 0.74799997 4.2398681e-39
-0.043455288 -0.05485335 0.74799997 2.7604585e-39
-0.041412406 -0.054046676 0.73699999 3.4007972e-39
-0.040008612 -0.05404669 0.73699999 4.1347651e-39
-0.038604766 -0.054046676 0.73699999 3.862846e-39
-0.037150525 -0.053973332 0.736 3.5876912e-39
-0.035748601 -0.053973347 0.73600006 2.6675356e-39
-0.034253363 -0.053826675 0.73400003 1.7546667e-39
-0.032765761 -0.053680003 0.73199999 7.4758362e-39
-0.031371448 -0.053680003 0.73199999 1.3197558e-38
-0.029936219 -0.053606689 0.73100001 1.4019712e-38
-0.028543858 -0.053606689 0.73099995 1.4848372e-38
-0.027151443 -0.053606689 0.73100001 1.1153055e-38
-0.02568862 -0.053459987 0.72899997 7.4595377e-39
-0.024300024 -0.053459987 0.72899997 5.0606843e-39
-0.022880016 -0.053386673 0.72799999 2.7554685e-39
-0.02149334 -0.053386703 0.72800004 5.4344807e-39
-0.020023862 -0.053166673 0.72499996 8.2168961e-39
-0.018642902 -0.053166687 0.72499996 9.7774675e-39
-0.017285718 -0.053240016 0.72600001 1.1343957e-38
-0.015902866 -0.053240016 0.72599995 1.1147633e-38
-0.014520007 -0.053240031 0.72600001 1.0963269e-38
-0.013119094 -0.053166673 0.72499996 1.049658e-38
-0.011738134 -0.053166687 0.72499996 1.0129922e-38
-0.010371416 -0.053240016 0.72600001 9.3790602e-39
-0.008988563 -0.053240001 0.72599995 8.6329248e-39
-0.0075742994 -0.053020015 0.72300005 1.0214604e-38
-0.006197162 -0.053020015 0.72299999 1.1872996e-38
-0.0048200199 -0.05302 0.72300005 9.6610239e-39
-0.0034428826 -0.053020015 0.72299999 7.4390409e-39
-0.0020657415 -0.053020015 0.72300005 7.8203791e-39
-0.00068765972 -0.052946657 0.722 8.1841772e-39
0.00068761129 -0.052946672 0.722 9.9459555e-39
0.0020657061 -0.053020015 0.72300005 1.1715976e-38
0.0034428472 -0.053020015 0.72300005 1.3732803e-38
0.0048199845 -0.053020015 0.72299999 1.5848554e-38
0.0061971257 -0.053020015 0.72300005 1.5840967e-38
0.0075952066 -0.053166687 0.72499996 1.5944645e-38
0.008976168 -0.053166702 0.72500002 1.5835953e-38
0.010357098 -0.053166687 0.72499996 1.5748402e-38
0.011738057 -0.053166687 0.72500002 1.536382e-38
0.013118989 -0.053166687 0.72499996 1.4983587e-38
0.014519992 -0.053240016 0.72599995 1.4707385e-38
0.015968539 -0.053460017 0.72899997 1.4513655e-38
0.017357104 -0.053460002 0.72899997 1.4427543e-38
0.018745676 -0.053460002 0.72899997 1.4329588e-38
0.020134242 -0.053460002 0.72899997 1.4517184e-38
0.021611419 -0.053680003 0.73199999 1.4785902e-38
0.0230057 -0.053680003 0.73199999 1.4062005e-38
0.024399988 -0.053680003 0.73199999 1.3409834e-38
0.02586475 -0.05382669 0.73400003 1.2858465e-38
0.027262826 -0.05382669 0.73399997 1.2308878e-38
0.028738994 -0.053973332 0.736 1.0657983e-38
0.030181892 -0.054046676 0.73699999 9.0124567e-39
0.031714261 -0.054266661 0.73999995 7.8232377e-39
0.033123765 -0.054266676 0.73999995 6.7248383e-39
0.034673307 -0.054486677 0.74299997 6.8192228e-39
0.036282815 -0.054780021 0.74699998 7.0050196e-39
0.037705671 -0.054780021 0.74699998 6.6365733e-39
-0.044820048 -0.053357154 0.74699998 5.7160772e-39
-0.043280963 -0.053214312 0.74500006 5.0624527e-39
-0.041861899 -0.053214312 0.74500006 5.0513194e-39
-0.040334307 -0.053071439 0.74299997 5.0584983e-39
-0.038709551 -0.052785724 0.73900002 4.4174477e-39
-0.037200965 -0.052642882 0.73699999 3.6802442e-39
-0.035797175 -0.052642867 0.73699999 2.571754e-39
-0.03434673 -0.052571446 0.736 1.3916029e-39
-0.032855261 -0.052428588 0.73399997 7.1166932e-39
-0.03137143 -0.052285716 0.73199999 1.27226e-38
-0.029936232 -0.052214295 0.73099995 1.4019773e-38
-0.028543843 -0.05221431 0.73100001 1.5205354e-38
-0.027151456 -0.05221431 0.73099995 1.45614e-38
-0.025688587 -0.052071452 0.72899997 1.3804441e-38
-0.024200002 -0.051857173 0.72599995 9.4755816e-39
-0.022880014 -0.052000001 0.72800004 5.1517967e-39
-0.021493368 -0.052000016 0.72799999 6.6297897e-39
-0.020023847 -0.051785737 0.72499996 8.012371e-39
-0.018668555 -0.051857159 0.72600001 9.1198045e-39
-0.017285727 -0.051857173 0.72600001 1.0133232e-38
-0.015902845 -0.051857173 0.72600001 1.3821728e-38
-0.014520016 -0.051857188 0.72600001 1.740688e-38
-0.013137135 -0.051857159 0.72600001 1.7402916e-38
-0.011754282 -0.051857159 0.72599995 1.7398585e-38
-0.010371425 -0.051857173 0.72600001 1.5538172e-38
-0.0089885741 -0.051857159 0.72599995 1.3619346e-38
-0.0076057175 -0.051857173 0.72600001 1.5560839e-38
-0.0061971564 -0.05164285 0.72300005 1.7488285e-38
-0.0048200199 -0.05164285 0.72299999 1.6116827e-38
-0.0034428788 -0.051642865 0.72300005 1.4727439e-38
-0.0020629046 -0.051571444 0.722 1.5106604e-38
-0.00068763178 -0.051571429 0.722 1.5369932e-38
0.00068758335 -0.051571414 0.722 1.5657654e-38
0.0020628283 -0.051571429 0.722 1.5923137e-38
0.0034428472 -0.051642865 0.72299999 1.5464698e-38
0.0048199883 -0.051642865 0.72300005 1.4906483e-38
0.0061971257 -0.05164285 0.72299999 1.4808164e-38
0.0075951936 -0.051785722 0.72500002 1.4714172e-38
0.0089761512 -0.051785737 0.72499996 1.4327454e-38
0.010357111 -0.051785722 0.72499996 1.387868e-38
0.011754301 -0.051857173 0.72600001 1.3867559e-38
0.013137129 -0.051857159 0.72599995 1.3871158e-38
0.014559976 -0.052000016 0.72799999 1.3592075e-38
0.015946651 -0.052000016 0.72800004 1.3225437e-38
0.017357109 -0.052071422 0.72899997 1.3683884e-38
0.018745679 -0.052071437 0.72899997 1.4146286e-38
0.020189486 -0.05221428 0.73099995 1.479523e-38
0.021581879 -0.052214295 0.73100001 1.5456056e-38
0.022974238 -0.052214295 0.73099995 1.4735403e-38
0.024400005 -0.052285716 0.73199999 1.3878355e-38
0.02579426 -0.052285701 0.73199999 1.3041036e-38
0.027262824 -0.052428588 0.73399997 1.2216314e-38
0.02873903 -0.052571446 0.73600006 1.0656191e-38
0.03014092 -0.052571431 0.736 9.1039433e-39
0.031671405 -0.05278571 0.73899996 7.916169e-39
0.033123765 -0.052857161 0.73999995 6.633e-39
0.034673318 -0.053071424 0.74299997 6.7270047e-39
0.036088564 -0.053071424 0.74299997 6.8195367e-39
0.037756141 -0.053428575 0.74799997 6.7276802e-39
0.039285727 -0.053571433 0.75000006 6.5443693e-39
0.040714268 -0.053571433 0.75 6.8213107e-39
-0.044700012 -0.051795259 0.745 6.7295201e-39
-0.043280974 -0.051795259 0.745 6.5379289e-39
-0.041749541 -0.051656172 0.74299997 6.3484902e-39
-0.040171456 -0.051447645 0.74000001 6.1709247e-39
-0.038709532 -0.051378101 0.73899996 6.3556789e-39
-0.03720098 -0.051239073 0.73699999 6.6240037e-39
-0.035797164 -0.051239058 0.73699999 3.6784435e-39
-0.034393374 -0.051239058 0.73699999 7.3545608e-40
-0.032855235 -0.051030502 0.73400003 3.8754927e-39
-0.031457156 -0.051030487 0.73400003 7.097679e-39
-0.029977156 -0.050891444 0.73199999 8.0203906e-39
-0.028582901 -0.050891444 0.73199999 9.0344823e-39
-0.027151473 -0.050821915 0.73099995 9.4885927e-39
-0.025759082 -0.050821915 0.73100001 1.0037394e-38
-0.024266686 -0.050613344 0.72800004 8.0944394e-39
-0.022817155 -0.050474301 0.72599995 6.2462837e-39
-0.021434272 -0.050474301 0.72600001 7.1761517e-39
-0.020051446 -0.050474301 0.72599995 8.1748291e-39
-0.018668562 -0.050474286 0.72600001 1.0025855e-38
-0.017285736 -0.050474286 0.72599995 1.1849406e-38
-0.015902855 -0.050474301 0.72599995 1.4554362e-38
-0.014519998 -0.050474316 0.72600001 1.7337707e-38
-0.013137145 -0.050474301 0.72599995 1.7236484e-38
-0.011738138 -0.050404787 0.72499996 1.7064632e-38
-0.010371436 -0.050474301 0.72599995 1.5750934e-38
-0.0089762472 -0.050404772 0.72499996 1.4377387e-38
-0.0075952867 -0.050404787 0.72499996 1.5286813e-38
-0.0062143272 -0.050404787 0.72500002 1.6209095e-38
-0.0048333965 -0.050404772 0.72499996 1.5278883e-38
-0.00345241 -0.050404772 0.72499996 1.4462011e-38
-0.0020657359 -0.050265729 0.72300005 1.4540534e-38
-0.00068763364 -0.050196201 0.722 1.4725635e-38
0.00068758149 -0.050196201 0.722 1.480706e-38
0.0020656874 -0.050265729 0.72300005 1.4976749e-38
0.0034428546 -0.050265715 0.72300005 1.4705913e-38
0.0048199659 -0.050265715 0.72299999 1.4422155e-38
0.0062142471 -0.050404757 0.72499996 1.4425025e-38
0.0075951768 -0.050404772 0.72499996 1.4510391e-38
0.0089761382 -0.050404772 0.72499996 1.44189e-38
0.01037141 -0.050474316 0.72599995 1.4234891e-38
0.011754292 -0.050474286 0.72599995 1.4234912e-38
0.013173303 -0.050613329 0.72799999 1.4234912e-38
0.014579978 -0.050682873 0.72899997 1.405124e-38
0.015968543 -0.050682873 0.72899997 1.3867558e-38
0.017357085 -0.050682858 0.72899997 1.4143053e-38
0.018745683 -0.050682873 0.72899997 1.4418575e-38
0.020189505 -0.050821915 0.73100001 1.6012796e-38
0.021581862 -0.050821915 0.73099995 1.7507331e-38
0.023005683 -0.050891414 0.73199999 1.5464405e-38
0.024399996 -0.050891429 0.73199999 1.3408432e-38
0.025864746 -0.051030487 0.73399997 1.28577e-38
0.027262852 -0.051030487 0.73400003 1.2216303e-38
0.028739009 -0.051169544 0.736 1.0475391e-38
0.03018189 -0.051239043 0.73699999 8.6465706e-39
0.031714257 -0.05144763 0.74000001 7.823993e-39
0.033123791 -0.05144763 0.73999995 7.0010567e-39
0.034906641 -0.052003816 0.74799997 6.9102918e-39
0.036331397 -0.052003831 0.74800003 6.9106365e-39
0.037756149 -0.052003831 0.74800003 6.818787e-39
-0.044700012 -0.050376207 0.74500006 7.7493991e-39
-0.043280974 -0.050376207 0.74500006 7.9219382e-39
-0.041749556 -0.050240949 0.74299997 7.541672e-39
-0.040171485 -0.050038099 0.73999995 7.1861696e-39
-0.038709536 -0.049970478 0.73899996 8.3943818e-39
-0.037301928 -0.049970463 0.73899996 9.5745904e-39
-0.035797179 -0.04983525 0.73699999 4.8740986e-39
-0.034393363 -0.04983525 0.73699999 9.4015917e-41
-0.032855235 -0.0496324 0.73400003 7.3509735e-40
-0.031371422 -0.049497157 0.73199999 1.3844282e-39
-0.029936207 -0.049429536 0.73099995 2.1126816e-39
-0.028543847 -0.049429536 0.73099995 2.7655732e-39
-0.027151458 -0.049429551 0.73100001 4.5039891e-39
-0.025688607 -0.049294293 0.72899997 6.2610127e-39
-0.024266692 -0.049226671 0.72799999 6.8026524e-39
-0.022880016 -0.049226671 0.72800004 7.2718997e-39
-0.02149337 -0.049226686 0.72799999 7.8365711e-39
-0.020051429 -0.049091458 0.72600001 8.3807499e-39
-0.018668575 -0.049091443 0.72599995 1.0959302e-38
-0.01728572 -0.049091458 0.72600001 1.3532924e-38
-0.015902866 -0.049091443 0.72599995 1.5391235e-38
-0.014519983 -0.049091443 0.72600001 1.7224684e-38
-0.013137156 -0.049091443 0.72599995 1.6956321e-38
-0.011754273 -0.049091458 0.72599995 1.6666802e-38
-0.010371417 -0.049091458 0.72600001 1.5931735e-38
-0.0089885648 -0.049091458 0.72599995 1.5092677e-38
-0.0075952727 -0.049023822 0.72499996 1.4999783e-38
-0.0062143421 -0.049023822 0.72499996 1.4804976e-38
-0.0048333826 -0.049023837 0.72499996 1.4418966e-38
-0.0034523951 -0.049023822 0.72499996 1.4062365e-38
-0.0020714654 -0.049023837 0.72499996 1.4051223e-38
-0.00068763364 -0.048820972 0.722 1.3967269e-38
0.00068758149 -0.048820943 0.722 1.3959365e-38
0.0020657172 -0.048888579 0.72300005 1.3961167e-38
0.0034428304 -0.048888579 0.72299999 1.3959384e-38
0.0048199976 -0.048888579 0.72300005 1.3868619e-38
0.0061971387 -0.048888579 0.72300005 1.4143045e-38
0.0075951898 -0.049023837 0.72499996 1.4326712e-38
0.0089761512 -0.049023837 0.72499996 1.4510378e-38
0.010371427 -0.049091443 0.72600001 1.4602222e-38
0.01178663 -0.049226686 0.72799999 1.4602231e-38
0.01317333 -0.049226671 0.72799999 1.4510398e-38
0.014579981 -0.049294293 0.72899997 1.4510401e-38
0.015968522 -0.049294293 0.72899997 1.4510391e-38
0.017357118 -0.049294293 0.72899997 1.4602218e-38
0.018797129 -0.049429521 0.73100001 1.4711322e-38
0.020189488 -0.049429521 0.73099995 1.7146089e-38
0.021581877 -0.049429536 0.73100001 1.9527367e-38
0.0230057 -0.049497128 0.73199999 1.6297711e-38
0.024399985 -0.049497142 0.73200005 1.2959999e-38
0.025864746 -0.0496324 0.73399997 1.2581829e-38
0.027337097 -0.049767628 0.736 1.2217016e-38
0.02873899 -0.049767628 0.736 1.019809e-38
0.030181877 -0.049835235 0.73699999 8.186317e-39
0.031671394 -0.049970478 0.73899996 7.7325205e-39
0.033213317 -0.050173327 0.74200004 7.27621e-39
0.034766659 -0.050376207 0.74500006 7.1858053e-39
0.036282822 -0.050511435 0.74699998 7.0021189e-39
0.037756152 -0.050579071 0.74799997 7.0024636e-39
-0.043164764 -0.048825711 0.74299997 8.9407592e-39
-0.041861918 -0.048957154 0.74500006 7.2726592e-39
-0.040171459 -0.048628569 0.73999995 5.7189849e-39
-0.038709544 -0.048562869 0.73899996 7.750841e-39
-0.037301905 -0.048562869 0.73900002 9.8648175e-39
-0.035894297 -0.048562869 0.73899996 5.1546274e-39
-0.034393378 -0.048431426 0.73699999 5.5137311e-40
-0.032855261 -0.048234314 0.73400003 1.5615636e-39
-0.03137143 -0.048102871 0.73200005 2.6635895e-39
-0.02993622 -0.048037156 0.73099995 5.2450279e-39
-0.028543832 -0.048037171 0.73100001 7.8089305e-39
-0.0270772 -0.047905728 0.72899997 8.7434704e-39
-0.025688604 -0.047905728 0.72899997 9.5774896e-39
-0.024300063 -0.047905728 0.72899997 9.8475801e-39
-0.022880018 -0.047839984 0.72799999 1.0038803e-38
-0.021493344 -0.047840014 0.72800004 1.0404011e-38
-0.020051438 -0.047708586 0.72600001 1.0684181e-38
-0.018668585 -0.047708571 0.72599995 1.1967724e-38
-0.017333377 -0.047839999 0.72799999 1.3360361e-38
-0.015902847 -0.047708586 0.72600001 1.4080374e-38
-0.01452002 -0.047708586 0.72600001 1.4804654e-38
-0.013137138 -0.047708601 0.72600001 1.4713533e-38
-0.011754285 -0.047708571 0.72599995 1.4602299e-38
-0.010371428 -0.047708586 0.72600001 1.4337887e-38
-0.008988576 -0.047708586 0.72599995 1.4051256e-38
-0.0076057184 -0.047708586 0.72600001 1.4150619e-38
-0.0062228665 -0.047708586 0.72599995 1.4326747e-38
-0.0048333695 -0.047642872 0.72500002 1.42349e-38
-0.0034524379 -0.047642872 0.72499996 1.4143062e-38
-0.0020714784 -0.047642887 0.72500002 1.4143057e-38
-0.00068858545 -0.047511429 0.72300005 1.4143042e-38
0.00068858359 -0.047511429 0.72300005 1.4143027e-38
0.0020656949 -0.047511443 0.72300005 1.4234872e-38
0.0034428621 -0.047511429 0.72300005 1.4143046e-38
0.0048199734 -0.047511429 0.72299999 1.4143036e-38
0.0062142452 -0.047642872 0.72499996 1.4234862e-38
0.0075952047 -0.047642887 0.72499996 1.4418539e-38
0.00898859 -0.047708601 0.72600001 1.451038e-38
0.01039998 -0.047840014 0.72799999 1.4694047e-38
0.011786656 -0.047840014 0.72799999 1.451037e-38
0.013173303 -0.047839999 0.72799999 1.4326706e-38
0.014579985 -0.047905713 0.72899997 1.4418547e-38
0.015968524 -0.047905713 0.72899997 1.4602211e-38
0.017404752 -0.048037156 0.73100001 1.4695474e-38
0.018797111 -0.048037156 0.73099995 1.4790983e-38
0.020189472 -0.048037142 0.73099995 1.7134308e-38
0.02158189 -0.048037142 0.73099995 1.9444155e-38
0.02306857 -0.048234299 0.73400003 1.702806e-38
0.024466641 -0.048234314 0.73399997 1.4510423e-38
0.025864748 -0.048234299 0.73400003 1.3602417e-38
0.027337102 -0.048365712 0.736 1.2585431e-38
0.028778072 -0.048431411 0.73699993 1.038391e-38
0.030181892 -0.048431426 0.73699999 8.188112e-39
0.031714257 -0.048628584 0.73999995 7.7325247e-39
0.033258084 -0.048825711 0.74299997 7.2769331e-39
0.03485997 -0.049088582 0.74699998 7.0932593e-39
0.036331382 -0.049154311 0.74799997 6.8173787e-39
0.037756164 -0.049154297 0.74799997 6.8187968e-39
-0.043164779 -0.047410473 0.74299997 9.8537486e-39
-0.041861895 -0.047538117 0.74500006 6.9806398e-39
-0.040171459 -0.047219068 0.73999995 4.1516872e-39
-0.038709547 -0.047155246 0.73899996 7.2080971e-39
-0.037301909 -0.047155261 0.73900002 1.0127778e-38
-0.035797179 -0.047027633 0.73699999 5.5115675e-39
-0.034393363 -0.047027618 0.73699999 9.1907943e-40
-0.032944798 -0.046963811 0.736 2.4799283e-39
-0.031457163 -0.046836212 0.73399997 3.9650973e-39
-0.029936239 -0.046644777 0.73099995 8.4865774e-39
-0.028543849 -0.046644762 0.73100001 1.288643e-38
-0.027151488 -0.046644777 0.73099995 1.2899346e-38
-0.025759073 -0.046644777 0.73100001 1.2881398e-38
-0.02430003 -0.046517134 0.72899997 1.2879236e-38
-0.022911463 -0.046517149 0.72899997 1.2782747e-38
-0.021522893 -0.046517134 0.72900003 1.2872082e-38
-0.020106696 -0.046453357 0.72800004 1.296284e-38
-0.018720023 -0.046453342 0.72799999 1.3050012e-38
-0.017333351 -0.046453357 0.72800004 1.305433e-38
-0.015946705 -0.046453357 0.72799999 1.2765561e-38
-0.014519974 -0.046325728 0.72600001 1.240288e-38
-0.013137147 -0.046325728 0.72599995 1.2490049e-38
-0.011754264 -0.046325728 0.72600001 1.2490039e-38
-0.010371437 -0.046325743 0.72599995 1.2765538e-38
-0.0089885546 -0.046325713 0.72600001 1.2949211e-38
-0.0076057278 -0.046325728 0.72599995 1.340839e-38
-0.006222846 -0.046325728 0.72600001 1.3867572e-38
-0.0048333863 -0.046261922 0.72499996 1.4051248e-38
-0.0034524249 -0.046261922 0.72499996 1.4234908e-38
-0.0020714654 -0.046261922 0.72500002 1.4326734e-38
-0.00068860967 -0.046134293 0.72299999 1.4326717e-38
0.00068855751 -0.046134293 0.72300005 1.4418536e-38
0.0020656986 -0.046134293 0.72300005 1.441854e-38
0.003442836 -0.046134278 0.72299999 1.4418546e-38
0.0048199771 -0.046134293 0.72300005 1.441854e-38
0.0062142322 -0.046261922 0.72499996 1.4418536e-38
0.0076056989 -0.046325728 0.72599995 1.441854e-38
0.0089885807 -0.046325743 0.72600001 1.4602217e-38
0.010399984 -0.046453342 0.72799999 1.4785882e-38
0.011802821 -0.046517149 0.72899997 1.451037e-38
0.013191389 -0.046517134 0.72899997 1.414307e-38
0.014579961 -0.046517149 0.72899997 1.4418619e-38
0.015968528 -0.046517134 0.72899997 1.4613742e-38
0.017404737 -0.046644777 0.73099995 1.4785909e-38
0.018797096 -0.046644777 0.73099995 1.4911541e-38
0.02018949 -0.046644777 0.73100001 1.7155488e-38
0.021581873 -0.046644777 0.73099995 1.934769e-38
0.02306857 -0.046836212 0.73399997 1.7767463e-38
0.024466641 -0.046836227 0.73399997 1.6106498e-38
0.025935221 -0.046963826 0.73600006 1.4547772e-38
0.027337112 -0.046963826 0.73600006 1.2961419e-38
0.028778056 -0.047027603 0.73699999 1.0564333e-38
0.030263774 -0.047155246 0.73899996 8.0941101e-39
0.03179998 -0.047346681 0.74200004 7.7325163e-39
0.033258095 -0.047410473 0.74299997 7.2758457e-39
0.034859974 -0.047665715 0.74699998 7.0003364e-39
0.036331389 -0.047729537 0.74799997 6.6347797e-39
0.037756145 -0.047729537 0.74799997 6.727683e-39
0.039390441 -0.047984764 0.75199997 6.727327e-39
-0.041861929 -0.046119064 0.745 5.5213051e-39
-0.040280022 -0.045933336 0.74200004 2.2095128e-39
-0.038709521 -0.045747638 0.73900002 5.623953e-39
-0.037301913 -0.045747638 0.73899996 9.1100641e-39
-0.035797164 -0.045623824 0.73699999 6.5321626e-39
-0.034393378 -0.045623809 0.73699999 3.9492977e-39
-0.032944821 -0.045561925 0.736 4.1394329e-39
-0.031457134 -0.045438111 0.73400003 4.3421503e-39
-0.029936222 -0.045252398 0.73100001 8.3901204e-39
-0.028543862 -0.045252398 0.73099995 1.2340082e-38
-0.027151447 -0.045252413 0.73100001 1.2143098e-38
-0.025759086 -0.045252383 0.73099995 1.1944733e-38
-0.024366697 -0.045252398 0.73100001 1.2130929e-38
-0.022911459 -0.045128569 0.72899997 1.2310298e-38
-0.021522887 -0.045128569 0.72899997 1.2402852e-38
-0.02013432 -0.045128569 0.72899997 1.2582218e-38
-0.018720025 -0.045066684 0.72800004 1.2768042e-38
-0.017333379 -0.04506667 0.72799999 1.2857352e-38
-0.015946679 -0.04506667 0.72800004 1.2857338e-38
-0.014519985 -0.044942886 0.72600001 1.2765498e-38
-0.013137158 -0.044942871 0.72599995 1.285733e-38
-0.011754277 -0.044942871 0.72599995 1.2949175e-38
-0.010371421 -0.044942871 0.72600001 1.3041019e-38
-0.0089885676 -0.044942871 0.72599995 1.32247e-38
-0.007605711 -0.044942871 0.72600001 1.359205e-38
-0.0062228581 -0.044942871 0.72599995 1.3867576e-38
-0.0048333732 -0.044880971 0.72499996 1.3959431e-38
-0.0034524119 -0.044880971 0.72499996 1.4143085e-38
-0.0020714821 -0.044880971 0.72499996 1.4143069e-38
-0.00068857986 -0.044757158 0.72300005 1.4234886e-38
0.00068856496 -0.044757158 0.72300005 1.4510373e-38
0.0020657023 -0.044757143 0.72299999 1.4694044e-38
0.0034428434 -0.044757158 0.72300005 1.4602208e-38
0.0048332857 -0.044880971 0.72499996 1.4418537e-38
0.0062142452 -0.044880986 0.72499996 1.4418537e-38
0.0076057157 -0.044942886 0.72600001 1.4510377e-38
0.0090133073 -0.045066684 0.72800004 1.4602217e-38
0.01039998 -0.04506667 0.72799999 1.4694047e-38
0.011802826 -0.045128569 0.72899997 1.4326698e-38
0.013191398 -0.045128584 0.72899997 1.3959434e-38
0.014579964 -0.045128584 0.72899997 1.5356056e-38
0.016012363 -0.045252383 0.73099995 1.6668615e-38
0.017404724 -0.045252383 0.73099995 1.6941565e-38
0.018797114 -0.045252383 0.73100001 1.7229693e-38
0.020189499 -0.045252368 0.73099995 1.7788304e-38
0.021611415 -0.045314297 0.73199999 1.8248568e-38
0.023005696 -0.045314282 0.73199999 1.7781865e-38
0.024466671 -0.045438126 0.73400003 1.7324469e-38
0.025935201 -0.04556191 0.73600006 1.5465146e-38
0.027374253 -0.045623809 0.73699999 1.3505296e-38
0.028778069 -0.045623824 0.73699999 1.0934883e-38
0.0302638 -0.045747638 0.73900002 8.3713949e-39
0.031799961 -0.045933336 0.74199998 7.5491942e-39
0.03325808 -0.04599525 0.74299997 6.8180933e-39
0.034859978 -0.046242863 0.74699998 6.6347769e-39
0.0363314 -0.046304777 0.74799997 6.5447351e-39
0.03785713 -0.046428576 0.75 6.451822e-39
0.039285701 -0.046428561 0.75 6.4511101e-39
-0.041974314 -0.044820026 0.74699998 4.0418661e-39
-0.040442869 -0.044700027 0.745 2.8272598e-40
-0.039023831 -0.044700012 0.745 4.1516718e-39
-0.03750382 -0.044579998 0.74299997 8.0130702e-39
-0.035894312 -0.044340014 0.73899996 7.4660061e-39
-0.034393363 -0.044220001 0.73699999 6.9016962e-39
-0.03298955 -0.044219986 0.73699999 5.7863733e-39
-0.031457134 -0.044040024 0.73400003 4.702298e-39
-0.02997715 -0.043919995 0.73199999 8.2989631e-39
-0.028582893 -0.043919995 0.73199999 1.177721e-38
-0.027188582 -0.04392001 0.73200005 1.1387964e-38
-0.025759101 -0.043860003 0.73099995 1.1022425e-38
-0.024366684 -0.043860018 0.73100001 1.13887e-38
-0.022974323 -0.043860003 0.73099995 1.1756402e-38
-0.021581935 -0.043860003 0.73100001 1.2030835e-38
-0.020134343 -0.043740004 0.72899997 1.2214513e-38
-0.018745746 -0.043740004 0.72899997 1.2490027e-38
-0.017357178 -0.043740004 0.72899997 1.2673689e-38
-0.015946707 -0.043679997 0.72799999 1.2949186e-38
-0.014519995 -0.043560013 0.72599995 1.3132864e-38
-0.013137138 -0.043560013 0.72600001 1.3224705e-38
-0.011754286 -0.043560013 0.72599995 1.3316532e-38
-0.01037143 -0.043560028 0.72600001 1.3408361e-38
-0.0089885769 -0.043559998 0.72599995 1.35002e-38
-0.0076057203 -0.043560013 0.72600001 1.3683876e-38
-0.0062228674 -0.043560013 0.72599995 1.3867554e-38
-0.0048400117 -0.043560013 0.72600001 1.3959396e-38
-0.0034571299 -0.043560028 0.72600001 1.3959389e-38
-0.0020714672 -0.043500021 0.72499996 1.4051219e-38
-0.00068860222 -0.043380007 0.72299999 1.4143046e-38
0.00068856496 -0.043380007 0.72299999 1.4602215e-38
0.0020713834 -0.043500021 0.72499996 1.4969554e-38
0.0034523392 -0.043500006 0.72499996 1.4694404e-38
0.0048333006 -0.043500021 0.72499996 1.4418537e-38
0.0062228506 -0.043560013 0.72599995 1.4510371e-38
0.0076057063 -0.043560013 0.72600001 1.4510378e-38
0.0090133054 -0.043679997 0.72799999 1.4602221e-38
0.010414262 -0.043740019 0.72899997 1.4602215e-38
0.011802802 -0.043740004 0.72899997 1.4234868e-38
0.0131914 -0.043740019 0.72899997 1.3783308e-38
0.014619961 -0.043860003 0.73100001 1.6285549e-38
0.016012348 -0.043860003 0.73099995 1.8693698e-38
0.017404737 -0.043860018 0.73100001 1.917402e-38
0.018797096 -0.043860018 0.73099995 1.9532778e-38
0.020189483 -0.043860003 0.73099995 1.8335714e-38
0.021611433 -0.04392001 0.73199999 1.7139722e-38
0.02306854 -0.044040024 0.73399997 1.7878014e-38
0.024466667 -0.044040024 0.73400003 1.8511873e-38
0.025935207 -0.044160023 0.736 1.6298832e-38
0.027374268 -0.044220001 0.73699999 1.4072814e-38
0.028778058 -0.044220015 0.73699999 1.1299014e-38
0.030263795 -0.044340014 0.73900002 8.5536449e-39
0.031714253 -0.044399992 0.73999995 7.4584461e-39
0.033258095 -0.044579983 0.74299997 6.2667328e-39
0.034859985 -0.044819996 0.74699998 6.3600005e-39
0.036282837 -0.044820011 0.74699998 6.3596375e-39
-0.045120046 -0.043687612 0.75199997 5.9894958e-39
-0.043571435 -0.043571442 0.75 6.4425257e-39
-0.042142864 -0.043571427 0.75 4.325238e-39
-0.040334299 -0.04316476 0.74299997 2.2065728e-39
-0.038866684 -0.043106675 0.74200004 5.8950679e-39
-0.037453361 -0.043106675 0.74200004 9.5793057e-39
-0.035894319 -0.042932391 0.73899996 9.4014291e-39
-0.034486677 -0.042932406 0.73900002 9.1197695e-39
-0.032989562 -0.042816177 0.73699999 6.0722817e-39
-0.031457163 -0.042641938 0.73400003 3.045292e-39
-0.029977158 -0.042525709 0.73199999 7.4659459e-39
-0.028582875 -0.042525694 0.73199999 1.1867231e-38
-0.027188564 -0.042525709 0.73199999 1.1484819e-38
-0.025794307 -0.042525724 0.73199999 1.1112459e-38
-0.024366701 -0.042467624 0.73099995 1.1480164e-38
-0.022974312 -0.042467639 0.73100001 1.184715e-38
-0.021581952 -0.042467624 0.73099995 1.2030824e-38
-0.020134341 -0.04235144 0.72899997 1.2306345e-38
-0.018745743 -0.042351425 0.72899997 1.249003e-38
-0.017357202 -0.04235144 0.72899997 1.2765532e-38
-0.015946679 -0.042293325 0.72799999 1.2949199e-38
-0.014519975 -0.042177156 0.72600001 1.3132887e-38
-0.013173357 -0.042293355 0.72799999 1.3224739e-38
-0.011754266 -0.042177171 0.72600001 1.3316549e-38
-0.010371441 -0.042177156 0.72599995 1.3500195e-38
-0.0089885583 -0.042177171 0.72600001 1.3683866e-38
-0.0076057315 -0.042177171 0.72599995 1.3775701e-38
-0.0062228488 -0.042177156 0.72600001 1.3959367e-38
-0.004840021 -0.042177156 0.72599995 1.3959361e-38
-0.0034571392 -0.042177171 0.72600001 1.3959365e-38
-0.0020743134 -0.042177156 0.72599995 1.4051204e-38
-0.00069052633 -0.042119056 0.72499996 1.4143042e-38
0.00069043506 -0.042119056 0.72499996 1.4326714e-38
0.0020713946 -0.042119071 0.72500002 1.4418546e-38
0.0034523243 -0.042119056 0.72499996 1.441854e-38
0.0048399875 -0.042177171 0.72599995 1.4418537e-38
0.0062228693 -0.042177156 0.72600001 1.4418533e-38
0.0076370994 -0.04235144 0.72899997 1.4418543e-38
0.0090133073 -0.042293355 0.72799999 1.4234882e-38
0.010414265 -0.04235144 0.72899997 1.4051206e-38
0.011802807 -0.04235144 0.72899997 1.3316518e-38
0.013191403 -0.042351454 0.72899997 1.2673759e-38
0.014619973 -0.042467639 0.73099995 1.4534952e-38
0.016012363 -0.042467624 0.73100001 1.6309962e-38
0.017404722 -0.042467624 0.73100001 1.6864205e-38
0.018797107 -0.042467624 0.73099995 1.7421661e-38
0.020217136 -0.042525709 0.73199999 1.6214872e-38
0.021611424 -0.042525724 0.73200005 1.510714e-38
0.02306854 -0.042641908 0.73399997 1.5566709e-38
0.024533294 -0.042758107 0.736 1.6117693e-38
0.025935218 -0.042758122 0.73600006 1.454749e-38
0.027374281 -0.042816207 0.73699999 1.2983707e-38
0.028856177 -0.042932391 0.73900002 1.0853127e-38
0.030263787 -0.042932391 0.73899996 8.6465706e-39
0.031714253 -0.042990476 0.73999995 7.365903e-39
0.03325811 -0.04316476 0.74300003 6.0834318e-39
0.034906637 -0.043455228 0.74799997 6.2678175e-39
0.036331385 -0.043455243 0.74799997 6.450764e-39
-0.046428591 -0.042142868 0.75 4.5107629e-39
-0.045180041 -0.042311445 0.75300002 4.7859219e-39
-0.043571442 -0.042142868 0.75000006 4.9738753e-39
-0.042030513 -0.042030498 0.74799997 4.6100996e-39
-0.040442854 -0.041861922 0.74500006 4.1469803e-39
-0.038866702 -0.041693345 0.74200004 7.6431919e-39
-0.037453353 -0.041693345 0.74199998 1.1148781e-38
-0.035942897 -0.041580945 0.73999995 1.1256457e-38
-0.034486689 -0.041524768 0.73900002 1.1325981e-38
-0.032989547 -0.041412368 0.73699999 6.3370178e-39
-0.031542875 -0.041356206 0.73600006 1.3018553e-39
-0.030059064 -0.041243821 0.73399997 6.6523548e-39
-0.028660957 -0.041243836 0.73400003 1.1960157e-38
-0.027262883 -0.041243836 0.73400003 1.1571647e-38
-0.025794292 -0.041131437 0.73199999 1.1112478e-38
-0.024400035 -0.041131422 0.73199999 1.1479828e-38
-0.022974325 -0.041075259 0.73099995 1.184716e-38
-0.021581965 -0.041075245 0.73099995 1.2122657e-38
-0.02018955 -0.041075259 0.73100001 1.2306339e-38
-0.018745741 -0.04096286 0.72899997 1.2581855e-38
-0.017357199 -0.040962875 0.72899997 1.2765525e-38
-0.015946709 -0.040906668 0.72799999 1.2949193e-38
-0.014560034 -0.040906668 0.72800004 1.313287e-38
-0.013173362 -0.040906668 0.72799999 1.3224711e-38
-0.011754276 -0.040794313 0.72599995 1.3316531e-38
-0.01037142 -0.040794313 0.72600001 1.3592022e-38
-0.0089885676 -0.040794298 0.72599995 1.377571e-38
-0.007605711 -0.040794298 0.72600001 1.3867562e-38
-0.0062228581 -0.040794313 0.72599995 1.3959388e-38
-0.0048400005 -0.040794298 0.72600001 1.3959378e-38
-0.0034571486 -0.040794313 0.72599995 1.3959375e-38
-0.0020742686 -0.040794298 0.72600001 1.4051209e-38
-0.00069051143 -0.040738106 0.72499996 1.4143045e-38
0.00069044996 -0.040738121 0.72499996 1.4051209e-38
0.0020713797 -0.040738106 0.72499996 1.3867545e-38
0.0034523392 -0.040738106 0.72499996 1.4143057e-38
0.004840008 -0.040794313 0.72600001 1.4326721e-38
0.0062485365 -0.04096286 0.72899997 1.4326714e-38
0.0076371031 -0.040962875 0.72899997 1.4234882e-38
0.0090257013 -0.04096286 0.72899997 1.3867544e-38
0.010414242 -0.04096286 0.72899997 1.3410875e-38
0.011802839 -0.040962875 0.72899997 1.2490006e-38
0.013191407 -0.040962845 0.72899997 1.1581795e-38
0.01461996 -0.041075245 0.73099995 1.2778266e-38
0.016012348 -0.041075245 0.73100001 1.3907538e-38
0.017404735 -0.041075245 0.73099995 1.4550729e-38
0.018797122 -0.041075245 0.73100001 1.5195322e-38
0.020217128 -0.041131437 0.73199999 1.4086791e-38
0.021611441 -0.041131437 0.73199999 1.298158e-38
0.023068566 -0.041243836 0.73400003 1.334753e-38
0.024533303 -0.041356206 0.73600006 1.3621585e-38
0.025935199 -0.041356206 0.73600006 1.2790028e-38
0.027374264 -0.041412398 0.73699999 1.1870912e-38
0.028856173 -0.041524783 0.73900002 1.0299621e-38
0.030263782 -0.041524783 0.73899996 8.7405697e-39
0.031714253 -0.04158096 0.73999995 7.3666246e-39
0.033258092 -0.041749522 0.74299997 5.899758e-39
0.034906615 -0.042030483 0.74799997 6.1770497e-39
0.036331367 -0.042030483 0.74799997 6.4521961e-39
0.037756149 -0.042030498 0.74799997 6.5433127e-39
-0.046800025 -0.041040003 0.75599998 5.2439966e-39
-0.045300029 -0.040985718 0.755 4.9713585e-39
-0.043687657 -0.040822849 0.75199997 4.7916406e-39
-0.042142857 -0.040714294 0.75000006 4.148439e-39
-0.040551446 -0.040551439 0.74699998 3.5055919e-39
-0.039023817 -0.040442884 0.74500006 7.2805331e-39
-0.037604753 -0.040442869 0.74500006 1.1156694e-38
-0.036040023 -0.040280014 0.74199998 1.1437639e-38
-0.034533389 -0.04017143 0.73999995 1.1794492e-38
-0.033079084 -0.040117145 0.73899996 6.3492063e-39
-0.03154289 -0.03995432 0.736 9.2770022e-40
-0.030059088 -0.039845735 0.73399997 6.3632305e-39
-0.02866096 -0.039845735 0.73400003 1.1779728e-38
-0.027262883 -0.039845735 0.73400003 1.1485924e-38
-0.025864784 -0.039845735 0.73399997 1.1112496e-38
-0.024400016 -0.03973715 0.73199999 1.147985e-38
-0.022974338 -0.03968288 0.73099995 1.1755334e-38
-0.021581924 -0.03968285 0.73100001 1.2030819e-38
-0.020189563 -0.039682865 0.73099995 1.2306332e-38
-0.018745761 -0.039574295 0.72899997 1.2581846e-38
-0.017357163 -0.03957431 0.72899997 1.2765517e-38
-0.015946683 -0.039520025 0.72799999 1.3041023e-38
-0.014560035 -0.039520025 0.72799999 1.3224688e-38
-0.013173359 -0.03952001 0.72799999 1.3224681e-38
-0.011754287 -0.039411455 0.72599995 1.3132842e-38
-0.010371431 -0.03941144 0.72600001 1.3408343e-38
-0.0089885779 -0.039411455 0.72599995 1.3683883e-38
-0.0076057231 -0.039411455 0.72600001 1.3775752e-38
-0.0062228711 -0.039411426 0.72599995 1.3959409e-38
-0.0048400136 -0.03941144 0.72600001 1.4051229e-38
-0.0034571318 -0.039411455 0.72600001 1.4051222e-38
-0.0020742798 -0.03941144 0.72599995 1.4234884e-38
-0.00069052447 -0.039357156 0.72500002 1.4418554e-38
0.00069142971 -0.03941144 0.72599995 1.4234882e-38
0.0020742873 -0.03941144 0.72600001 1.4051229e-38
0.0034571392 -0.03941144 0.72599995 1.4143081e-38
0.0048399968 -0.039411455 0.72600001 1.4326741e-38
0.0062485402 -0.039574295 0.72899997 1.4051223e-38
0.0076371068 -0.03957428 0.72899997 1.3775714e-38
0.009025679 -0.039574295 0.72899997 1.4333899e-38
0.010414246 -0.03957428 0.72899997 1.4887423e-38
0.011802843 -0.039574295 0.72899997 1.4904999e-38
0.013191383 -0.03957428 0.72899997 1.4905109e-38
0.014619973 -0.039682865 0.73100001 1.5746085e-38
0.016012333 -0.03968285 0.73099995 1.6582613e-38
0.017404748 -0.039682865 0.73100001 1.5844305e-38
0.018822864 -0.03973715 0.73199999 1.5180568e-38
0.020217121 -0.03973715 0.73199999 1.3795778e-38
0.021670461 -0.039845735 0.73399997 1.2506907e-38
0.023068566 -0.039845735 0.73400003 1.3247025e-38
0.024533309 -0.03995429 0.736 1.4067085e-38
0.025935203 -0.039954305 0.736 1.334316e-38
0.027374279 -0.04000859 0.73699999 1.2604513e-38
0.028856169 -0.040117145 0.73899996 1.0668775e-38
0.030263778 -0.040117159 0.73899996 8.740581e-39
0.031714253 -0.040171444 0.74000001 7.3662687e-39
0.033213291 -0.040279999 0.74199998 5.9915921e-39
0.034859966 -0.040551439 0.74700004 6.1766826e-39
0.036282826 -0.040551439 0.74700004 6.3621515e-39
-0.047109518 -0.039861903 0.76100004 5.8932924e-39
-0.045660041 -0.039861903 0.76099998 5.2472083e-39
-0.043745749 -0.039442867 0.75300002 4.6047186e-39
-0.042255268 -0.039390489 0.75199997 3.6863636e-39
-0.040551443 -0.039128587 0.74700004 2.7683772e-39
-0.039128587 -0.039128587 0.74699998 7.0007134e-39
-0.037604786 -0.039023831 0.745 1.1153836e-38
-0.036185693 -0.039023831 0.74500006 1.1725733e-38
-0.034533367 -0.038761899 0.73999995 1.215898e-38
-0.033079088 -0.038709521 0.73899996 6.3377268e-39
-0.03158576 -0.038604766 0.73699999 5.6393855e-40
-0.030140989 -0.038552389 0.73600006 6.0927308e-39
-0.028739097 -0.038552389 0.73600006 1.1592823e-38
-0.027262887 -0.038447648 0.73399997 1.1387995e-38
-0.025864756 -0.038447633 0.73400003 1.1112489e-38
-0.024400027 -0.038342848 0.73199999 1.1387997e-38
-0.023005715 -0.038342863 0.73200005 1.1663489e-38
-0.021611458 -0.038342863 0.73199999 1.2030817e-38
-0.02018958 -0.038290486 0.73099995 1.2306329e-38
-0.01874576 -0.038185716 0.72899997 1.2581843e-38
-0.017357189 -0.038185716 0.72899997 1.2765522e-38
-0.015968621 -0.038185731 0.72899997 1.3041037e-38
-0.014560033 -0.038133353 0.72799999 1.3316529e-38
-0.013137151 -0.038028583 0.72599995 1.3132843e-38
-0.011754269 -0.038028583 0.72600001 1.2949172e-38
-0.010371442 -0.038028583 0.72599995 1.3224677e-38
-0.0089885592 -0.038028583 0.72600001 1.3500207e-38
-0.0076057324 -0.038028583 0.72599995 1.3775736e-38
-0.0062228497 -0.038028598 0.72600001 1.39594e-38
-0.0048400229 -0.038028583 0.72599995 1.4051229e-38
-0.0034571411 -0.038028583 0.72600001 1.4143053e-38
-0.0020742575 -0.038028598 0.72600001 1.4418548e-38
-0.00069050957 -0.03797622 0.72500002 1.4602217e-38
0.00069144834 -0.038028598 0.72600001 1.4418543e-38
0.0020742761 -0.038028598 0.72599995 1.4143046e-38
0.0034571579 -0.038028598 0.72600001 1.423489e-38
0.0048533129 -0.038133338 0.72799999 1.432672e-38
0.006239987 -0.038133353 0.72800004 1.3775701e-38
0.0076266313 -0.038133353 0.72799999 1.3229414e-38
0.0090133334 -0.038133353 0.72800004 1.4804669e-38
0.010399978 -0.038133353 0.72799999 1.6299881e-38
0.01180282 -0.038185731 0.72899997 1.7246233e-38
0.013191388 -0.038185716 0.72899997 1.8153525e-38
0.014619959 -0.038290501 0.73099995 1.8718228e-38
0.016012374 -0.038290486 0.73100001 1.9172725e-38
0.01742854 -0.038342863 0.73199999 1.7155556e-38
0.018874284 -0.038447633 0.73400003 1.5101728e-38
0.020272356 -0.038447648 0.73399997 1.3500262e-38
0.021729507 -0.038552403 0.73600006 1.1962005e-38
0.0231314 -0.038552389 0.736 1.3249843e-38
0.02453329 -0.038552389 0.736 1.4451608e-38
0.025970476 -0.038604781 0.73699999 1.3911369e-38
0.027374268 -0.038604781 0.73699999 1.3247694e-38
0.02877808 -0.038604766 0.73699999 1.0938155e-38
0.030263772 -0.038709521 0.73899996 8.6469364e-39
