# .PCD v0.7 - Point Cloud Data file format
VERSION 0.7
FIELDS x y z rgb
SIZE 4 4 4 4
TYPE F F F F
COUNT 1 1 1 1
WIDTH 939
HEIGHT 1
VIEWPOINT 0 0 0 1 0 0 0
POINTS 939
DATA ascii
0.041693371 -0.020493336 0.7420001 6.35929e-39
0.043164793 -0.020520933 0.74300003 6.1756036e-39
0.044520047 -0.020493343 0.7420001 5.900453e-39
-0.038919013 -0.019105718 0.74300003 6.6200745e-39
-0.037503809 -0.019105703 0.74300003 7.1685931e-39
-0.035894282 -0.019002855 0.73900002 7.7192642e-39
-0.034486655 -0.019002855 0.73900002 8.1834695e-39
-0.032989509 -0.018951423 0.73700005 8.8320647e-39
-0.031371418 -0.018822864 0.73200005 9.3863245e-39
-0.02993614 -0.018797144 0.73100007 9.5721675e-39
-0.028543739 -0.018797152 0.73100007 9.7536651e-39
-0.027151393 -0.018797137 0.73100001 9.9373165e-39
-0.025759015 -0.018797144 0.73100007 1.002989e-38
-0.024266632 -0.018719994 0.72800004 1.058272e-38
-0.022817129 -0.01866857 0.72600001 1.1044424e-38
-0.021404732 -0.01864285 0.72500008 1.1322817e-38
-0.020023786 -0.018642858 0.72500008 1.1598318e-38
-0.018591398 -0.018591449 0.72300005 1.1969241e-38
-0.017190484 -0.018565714 0.72200006 1.2244037e-38
-0.015815228 -0.018565714 0.72200006 1.2243327e-38
-0.014399985 -0.018514298 0.72000003 1.2237568e-38
-0.013028545 -0.018514305 0.72000003 1.231898e-38
-0.011657133 -0.018514313 0.72000003 1.2329772e-38
-0.010285695 -0.018514276 0.72000003 1.2793285e-38
-0.0089018708 -0.018488578 0.7190001 1.3253541e-38
-0.007532354 -0.018488564 0.7190001 1.3804916e-38
-0.0061628106 -0.018488571 0.71900004 1.4260147e-38
-0.0047932672 -0.018488578 0.7190001 1.416903e-38
-0.0034142614 -0.018437177 0.71700007 1.4081863e-38
-0.0020456885 -0.018411435 0.71600008 1.4269127e-38
-0.00068186165 -0.018411428 0.71600002 1.4359893e-38
0.00068002811 -0.018360019 0.71400005 1.4450299e-38
0.0020400106 -0.018360011 0.71400005 1.4450644e-38
0.0034000508 -0.018360019 0.71400011 1.4726136e-38
0.0047600311 -0.018359996 0.71400011 1.4999838e-38
0.006137176 -0.018411443 0.71600008 1.444451e-38
0.0075009805 -0.018411428 0.71600008 1.3882304e-38
0.008864806 -0.01841142 0.71600002 1.3316511e-38
0.010228607 -0.018411428 0.71600002 1.2765496e-38
0.011608603 -0.018437162 0.71700007 1.3132836e-38
0.012974326 -0.018437147 0.71700007 1.3428489e-38
0.014340024 -0.018437147 0.71700007 1.5207861e-38
0.015705749 -0.018437169 0.71700001 1.6858383e-38
0.017071445 -0.018437155 0.71700001 1.3272848e-38
0.018437168 -0.018437155 0.71700001 9.5728626e-39
0.019858165 -0.018488578 0.7190001 9.3730276e-39
0.02122768 -0.018488571 0.7190001 9.202987e-39
0.022597196 -0.018488578 0.7190001 9.2094414e-39
0.023966713 -0.018488586 0.7190001 9.1136599e-39
0.025371458 -0.018514305 0.72000009 8.5482976e-39
0.026854306 -0.018591411 0.72300005 7.9227061e-39
0.028309558 -0.018642858 0.72500002 1.1068468e-38
0.029690506 -0.018642865 0.72500008 1.4094013e-38
0.031200061 -0.018720001 0.7280001 1.2614237e-38
0.032586694 -0.018720001 0.72800004 1.10433e-38
0.034020044 -0.018745728 0.72900009 9.011033e-39
0.03550576 -0.018797122 0.73100001 6.9953156e-39
0.036948618 -0.018822879 0.73200011 6.9996204e-39
0.03834286 -0.018822856 0.73200005 7.0003364e-39
0.040280059 -0.019079998 0.7420001 6.7259047e-39
0.041693367 -0.019080013 0.74200004 6.3592774e-39
0.043164793 -0.019105695 0.74300003 6.2674391e-39
0.044520013 -0.019079998 0.74200004 6.0830478e-39
-0.038919039 -0.01769048 0.74300003 6.2527227e-39
-0.037503775 -0.01769048 0.74300003 7.0756758e-39
-0.035894267 -0.017595239 0.73900002 7.6288608e-39
-0.034486644 -0.017595239 0.73900002 8.1834667e-39
-0.032989509 -0.017547622 0.73700005 8.7398663e-39
-0.031371411 -0.017428599 0.73200011 9.3863287e-39
-0.029977115 -0.017428607 0.73200011 9.6618618e-39
-0.028543761 -0.017404765 0.73100007 9.935925e-39
-0.027077092 -0.017357171 0.72900009 1.0028109e-38
-0.025688564 -0.017357163 0.72900009 1.0120316e-38
-0.024266643 -0.017333329 0.72800004 1.0582375e-38
-0.022817092 -0.017285727 0.72600007 1.1044435e-38
-0.021434279 -0.01728572 0.72600001 1.1230269e-38
-0.02005141 -0.017285727 0.72600001 1.1510792e-38
-0.018642837 -0.017261907 0.72500002 1.1784858e-38
-0.017214274 -0.017214291 0.72300005 1.2154009e-38
-0.015815234 -0.017190486 0.72200012 1.2243708e-38
-0.014399971 -0.017142877 0.72000009 1.2425896e-38
-0.013028533 -0.01714287 0.72000009 1.2512661e-38
-0.011657121 -0.017142877 0.72000009 1.2608138e-38
-0.010285682 -0.01714287 0.72000003 1.2978763e-38
-0.0089018634 -0.017119072 0.7190001 1.3347551e-38
-0.0075323465 -0.01711905 0.7190001 1.3714905e-38
-0.0061628032 -0.01711905 0.71900004 1.4083669e-38
-0.0047932877 -0.017119028 0.71900004 1.4080426e-38
-0.0034237702 -0.017119035 0.71900004 1.4078635e-38
-0.002045668 -0.017047629 0.71600002 1.417406e-38
-0.00068186724 -0.017047606 0.71600002 1.4266614e-38
0.00068193546 -0.017047606 0.71600002 1.4357373e-38
0.0020457364 -0.017047614 0.71600002 1.4450993e-38
0.0034095373 -0.017047614 0.71600002 1.463573e-38
0.0047733397 -0.017047621 0.71600002 1.4912309e-38
0.0061371704 -0.017047621 0.71600008 1.4444157e-38
0.0075009991 -0.017047621 0.71600002 1.3974143e-38
0.0088648004 -0.017047614 0.71600002 1.3228263e-38
0.010242875 -0.017071433 0.71700001 1.2581826e-38
0.011608602 -0.017071441 0.71700001 1.3228976e-38
0.012974328 -0.017071463 0.71700007 1.3792232e-38
0.01434005 -0.017071448 0.71700007 1.5197434e-38
0.015705749 -0.017071456 0.71700007 1.6491747e-38
0.017071472 -0.017071441 0.71700007 1.2986938e-38
0.018488629 -0.01711905 0.7190001 9.3859293e-39
0.019858146 -0.017119065 0.7190001 9.474483e-39
0.021227688 -0.017119065 0.7190001 9.6588785e-39
0.022597203 -0.01711905 0.7190001 9.3898348e-39
0.023966722 -0.017119043 0.7190001 9.1993422e-39
0.025371443 -0.01714287 0.72000003 7.2639739e-39
0.026854329 -0.017214283 0.72300005 5.3383572e-39
0.028309571 -0.017261922 0.72500008 9.0347948e-39
0.029813362 -0.017333336 0.72800004 1.2719337e-38
0.031200049 -0.017333329 0.72800004 1.1878111e-38
0.032631479 -0.017357171 0.72900009 1.1131546e-38
0.034020036 -0.017357178 0.72900009 9.1057411e-39
0.03550576 -0.01740475 0.73100001 7.0867937e-39
0.036898136 -0.017404757 0.73100007 6.907066e-39
0.038290538 -0.017404757 0.73100007 6.8173703e-39
0.040280025 -0.017666668 0.74200004 6.5425672e-39
0.04169336 -0.017666675 0.7420001 6.1755938e-39
0.043164793 -0.017690472 0.74300003 5.9912137e-39
0.044520035 -0.017666668 0.7420001 5.8064666e-39
-0.038919039 -0.016275227 0.74300003 5.9790253e-39
-0.037503779 -0.016275235 0.74300003 6.9860011e-39
-0.034486666 -0.016187623 0.73900002 8.0909138e-39
-0.032989506 -0.016143814 0.73700005 8.740581e-39
-0.0313714 -0.016034298 0.73200011 9.2937701e-39
-0.029977133 -0.016034298 0.73200005 9.6611374e-39
-0.028543759 -0.016012385 0.73100007 1.0028116e-38
-0.027077125 -0.015968584 0.72900009 1.0118873e-38
-0.025688542 -0.015968584 0.72900009 1.0212509e-38
-0.024266621 -0.015946656 0.7280001 1.0674206e-38
-0.022817111 -0.015902869 0.72600007 1.1044073e-38
-0.021434272 -0.015902862 0.72600001 1.1226323e-38
-0.020051403 -0.015902862 0.72600001 1.1321029e-38
-0.018642828 -0.01588095 0.72500008 1.1688728e-38
-0.017214278 -0.01583714 0.72300005 1.1966387e-38
-0.015815213 -0.015815228 0.72200012 1.2334446e-38
-0.01443998 -0.015815236 0.72200012 1.2609211e-38
-0.013064724 -0.015815243 0.72200012 1.2698153e-38
-0.011657136 -0.015771449 0.72000003 1.2792171e-38
-0.010285699 -0.015771426 0.72000003 1.3166359e-38
-0.0089142872 -0.015771434 0.72000003 1.3440442e-38
-0.0075323391 -0.015749529 0.7190001 1.3714884e-38
-0.0061627994 -0.015749522 0.7190001 1.3898187e-38
-0.0047932821 -0.015749507 0.7190001 1.3989654e-38
-0.0034237646 -0.015749522 0.7190001 1.4082212e-38
-0.0020485402 -0.015705734 0.71700007 1.4173693e-38
-0.00068187283 -0.015683815 0.71600002 1.4172263e-38
0.00068192987 -0.0156838 0.71600002 1.4260876e-38
0.0020457308 -0.015683807 0.71600002 1.4357736e-38
0.0034095317 -0.015683815 0.71600002 1.4637192e-38
0.0047733639 -0.015683815 0.71600008 1.4819778e-38
0.0061457534 -0.015705734 0.71700007 1.4444894e-38
0.0075114523 -0.015705749 0.71700007 1.3975953e-38
0.0088771796 -0.015705734 0.71700007 1.322469e-38
0.010242875 -0.015705727 0.71700007 1.2398166e-38
0.011608598 -0.015705727 0.71700001 1.3316517e-38
0.012974299 -0.01570572 0.71700007 1.4165684e-38
0.014340022 -0.015705734 0.71700001 1.5205697e-38
0.015705716 -0.01570572 0.71700001 1.6115057e-38
0.017119091 -0.015749514 0.7190001 1.270528e-38
0.018488606 -0.015749522 0.71900004 9.2036835e-39
0.019858126 -0.015749529 0.71900004 9.6639273e-39
0.021227697 -0.015749536 0.7190001 1.0035955e-38
0.02259721 -0.015749536 0.7190001 9.6747356e-39
0.024000015 -0.015771434 0.72000003 9.2947973e-39
0.025441937 -0.015815251 0.72200012 6.0618616e-39
0.026854299 -0.015837163 0.72300005 2.7680129e-39
0.028309571 -0.015880957 0.72500008 7.0129257e-39
0.029813377 -0.015946656 0.72800004 1.1236658e-38
0.03124289 -0.015968591 0.72900009 1.1230578e-38
0.032631442 -0.015968584 0.72900009 1.1224095e-38
0.034020029 -0.015968591 0.72900009 9.1932858e-39
0.035505764 -0.016012378 0.73100001 7.0868035e-39
0.03689814 -0.016012385 0.73100007 6.9074331e-39
0.038290516 -0.016012393 0.73100007 6.6337203e-39
0.040280048 -0.016253337 0.7420001 6.35929e-39
0.041693356 -0.016253337 0.74200004 5.9915795e-39
0.043106697 -0.016253345 0.7420001 5.8068239e-39
0.044520006 -0.016253337 0.74200004 5.5320293e-39
-0.034486681 -0.01478 0.73900002 8.0858915e-39
-0.032944739 -0.01472 0.73600006 8.7398607e-39
-0.031371396 -0.014640003 0.73200005 9.4788719e-39
-0.029977126 -0.014640018 0.73200011 9.7551168e-39
-0.028543755 -0.014620014 0.73100007 1.0120309e-38
-0.027151382 -0.014619999 0.73100001 1.0212505e-38
-0.025688548 -0.014580004 0.72900009 1.0303268e-38
-0.024299964 -0.014580011 0.72900009 1.0581649e-38
-0.022879971 -0.014559999 0.7280001 1.0863271e-38
-0.021434261 -0.014520012 0.72600001 1.0949382e-38
-0.02005142 -0.014519997 0.72600001 1.104158e-38
-0.018642826 -0.0145 0.72500002 1.1502556e-38
-0.01726188 -0.0145 0.72500002 1.1871676e-38
-0.015815223 -0.014439993 0.72200006 1.2150037e-38
-0.014439991 -0.01444 0.72200006 1.2519174e-38
-0.01306476 -0.01444 0.72200006 1.2606346e-38
-0.01168953 -0.01444 0.72200006 1.2696393e-38
-0.010285684 -0.01440002 0.72000009 1.2887243e-38
-0.0089142462 -0.01440002 0.72000003 1.3165273e-38
-0.0075428351 -0.014400013 0.72000009 1.3436486e-38
-0.0061628143 -0.014380001 0.7190001 1.3803824e-38
-0.0047932747 -0.014379993 0.7190001 1.4175824e-38
-0.0034237572 -0.014379993 0.7190001 1.4638236e-38
-0.0020485402 -0.014340013 0.71700007 1.4358789e-38
-0.00068281719 -0.014340013 0.71700007 1.4171542e-38
0.00068288168 -0.014340028 0.71700007 1.4168683e-38
0.0020486049 -0.014340036 0.71700007 1.4173721e-38
0.0034143019 -0.014340006 0.71700007 1.4360636e-38
0.0047800266 -0.014340013 0.71700001 1.4549316e-38
0.0061457255 -0.014340013 0.71700001 1.4172276e-38
0.0075114467 -0.014340013 0.71700001 1.3892743e-38
0.0088771759 -0.014340028 0.71700007 1.3322996e-38
0.010242899 -0.014340013 0.71700007 1.2857355e-38
0.011608596 -0.014340021 0.71700007 1.3505577e-38
0.012974321 -0.014340013 0.71700007 1.4164259e-38
0.014340018 -0.014340021 0.71700007 1.4088616e-38
0.01570574 -0.014340021 0.71700007 1.4088558e-38
0.017119097 -0.014379993 0.7190001 9.8461298e-39
0.01848861 -0.014379993 0.7190001 5.7020866e-39
0.019858129 -0.014380008 0.7190001 6.5372493e-39
0.021227671 -0.014380008 0.71900004 7.4728627e-39
0.022628611 -0.014400005 0.72000003 8.1139567e-39
0.024000023 -0.014400013 0.72000003 8.8453392e-39
0.025441926 -0.014440008 0.72200012 5.9818643e-39
0.026854293 -0.014460005 0.72300005 3.2196304e-39
0.028309574 -0.014500007 0.72500008 5.8968559e-39
0.029813366 -0.014559992 0.72800004 8.5658587e-39
0.031200025 -0.014560007 0.72800004 1.0126736e-38
0.032631446 -0.014580011 0.72900009 1.1687215e-38
0.034020025 -0.014580011 0.72900009 9.4784921e-39
0.035505772 -0.014619991 0.73100001 7.3633974e-39
0.036898147 -0.014619999 0.73100001 7.0914699e-39
0.038290523 -0.014619999 0.73100007 6.817771e-39
0.040334299 -0.014859989 0.74300003 6.3589649e-39
0.041749556 -0.014859997 0.74300003 5.9923138e-39
0.043164793 -0.014860004 0.74300003 5.8075386e-39
0.044520032 -0.014839999 0.74200004 5.7167708e-39
-0.034393333 -0.013336189 0.73700005 7.9987167e-39
-0.032944717 -0.013318099 0.73600006 8.83818e-39
-0.031457141 -0.013281912 0.73400003 9.6657855e-39
-0.029977117 -0.013245732 0.73200011 9.9441716e-39
-0.028543752 -0.013227627 0.73100007 1.0124615e-38
-0.02715138 -0.013227612 0.73100001 1.0215019e-38
-0.02568855 -0.013191454 0.72900009 1.0303983e-38
-0.024299966 -0.013191447 0.72900009 1.0485502e-38
-0.022879954 -0.013173334 0.72800004 1.0579134e-38
-0.021434277 -0.013137147 0.72600001 1.0666307e-38
-0.02005141 -0.013137147 0.72600001 1.0758867e-38
-0.018668542 -0.013137154 0.72600001 1.1316703e-38
-0.017261872 -0.013119057 0.72500008 1.1776596e-38
-0.015837101 -0.013082862 0.72300005 1.2058917e-38
-0.014439971 -0.013064757 0.72200006 1.2329758e-38
-0.013064739 -0.013064772 0.72200012 1.2420155e-38
-0.011689507 -0.013064757 0.72200012 1.2511645e-38
-0.010285703 -0.013028577 0.72000003 1.2704655e-38
-0.0089142649 -0.013028577 0.72000003 1.2881515e-38
-0.0075428518 -0.013028577 0.72000003 1.3245991e-38
-0.0061714142 -0.013028584 0.72000003 1.3617998e-38
-0.0047999746 -0.013028562 0.72000003 1.4363088e-38
-0.0034285609 -0.013028577 0.72000003 1.509131e-38
-0.0020485439 -0.012974299 0.71700001 1.463464e-38
-0.00068284699 -0.012974299 0.71700001 1.4073222e-38
0.00068290776 -0.012974299 0.71700007 1.4068917e-38
0.0020486049 -0.012974307 0.71700007 1.3979603e-38
0.0034143298 -0.012974299 0.71700007 1.4173686e-38
0.0047800266 -0.012974307 0.71700007 1.4259044e-38
0.0061457497 -0.012974292 0.71700007 1.3984954e-38
0.0075114467 -0.012974299 0.71700007 1.3696482e-38
0.0088771684 -0.012974307 0.71700001 1.3500203e-38
0.010242869 -0.012974292 0.71700001 1.3224698e-38
0.011608592 -0.012974292 0.71700001 1.3683877e-38
0.013010531 -0.01301048 0.7190001 1.4067024e-38
0.014380044 -0.01301048 0.7190001 1.3078738e-38
0.015749585 -0.013010487 0.7190001 1.2057761e-38
0.017119104 -0.013010472 0.7190001 7.0720731e-39
0.018488619 -0.01301048 0.7190001 2.1158458e-39
0.019885745 -0.013028584 0.72000003 3.4930391e-39
0.021257157 -0.013028577 0.72000003 4.8867481e-39
0.022628594 -0.013028584 0.72000003 6.6463642e-39
0.024066687 -0.013064764 0.72200006 8.2896669e-39
0.025477163 -0.013082862 0.72300005 5.9836846e-39
0.02685429 -0.013082854 0.72300005 3.5938233e-39
0.028309552 -0.013119049 0.72500008 4.6965807e-39
0.029813388 -0.013173327 0.7280001 5.8036205e-39
0.031200018 -0.013173327 0.72800004 8.9306839e-39
0.032631464 -0.013191439 0.72900009 1.2057753e-38
0.034020048 -0.013191439 0.72900009 9.8540583e-39
0.035408605 -0.013191447 0.72900009 7.6457086e-39
0.036898151 -0.013227619 0.73100001 7.3691329e-39
0.038290523 -0.013227619 0.73100007 7.0014336e-39
0.040280037 -0.013426676 0.7420001 6.4504221e-39
0.041693345 -0.013426669 0.74200004 5.8993979e-39
0.043106686 -0.013426676 0.7420001 5.897593e-39
-0.034393333 -0.01193238 0.73700005 7.995128e-39
-0.032989498 -0.01193238 0.73700005 8.8349766e-39
-0.031457122 -0.01188381 0.73400003 9.7594286e-39
-0.029977139 -0.01185143 0.73200011 9.943457e-39
-0.02854375 -0.011835247 0.73100007 1.0127488e-38
-0.027151402 -0.01183524 0.73100001 1.0123543e-38
-0.025688529 -0.011802875 0.72900009 1.0120311e-38
-0.024299975 -0.011802867 0.72900003 1.03029e-38
-0.022879964 -0.011786662 0.72800004 1.0577319e-38
-0.021493303 -0.011786669 0.72800004 1.0293908e-38
-0.020051401 -0.011754282 0.72600001 1.0102354e-38
-0.018668557 -0.011754289 0.72600001 1.0569432e-38
-0.017261868 -0.011738092 0.72500008 1.1123687e-38
-0.015837135 -0.011705719 0.72300005 1.1401717e-38
-0.014459979 -0.011705719 0.72300005 1.1769771e-38
-0.013064721 -0.011689521 0.72200012 1.1951282e-38
-0.011689489 -0.011689521 0.72200012 1.2133181e-38
-0.010314257 -0.011689529 0.72200012 1.2044236e-38
-0.0089142518 -0.011657164 0.72000009 1.195132e-38
-0.0075428127 -0.011657164 0.72000009 1.2319017e-38
-0.0061713993 -0.011657156 0.72000009 1.2691032e-38
-0.0047999597 -0.011657156 0.72000003 1.3058024e-38
-0.0034285479 -0.011657156 0.72000009 1.3514676e-38
-0.0020485457 -0.011608593 0.71700007 1.3422468e-38
-0.00068282092 -0.011608578 0.71700007 1.3325599e-38
0.00068287423 -0.011608586 0.71700007 1.3507463e-38
0.0020485993 -0.011608586 0.71700001 1.3593562e-38
0.0034142982 -0.011608593 0.71700001 1.3600739e-38
0.004780021 -0.011608571 0.71700001 1.3592822e-38
0.0061457478 -0.011608593 0.71700007 1.3598535e-38
0.0075114728 -0.011608601 0.71700007 1.350022e-38
0.0088771703 -0.011608578 0.71700007 1.3408361e-38
0.010242897 -0.011608586 0.71700007 1.3316535e-38
0.011608592 -0.011608586 0.71700007 1.3593126e-38
0.013010538 -0.011640958 0.7190001 1.3871497e-38
0.014380054 -0.011640966 0.7190001 1.3437424e-38
0.015749594 -0.011640944 0.7190001 1.288929e-38
0.017119111 -0.011640958 0.7190001 8.5550939e-39
0.01851432 -0.011657156 0.72000009 4.3177523e-39
0.019885756 -0.011657171 0.72000009 3.9518508e-39
0.021257171 -0.011657156 0.72000009 3.6799597e-39
0.022691453 -0.011689536 0.72200012 5.3430698e-39
0.024066683 -0.011689529 0.72200012 6.9989505e-39
0.025477162 -0.011705704 0.72300005 7.1822348e-39
0.02685429 -0.011705719 0.72300005 7.3630583e-39
0.028309556 -0.011738099 0.72500002 8.0062879e-39
0.029813377 -0.011786662 0.7280001 8.735902e-39
0.0312429 -0.011802867 0.72900009 1.0589782e-38
0.032721002 -0.011835255 0.73100007 1.2432595e-38
0.034113403 -0.01183524 0.73100007 9.9476595e-39
0.035505753 -0.011835232 0.73100001 7.3730594e-39
0.037150521 -0.011916183 0.73600006 7.0936293e-39
0.038866699 -0.012013339 0.7420001 6.9085135e-39
0.040280037 -0.012013346 0.7420001 6.450401e-39
0.041693375 -0.012013339 0.74200004 6.0841409e-39
0.043106712 -0.012013339 0.7420001 5.9905173e-39
-0.032989528 -0.010528564 0.73700005 8.9307484e-39
-0.0313714 -0.010457143 0.73200011 9.7583496e-39
-0.029977104 -0.010457151 0.73200011 9.9431024e-39
-0.028543744 -0.01044286 0.73100007 1.012498e-38
-0.027151398 -0.010442853 0.73100001 1.0030992e-38
-0.025688564 -0.010414295 0.72900009 9.8455188e-39
-0.024299981 -0.010414295 0.72900009 1.0212136e-38
-0.022911396 -0.010414302 0.72900009 1.0484039e-38
-0.021493312 -0.010399997 0.72800004 9.920812e-39
-0.020106651 -0.010400005 0.72800004 9.3687312e-39
-0.018668549 -0.010371432 0.72600001 9.9186778e-39
-0.017261861 -0.010357149 0.72500008 1.0473292e-38
-0.015880918 -0.010357141 0.72500002 1.083778e-38
-0.014459983 -0.010328583 0.72300005 1.1118653e-38
-0.013064754 -0.010314278 0.72200006 1.1389483e-38
-0.011689522 -0.010314286 0.72200012 1.1666778e-38
-0.010314268 -0.010314286 0.72200006 1.1388039e-38
-0.0089142686 -0.01028572 0.72000003 1.1024297e-38
-0.0075428314 -0.01028572 0.72000003 1.1388065e-38
-0.0061714179 -0.010285728 0.72000003 1.1760781e-38
-0.0047999783 -0.010285728 0.72000003 1.184723e-38
-0.0034285646 -0.010285713 0.72000003 1.1851186e-38
-0.0020542212 -0.010271437 0.7190001 1.2214593e-38
-0.00068282278 -0.010242879 0.71700007 1.2584448e-38
0.00068290217 -0.010242879 0.71700007 1.294928e-38
0.0020486012 -0.010242887 0.71700007 1.3228363e-38
0.0034143224 -0.010242864 0.71700007 1.3134363e-38
0.004780021 -0.010242872 0.71700007 1.2956762e-38
0.006145746 -0.010242872 0.71700001 1.3132871e-38
0.007532422 -0.01027143 0.7190001 1.3317964e-38
0.0089019379 -0.010271437 0.7190001 1.3408352e-38
0.010271483 -0.01027143 0.71900004 1.3408366e-38
0.011640999 -0.01027143 0.71900004 1.3592051e-38
0.013010516 -0.010271423 0.71900004 1.369931e-38
0.014380061 -0.010271445 0.7190001 1.3725854e-38
0.015749576 -0.01027143 0.7190001 1.3716162e-38
0.01714289 -0.010285728 0.72000003 1.0124168e-38
0.018514302 -0.01028572 0.72000003 6.4346098e-39
0.01994095 -0.010314278 0.72200006 4.5003289e-39
0.02131621 -0.010314286 0.72200006 2.4831962e-39
0.02269144 -0.010314278 0.72200006 4.0472891e-39
0.024100032 -0.010328583 0.72300005 5.6167406e-39
0.025477158 -0.010328591 0.72300005 8.3832835e-39
0.026928617 -0.010357141 0.72500008 1.1045438e-38
0.028309565 -0.010357149 0.72500008 1.1413498e-38
0.029813368 -0.010400005 0.72800004 1.1691884e-38
0.031242898 -0.010414302 0.72900009 1.2259767e-38
0.032721005 -0.01044286 0.73100007 1.2803569e-38
0.034113407 -0.01044286 0.73100007 9.9465875e-39
0.03579716 -0.010528564 0.73700005 7.0957606e-39
0.037150517 -0.010514282 0.73600006 6.9067297e-39
0.038866691 -0.010600001 0.74200004 6.7244824e-39
0.040280029 -0.010600008 0.74200004 6.5422351e-39
0.041693367 -0.010600016 0.7420001 6.2667244e-39
-0.042255208 -0.0093104839 0.75200003 6.624752e-39
-0.040714271 -0.0092857108 0.75000006 5.9815448e-39
-0.03928566 -0.0092857182 0.75000006 6.2563324e-39
-0.0378571 -0.0092857033 0.75000006 6.5286173e-39
-0.031371392 -0.0090628713 0.73200011 9.6657925e-39
-0.029977124 -0.0090628639 0.73200005 9.8494761e-39
-0.028543742 -0.009050481 0.73100007 1.0031352e-38
-0.027151396 -0.009050481 0.73100001 9.8455272e-39
-0.025758995 -0.0090504736 0.73100001 9.6607702e-39
-0.024299985 -0.0090257227 0.72900009 1.0213926e-38
-0.022911401 -0.0090257227 0.72900009 1.0674157e-38
-0.021522818 -0.0090257302 0.72900009 1.0481137e-38
-0.020106636 -0.0090133175 0.72800004 1.0288148e-38
-0.01866854 -0.0089885816 0.72600001 1.1121492e-38
-0.017285699 -0.0089885816 0.72600001 1.2033767e-38
-0.015880913 -0.0089761987 0.72500008 1.2318617e-38
-0.014459988 -0.0089514256 0.72300005 1.2681992e-38
-0.01308286 -0.008951433 0.72300005 1.2500453e-38
-0.011689504 -0.0089390501 0.72200012 1.2398902e-38
-0.010314272 -0.0089390501 0.72200012 1.222094e-38
-0.0089142835 -0.0089142919 0.72000003 1.2124472e-38
-0.0075428463 -0.0089142919 0.72000003 1.2684482e-38
-0.0061714347 -0.0089142844 0.72000003 1.3229376e-38
-0.0047999653 -0.0089142993 0.72000009 1.3420199e-38
-0.0034285255 -0.0089142993 0.72000009 1.3592784e-38
-0.0020542436 -0.0089019015 0.71900004 1.3599994e-38
-0.0006846966 -0.0089019239 0.7190001 1.3593193e-38
0.0006848207 -0.008901909 0.7190001 1.3786564e-38
0.0020543381 -0.008901909 0.7190001 1.3970927e-38
0.0034238778 -0.008901909 0.7190001 1.4346854e-38
0.0047933948 -0.0089019239 0.7190001 1.472134e-38
0.0061629121 -0.0089019015 0.7190001 1.4251009e-38
0.0075324294 -0.0089019164 0.7190001 1.3781786e-38
0.0089019472 -0.008901909 0.7190001 1.3593448e-38
0.010271491 -0.0089019164 0.7190001 1.3408362e-38
0.011641006 -0.0089019015 0.7190001 1.3687834e-38
0.013010521 -0.008901909 0.7190001 1.4066657e-38
0.014380041 -0.008901909 0.71900004 1.4639195e-38
0.015749553 -0.008901909 0.7190001 1.51866e-38
0.01714287 -0.0089142844 0.72000003 1.0858473e-38
0.018514283 -0.0089142919 0.72000003 6.6125187e-39
0.019940972 -0.0089390501 0.72200012 4.1333218e-39
0.021316202 -0.0089390427 0.72200012 1.7459688e-39
0.022691436 -0.0089390427 0.72200012 3.4033238e-39
0.024100028 -0.0089514256 0.72300005 5.1500171e-39
0.025477154 -0.0089514256 0.72300005 7.8283371e-39
0.026928594 -0.0089761838 0.72500008 1.0500872e-38
0.028309567 -0.0089761987 0.72500002 1.1417054e-38
0.02981336 -0.009013325 0.72800004 1.233727e-38
0.031242894 -0.0090257376 0.72900009 1.2898395e-38
0.032721005 -0.0090504885 0.73100007 1.3452559e-38
0.034113407 -0.0090504885 0.73100007 1.0317161e-38
0.035797164 -0.0091247559 0.73700005 7.1875975e-39
0.037301932 -0.0091495216 0.73900002 6.99964e-39
0.038866688 -0.0091866776 0.7420001 6.815599e-39
0.040280052 -0.0091866702 0.7420001 6.5415149e-39
0.041693363 -0.0091866702 0.74200004 6.3578327e-39
0.043106705 -0.0091866627 0.7420001 6.2656258e-39
-0.043687575 -0.0078781098 0.75200009 7.0868007e-39
-0.042255223 -0.0078781098 0.75200009 6.5311046e-39
-0.040714242 -0.0078571588 0.75000012 5.8896981e-39
-0.039285682 -0.0078571513 0.75000006 6.1659304e-39
-0.037857097 -0.0078571513 0.75000012 6.4371265e-39
-0.036428541 -0.0078571513 0.75000006 7.1660666e-39
-0.034999982 -0.0078571364 0.75000006 7.8132605e-39
-0.031457104 -0.0076895282 0.73400009 9.5732521e-39
-0.030059043 -0.0076895133 0.73400003 9.7576504e-39
-0.028582817 -0.0076685846 0.73200011 9.8473181e-39
-0.027151393 -0.0076580942 0.73100001 9.6589681e-39
-0.025759017 -0.0076580942 0.73100007 9.479253e-39
-0.024366615 -0.0076580942 0.73100007 1.0217175e-38
-0.02297424 -0.0076580942 0.73100007 1.0859288e-38
-0.02152282 -0.0076371506 0.72900009 1.1041147e-38
-0.020106645 -0.0076266676 0.72800004 1.1131202e-38
-0.018668557 -0.0076057166 0.72600001 1.2336555e-38
-0.017285688 -0.0076057166 0.72600001 1.3525769e-38
-0.015880937 -0.0075952336 0.72500008 1.3904964e-38
-0.014499962 -0.0075952336 0.72500002 1.4170779e-38
-0.013082863 -0.0075742826 0.72300005 1.3623348e-38
-0.011689514 -0.0075638071 0.72200006 1.3062988e-38
-0.010314281 -0.0075638145 0.72200006 1.3156599e-38
-0.0089142481 -0.007542856 0.72000003 1.3155539e-38
-0.0075428351 -0.0075428635 0.72000003 1.3904228e-38
-0.0061713955 -0.0075428709 0.72000003 1.4633169e-38
-0.0047999821 -0.0075428709 0.72000003 1.5010911e-38
-0.0034285442 -0.007542856 0.72000003 1.5271709e-38
-0.0020542343 -0.007532388 0.71900004 1.4999431e-38
-0.00068471709 -0.0075323731 0.71900004 1.4624932e-38
0.00068479835 -0.0075323731 0.71900004 1.4724317e-38
0.0020543456 -0.007532388 0.7190001 1.4721441e-38
0.0034238629 -0.007532388 0.7190001 1.5651987e-38
0.0047934041 -0.0075323805 0.7190001 1.6471655e-38
0.0061629196 -0.007532388 0.7190001 1.5367801e-38
0.0075324369 -0.007532388 0.7190001 1.4154896e-38
0.0089019509 -0.007532388 0.7190001 1.3775685e-38
0.010271496 -0.0075323731 0.7190001 1.3408352e-38
0.01164101 -0.0075323805 0.7190001 1.386754e-38
0.013010525 -0.0075323805 0.7190001 1.434754e-38
0.014380044 -0.0075323805 0.7190001 1.5486175e-38
0.015771469 -0.0075428709 0.72000003 1.6567749e-38
0.017142884 -0.0075428709 0.72000003 1.1693648e-38
0.018565737 -0.0075638145 0.72200012 6.8037441e-39
0.019940993 -0.0075638145 0.72200012 3.8574538e-39
0.021316227 -0.0075637996 0.72200012 9.2124304e-40
0.02272287 -0.0075742826 0.72300005 2.761913e-39
0.024100022 -0.00757429 0.72300005 4.6029376e-39
0.025477152 -0.0075742975 0.72300005 7.2783737e-39
0.02692863 -0.0075952411 0.72500008 9.9434023e-39
0.028309574 -0.0075952485 0.72500008 1.1416363e-38
0.029854331 -0.007637158 0.72900009 1.2892214e-38
0.031242883 -0.007637158 0.72900003 1.3452219e-38
0.032721009 -0.0076580942 0.73100007 1.3997814e-38
0.034113389 -0.0076581016 0.73100007 1.0681297e-38
0.035748601 -0.0077104717 0.73600006 7.2790729e-39
0.037200969 -0.0077209398 0.73700005 7.0885804e-39
0.038604774 -0.0077209398 0.73700005 6.8152403e-39
0.040008608 -0.0077209473 0.73700005 6.633377e-39
0.041693386 -0.0077733397 0.7420001 6.3578537e-39
0.043106697 -0.0077733397 0.74200004 6.3574781e-39
-0.045119971 -0.0064457208 0.75200009 7.2747947e-39
-0.043687593 -0.0064457208 0.75200003 7.5466859e-39
-0.042255186 -0.0064457357 0.75200009 6.3477727e-39
-0.040714268 -0.006428577 0.75000006 5.2471985e-39
-0.039285682 -0.0064285696 0.75000012 5.8897051e-39
-0.037857123 -0.0064285845 0.75000012 6.6222198e-39
-0.036428563 -0.0064285845 0.75000006 7.2593104e-39
-0.034906633 -0.0064114258 0.74800003 7.8993507e-39
-0.033481866 -0.0064114258 0.74800009 8.6484442e-39
-0.031371403 -0.0062742978 0.73200011 9.4817866e-39
-0.029977106 -0.0062742978 0.73200011 9.7573001e-39
-0.028582837 -0.0062742904 0.73200005 1.0033496e-38
-0.027151391 -0.0062657148 0.73100001 9.9391199e-39
-0.025759015 -0.0062657148 0.73100007 9.8487488e-39
-0.024366612 -0.0062657222 0.73100007 1.0400507e-38
-0.022974236 -0.0062657148 0.73100007 1.1045494e-38
-0.02158186 -0.0062657297 0.73100007 1.1226281e-38
-0.020134272 -0.0062485859 0.72900009 1.1501805e-38
-0.018719964 -0.0062399954 0.7280001 1.2242244e-38
-0.017285706 -0.006222859 0.72600001 1.3072364e-38
-0.015880901 -0.0062142909 0.72500008 1.3441154e-38
-0.014499954 -0.0062142909 0.72500008 1.3717029e-38
-0.013082838 -0.0061971545 0.72300005 1.3440815e-38
-0.011705684 -0.0061971545 0.72300005 1.3257137e-38
-0.010314262 -0.0061885566 0.72200006 1.2885483e-38
-0.0089390306 -0.0061885715 0.72200006 1.2517784e-38
-0.0075637992 -0.0061885715 0.72200006 1.3159556e-38
-0.0061714142 -0.0061714426 0.72000003 1.381605e-38
-0.0048133112 -0.006188564 0.72200006 1.399005e-38
-0.0034380809 -0.0061885566 0.72200006 1.4177992e-38
-0.0020542287 -0.006162867 0.7190001 1.3799135e-38
-0.0006847115 -0.0061628446 0.7190001 1.3345716e-38
0.0006848058 -0.006162852 0.7190001 1.3705901e-38
0.0020543213 -0.0061628595 0.71900004 1.3987519e-38
0.0034238368 -0.006162867 0.7190001 1.4352004e-38
0.0047934097 -0.0061628595 0.7190001 1.4726482e-38
0.006162927 -0.0061628595 0.7190001 1.4161441e-38
0.0075324425 -0.0061628595 0.7190001 1.3693954e-38
0.0089390548 -0.006188564 0.72200006 1.3410854e-38
0.010285725 -0.0061714426 0.72000003 1.3224672e-38
0.011641019 -0.0061628595 0.7190001 1.368636e-38
0.013028604 -0.0061714277 0.72000003 1.424494e-38
0.014400019 -0.0061714351 0.72000003 1.5190232e-38
0.015771456 -0.00617145 0.72000003 1.600672e-38
0.017190492 -0.006188564 0.72200006 1.1222318e-38
0.018565726 -0.0061885715 0.72200006 6.3374143e-39
0.019968586 -0.0061971396 0.72300005 3.6744974e-39
0.02134571 -0.0061971396 0.72300005 1.0127198e-39
0.022722866 -0.0061971471 0.72300005 2.3924215e-39
0.024166711 -0.0062142909 0.72500002 3.7728182e-39
0.025547659 -0.0062142909 0.72500008 4.972055e-39
0.026928604 -0.0062142909 0.72500008 6.2613729e-39
0.028348612 -0.0062228739 0.72600001 8.4715555e-39
0.029854296 -0.0062485784 0.72900009 1.0689221e-38
0.031328637 -0.0062657148 0.73100007 1.1976335e-38
0.032721013 -0.0062657148 0.73100007 1.31702e-38
0.034160007 -0.0062742904 0.73200005 1.0315053e-38
0.035797164 -0.0063171387 0.73700005 7.4648949e-39
0.037200969 -0.0063171461 0.73700005 7.0917838e-39
0.038709544 -0.0063342899 0.73900002 6.7230461e-39
0.040280048 -0.0063600093 0.7420001 6.4490138e-39
0.041693352 -0.0063599944 0.74200004 6.173845e-39
-0.044999972 -0.0050000027 0.75000006 7.4599301e-39
-0.043571383 -0.0049999952 0.75000012 8.004455e-39
-0.042142823 -0.0050000101 0.75000006 6.2495053e-39
-0.040714234 -0.0050000101 0.75000012 4.5100301e-39
-0.039285678 -0.0050000027 0.75000006 5.7064223e-39
-0.037857123 -0.0050000027 0.75000006 6.8044825e-39
-0.036428533 -0.0049999952 0.75000012 7.3493774e-39
-0.034906641 -0.0049866736 0.74800003 7.9036568e-39
-0.033481874 -0.0049866736 0.74800003 8.6502154e-39
-0.031842817 -0.0049533248 0.74300003 9.3881434e-39
-0.030427612 -0.0049533322 0.74300003 9.7562197e-39
-0.02858283 -0.0048800111 0.73200011 1.0123897e-38
-0.02718853 -0.0048800111 0.73200011 1.0215351e-38
-0.025794258 -0.0048800185 0.73200011 1.0215729e-38
-0.024366608 -0.0048733354 0.73100001 1.0674209e-38
-0.022974232 -0.0048733354 0.73100007 1.1134098e-38
-0.021581857 -0.0048733354 0.73100007 1.1500717e-38
-0.02013425 -0.0048600137 0.72900009 1.1779466e-38
-0.018719973 -0.0048533306 0.7280001 1.2242245e-38
-0.017333286 -0.004853338 0.72800004 1.2611036e-38
-0.015880926 -0.0048333332 0.72500008 1.2978751e-38
-0.014499978 -0.0048333406 0.72500008 1.3256767e-38
-0.013082843 -0.0048200041 0.72300005 1.3349318e-38
-0.011705689 -0.0048200041 0.72300005 1.3348595e-38
-0.01032856 -0.0048200041 0.72300005 1.260996e-38
-0.0089390101 -0.0048133433 0.72200012 1.1769778e-38
-0.0075637805 -0.0048133358 0.72200012 1.2307488e-38
-0.0061885486 -0.0048133433 0.72200012 1.2869266e-38
-0.0048133167 -0.0048133284 0.72200012 1.2955006e-38
-0.0034380604 -0.0048133284 0.72200012 1.3051132e-38
-0.0020542454 -0.0047933459 0.7190001 1.2581896e-38
-0.00068470405 -0.004793331 0.7190001 1.203807e-38
0.00068481325 -0.004793331 0.7190001 1.2673758e-38
0.0020543307 -0.0047933385 0.7190001 1.3231944e-38
0.003428594 -0.0048000067 0.72000003 1.3041099e-38
0.0048000072 -0.0048000142 0.72000003 1.2865659e-38
0.0061629047 -0.004793331 0.71900004 1.3041061e-38
0.0075428565 -0.0048000142 0.72000003 1.3227214e-38
0.0089143002 -0.0047999993 0.72000003 1.3132837e-38
0.010314309 -0.0048133358 0.72200012 1.2949166e-38
0.011689539 -0.0048133358 0.72200012 1.3592014e-38
0.013064793 -0.0048133358 0.72200012 1.4162804e-38
0.014440027 -0.0048133284 0.72200012 1.4838704e-38
0.015837176 -0.0048200041 0.72300005 1.5459645e-38
0.01719049 -0.0048133358 0.72200012 1.0668032e-38
0.018591456 -0.0048200116 0.72300005 5.8818046e-39
0.019968608 -0.0048199967 0.72300005 3.4901174e-39
0.021345738 -0.0048200041 0.72300005 1.0116464e-39
0.022785775 -0.0048333406 0.72500008 1.9303699e-39
0.02416672 -0.0048333481 0.72500008 2.8512472e-39
0.025547668 -0.0048333481 0.72500008 2.7594229e-39
0.026928607 -0.0048333183 0.72500002 2.5807938e-39
0.028465733 -0.0048599988 0.72900009 5.5188318e-39
0.029936239 -0.0048733428 0.73100007 8.4715274e-39
0.031328619 -0.0048733354 0.73100007 1.0410088e-38
0.032765746 -0.0048799962 0.73200005 1.2337203e-38
0.034346718 -0.0049066767 0.73600012 9.9437456e-39
0.035748601 -0.0049066693 0.73600006 7.5527801e-39
0.037200943 -0.0049133301 0.73700005 7.0910789e-39
0.038709529 -0.0049266666 0.73900002 6.5404443e-39
0.040334325 -0.0049533248 0.74300003 6.2649574e-39
0.041749556 -0.0049533248 0.74300003 5.9901628e-39
0.043397158 -0.0049800128 0.74700004 5.8993993e-39
0.044880055 -0.0049866661 0.74800009 5.716094e-39
-0.044879962 -0.0035619065 0.74800003 7.182658e-39
-0.043571383 -0.0035714284 0.75000006 7.6389334e-39
-0.042142823 -0.0035714209 0.75000006 6.4396587e-39
-0.040714234 -0.0035714284 0.75000006 5.2447421e-39
-0.039285678 -0.0035714358 0.75000006 6.0719986e-39
-0.037756152 -0.0035619214 0.74800009 6.8970621e-39
-0.036428533 -0.0035714358 0.75000006 7.4423144e-39
-0.034906618 -0.003561914 0.74800009 7.8989947e-39
-0.033481881 -0.0035618991 0.74800003 8.7391586e-39
-0.031842817 -0.0035380945 0.74300003 9.5725192e-39
-0.030427611 -0.0035380945 0.74300003 9.8480496e-39
-0.028660959 -0.0034952387 0.73400003 1.0214299e-38
-0.027188553 -0.0034857094 0.73200005 1.0306833e-38
-0.025794281 -0.0034857243 0.73200005 1.0307562e-38
-0.02436663 -0.003480956 0.73100007 1.0766749e-38
-0.022974228 -0.0034809634 0.73100007 1.1224495e-38
-0.021581853 -0.003480956 0.73100007 1.1502874e-38
-0.020134255 -0.0034714416 0.72900009 1.1872381e-38
-0.018745672 -0.003471449 0.72900009 1.2241529e-38
-0.017333297 -0.0034666732 0.72800004 1.2609602e-38
-0.015902845 -0.0034571514 0.72600001 1.2887275e-38
-0.014499946 -0.003452383 0.72500008 1.3257833e-38
-0.013119029 -0.0034523755 0.72500002 1.3165268e-38
-0.011705691 -0.0034428611 0.72300005 1.3167775e-38
-0.010328566 -0.0034428537 0.72300005 1.2693885e-38
-0.0089514116 -0.0034428611 0.72300005 1.2215276e-38
-0.007574284 -0.0034428611 0.72300005 1.2771249e-38
-0.0061885579 -0.0034380853 0.72200006 1.3316515e-38
-0.0048133261 -0.0034380853 0.72200006 1.3415876e-38
-0.0034380939 -0.0034381002 0.72200006 1.3592019e-38
-0.002057127 -0.0034285709 0.72000003 1.3413017e-38
-0.0006846966 -0.00342381 0.7190001 1.3316527e-38
0.00068572408 -0.0034285709 0.72000003 1.3600292e-38
0.0020571675 -0.0034285784 0.72000009 1.3867535e-38
0.0034286052 -0.0034285858 0.72000009 1.3966173e-38
0.0048000445 -0.0034285858 0.72000003 1.4051192e-38
0.0061714561 -0.0034285784 0.72000009 1.3875771e-38
0.0075428975 -0.0034285858 0.72000003 1.368385e-38
0.008939066 -0.0034380853 0.72200006 1.3408345e-38
0.010328584 -0.0034428611 0.72300005 1.3132837e-38
0.011689558 -0.0034381002 0.72200012 1.3504842e-38
0.013082865 -0.0034428611 0.72300005 1.3975562e-38
0.014460017 -0.0034428686 0.72300005 1.3348559e-38
0.015837172 -0.0034428537 0.72300005 1.2794973e-38
0.017214298 -0.0034428537 0.72300005 1.0297056e-38
0.018591454 -0.0034428611 0.72300005 7.8982212e-39
0.019968579 -0.0034428686 0.72300005 6.8980837e-39
0.021404805 -0.003452383 0.72500002 5.8778529e-39
0.022785749 -0.0034523904 0.72500008 5.3282791e-39
0.024166698 -0.0034523904 0.72500008 4.7794465e-39
0.025582891 -0.0034571514 0.72600001 4.6008258e-39
0.02696576 -0.0034571514 0.72600001 4.4157255e-39
0.028465735 -0.003471449 0.72900009 5.8876101e-39
0.029936245 -0.0034809485 0.73100007 7.3594486e-39
0.031371452 -0.0034857243 0.73200011 9.668567e-39
0.032855261 -0.0034952462 0.73400009 1.2059883e-38
0.034346715 -0.0035047755 0.73600012 9.6639133e-39
0.035797141 -0.0035095066 0.73700005 7.1811305e-39
0.037301913 -0.0035190508 0.73900002 6.9070618e-39
0.038866695 -0.0035333261 0.74200004 6.5411547e-39
0.040442906 -0.0035476163 0.74500006 6.2652881e-39
0.041974302 -0.0035571307 0.74700004 5.8983175e-39
0.04345528 -0.0035618916 0.74800003 5.8064946e-39
0.044880051 -0.0035618991 0.74800003 5.7143172e-39
-0.044999965 -0.0021428689 0.75000006 6.9071291e-39
-0.043571405 -0.0021428615 0.75000006 7.1793831e-39
-0.04214282 -0.0021428615 0.75000012 6.5329235e-39
-0.040714264 -0.0021428615 0.75000006 5.88901e-39
-0.039285675 -0.0021428689 0.75000012 6.4393182e-39
-0.037857115 -0.002142854 0.75000006 6.9867214e-39
-0.036428526 -0.0021428615 0.75000012 7.439778e-39
-0.034906626 -0.0021371469 0.74800003 7.9036498e-39
-0.033347607 -0.0021285638 0.74500006 8.8353073e-39
-0.031842843 -0.0021228567 0.74300003 9.6647275e-39
-0.030304732 -0.002114296 0.74000001 1.0033178e-38
-0.028778078 -0.0021057054 0.73700005 1.0307935e-38
-0.027188543 -0.0020914301 0.73200011 1.0397946e-38
-0.025794271 -0.0020914376 0.73200011 1.0397602e-38
-0.024399973 -0.0020914376 0.73200011 1.086074e-38
-0.022974227 -0.0020885766 0.73100007 1.1228446e-38
-0.021581851 -0.0020885766 0.73100007 1.1597229e-38
-0.020134257 -0.002082862 0.72900009 1.1873818e-38
-0.018745674 -0.0020828694 0.72900009 1.2242245e-38
-0.01735712 -0.002082862 0.72900003 1.2518124e-38
-0.015902838 -0.0020742938 0.72600001 1.2886196e-38
-0.014519967 -0.0020742863 0.72600001 1.3255682e-38
-0.013118996 -0.0020714328 0.72500008 1.3069133e-38
-0.01173805 -0.0020714328 0.72500008 1.2884738e-38
-0.010357103 -0.0020714402 0.72500008 1.2782133e-38
-0.0089761568 -0.0020714402 0.72500008 1.2689926e-38
-0.0075742877 -0.0020657107 0.72300005 1.3246308e-38
-0.0061971354 -0.0020657107 0.72300005 1.3704754e-38
-0.0048199813 -0.0020657182 0.72300005 1.389128e-38
-0.003442853 -0.0020657182 0.72300005 1.4071368e-38
-0.0020628434 -0.0020628646 0.72200012 1.4345803e-38
-0.00068570243 -0.00205715 0.72000009 1.4533078e-38
0.00068573712 -0.00205715 0.72000003 1.4542782e-38
0.0020571768 -0.00205715 0.72000003 1.4536307e-38
0.0034381065 -0.0020628572 0.72200012 1.4904707e-38
0.0048133382 -0.0020628422 0.72200012 1.5176621e-38
0.0061714393 -0.00205715 0.72000003 1.4727484e-38
0.007563828 -0.0020628497 0.72200006 1.4157059e-38
0.0089390604 -0.0020628572 0.72200012 1.3683852e-38
0.01031429 -0.0020628572 0.72200012 1.3225399e-38
0.011705737 -0.0020657182 0.72300005 1.3503065e-38
0.013082863 -0.0020657107 0.72300005 1.3698598e-38
0.014460017 -0.0020657107 0.72300005 1.1876978e-38
0.015837168 -0.0020657107 0.72300005 1.0032703e-38
0.017214298 -0.0020657182 0.72300005 1.0010429e-38
0.018642921 -0.0020714328 0.72500008 9.9408884e-39
0.020023869 -0.0020714402 0.72500008 1.0325501e-38
0.021404814 -0.0020714402 0.72500008 1.0670914e-38
0.022785733 -0.0020714253 0.72500002 8.6329094e-39
0.024200032 -0.0020743012 0.72600001 6.6251009e-39
0.025653383 -0.0020800084 0.7280001 6.4479025e-39
0.027040016 -0.0020799935 0.72800004 6.2592303e-39
0.028465753 -0.0020828694 0.72900009 6.2563815e-39
0.029936245 -0.0020885766 0.73100007 6.1698919e-39
0.03154289 -0.0021028519 0.73600006 9.0282381e-39
0.032944802 -0.0021028519 0.73600006 1.177793e-38
0.034346737 -0.0021028593 0.73600006 9.2865423e-39
0.035797171 -0.0021057054 0.73700005 6.8112774e-39
0.037301924 -0.0021114275 0.73900002 6.722302e-39
0.038919058 -0.0021228492 0.74300003 6.53971e-39
0.040551443 -0.0021342859 0.74700004 6.1727309e-39
0.04203051 -0.0021371394 0.74800003 5.8053974e-39
0.043455303 -0.0021371618 0.74800009 5.8054044e-39
0.044880044 -0.0021371469 0.74800003 5.7139402e-39
-0.044999965 -0.00071428716 0.75000006 6.814911e-39
-0.043571375 -0.00071428716 0.75000012 7.1786502e-39
-0.04214282 -0.00071427971 0.75000006 6.0740978e-39
-0.040822849 -0.00071619451 0.75200003 4.9717173e-39
-0.039285675 -0.00071428716 0.75000006 5.8890002e-39
-0.037857115 -0.00071428716 0.75000006 6.8955795e-39
-0.03628286 -0.00071142614 0.74700004 7.3500697e-39
-0.034859985 -0.00071142614 0.74700004 7.8071424e-39
-0.033347595 -0.00070952624 0.74500006 8.7402516e-39
-0.031842843 -0.00070761144 0.74300003 9.7583721e-39
-0.030386655 -0.00070666522 0.74200004 1.0310858e-38
-0.028856168 -0.00070380419 0.73900002 1.0861108e-38
-0.027374273 -0.0007019043 0.73700005 1.0673805e-38
-0.025864745 -0.00069905072 0.73400009 1.0483338e-38
-0.024399994 -0.00069714338 0.73200005 1.0858949e-38
-0.023005694 -0.00069715083 0.73200011 1.1231322e-38
-0.021581847 -0.00069619715 0.73100007 1.1506835e-38
-0.020189472 -0.00069619715 0.73100007 1.187454e-38
-0.018745709 -0.0006943047 0.72900009 1.2242602e-38
-0.017357126 -0.0006942898 0.72900009 1.2610316e-38
-0.015946655 -0.00069333613 0.72800004 1.2888346e-38
-0.014519985 -0.00069144368 0.72600001 1.3166001e-38
-0.013137116 -0.00069143623 0.72600001 1.2975867e-38
-0.011754247 -0.00069142878 0.72600001 1.2794699e-38
-0.010357101 -0.00069047511 0.72500002 1.2786079e-38
-0.0089761531 -0.00069047511 0.72500008 1.2791855e-38
-0.0075952071 -0.00069047511 0.72500008 1.3529803e-38
-0.0062142606 -0.00069048256 0.72500008 1.418124e-38
-0.004833288 -0.00069048256 0.72500008 1.4082209e-38
-0.0034523413 -0.00069048256 0.72500008 1.4088311e-38
-0.0020628229 -0.00068761408 0.72200012 1.4079705e-38
-0.00068759301 -0.00068762153 0.72200012 1.4182687e-38
0.00068763888 -0.00068762153 0.72200012 1.4179843e-38
0.002062897 -0.00068761408 0.72200012 1.4279189e-38
0.003438127 -0.00068762898 0.72200012 1.4354858e-38
0.0048133587 -0.00068761408 0.72200012 1.4451709e-38
0.0061885887 -0.00068762153 0.72200012 1.4165792e-38
0.0075638467 -0.00068762153 0.72200012 1.3890204e-38
0.0089390809 -0.00068762898 0.72200012 1.3505919e-38
0.010314311 -0.00068761408 0.72200012 1.3132853e-38
0.011705729 -0.00068856776 0.72300005 1.3411603e-38
0.013082855 -0.00068856776 0.72300005 1.3785389e-38
0.014460011 -0.00068857521 0.72300005 1.2976073e-38
0.015837163 -0.00068856776 0.72300005 1.2243899e-38
0.017214291 -0.00068856776 0.72300005 1.2429003e-38
0.018642895 -0.00069048256 0.72500008 1.2631784e-38
0.020023843 -0.00069049001 0.72500008 1.1427257e-38
0.021404788 -0.00069047511 0.72500008 1.0225407e-38
0.022817172 -0.00069143623 0.72600001 9.6631762e-39
0.024266718 -0.00069333613 0.72800004 9.2108189e-39
0.025653375 -0.00069333613 0.72800004 7.3694496e-39
0.027077165 -0.00069429725 0.72900009 5.6213831e-39
0.02846575 -0.0006943047 0.72900009 5.5224093e-39
0.029936248 -0.00069618225 0.73100007 5.4334157e-39
0.031371444 -0.00069714338 0.73200005 8.194551e-39
0.032944798 -0.00070095062 0.73600006 1.1043258e-38
0.03439334 -0.00070189685 0.73700005 9.1071915e-39
0.035797145 -0.0007018894 0.73700005 7.2690214e-39
0.037453376 -0.00070666522 0.74200004 6.904524e-39
0.038919091 -0.00070761144 0.74300003 6.4467899e-39
0.040605761 -0.00071238726 0.74800003 6.0801738e-39
0.042142894 -0.00071428716 0.75000006 5.8039526e-39
0.04357148 -0.00071429461 0.75000012 5.8053904e-39
0.044880036 -0.00071237236 0.74800003 5.8061176e-39
-0.044999957 0.00071427226 0.75000012 6.7263265e-39
-0.043571401 0.00071428716 0.75000006 7.0889685e-39
-0.042142812 0.00071427226 0.75000012 5.5209128e-39
-0.040822808 0.00071617961 0.75200009 3.9608051e-39
-0.039285697 0.00071429461 0.75000006 5.3405096e-39
-0.037756171 0.00071237236 0.74800003 6.7126484e-39
-0.036331378 0.00071237236 0.74800009 7.2575504e-39
-0.03486 0.00071143359 0.74700004 7.720346e-39
-0.033347614 0.00070953369 0.74500006 8.7438404e-39
-0.031842843 0.00070762634 0.74300003 9.7590797e-39
-0.030427584 0.00070762634 0.74300003 1.0589931e-38
-0.028895214 0.00070477277 0.74000001 1.1413915e-38
-0.027448563 0.00070381165 0.73900002 1.0952561e-38
-0.025864759 0.00069905072 0.73400003 1.0490884e-38
-0.024466667 0.00069904327 0.73400009 1.0860748e-38
-0.023005687 0.00069713593 0.73200011 1.1138413e-38
-0.021611417 0.00069714338 0.73200005 1.1507195e-38
-0.020189466 0.00069618225 0.73100007 1.1782705e-38
-0.018797094 0.0006961897 0.73100001 1.2242604e-38
-0.01740472 0.0006961897 0.73100001 1.2612121e-38
-0.015946638 0.00069335103 0.72800004 1.2798684e-38
-0.014519976 0.00069142133 0.72600001 1.2977658e-38
-0.013137108 0.00069141388 0.72600001 1.287395e-38
-0.011754265 0.00069141388 0.72600001 1.2687772e-38
-0.010371396 0.00069142878 0.72600001 1.2775309e-38
-0.0089761456 0.00069046766 0.72500008 1.2874687e-38
-0.0075952034 0.00069048256 0.72500002 1.380776e-38
-0.0062142587 0.00069047511 0.72500002 1.4629608e-38
-0.0048333122 0.00069047511 0.72500002 1.4351941e-38
-0.0034523655 0.00069048256 0.72500002 1.3979576e-38
-0.0020628602 0.00068762153 0.72200006 1.3885588e-38
-0.00068760046 0.00068762153 0.72200006 1.3798428e-38
0.00068763143 0.00068762898 0.72200006 1.389745e-38
0.0020628616 0.00068761408 0.72200006 1.3888091e-38
0.0034428842 0.00068856031 0.72300005 1.3782952e-38
0.0048200362 0.00068856031 0.72300005 1.3694346e-38
0.0061885812 0.00068762153 0.72200006 1.3593186e-38
0.0075743184 0.00068856776 0.72300005 1.3506326e-38
0.008951447 0.00068856031 0.72300005 1.322539e-38
0.0103143 0.00068762898 0.72200006 1.2949538e-38
0.011705755 0.00068856031 0.72300005 1.3409088e-38
0.013119097 0.00069046766 0.72500008 1.3792207e-38
0.014500041 0.00069046766 0.72500008 1.4089231e-38
0.015881015 0.00069046766 0.72500008 1.4363658e-38
0.01726196 0.00069046766 0.72500008 1.4830008e-38
0.018642878 0.00069048256 0.72500002 1.5288155e-38
0.020023847 0.00069048256 0.72500002 1.2526322e-38
0.021434311 0.00069142133 0.72600001 9.6657532e-39
0.022880018 0.00069332868 0.72800004 1.067555e-38
0.024266707 0.00069334358 0.72800004 1.1691466e-38
0.025688602 0.00069426 0.72900009 8.3807121e-39
0.027077189 0.0006942749 0.72900009 4.9706201e-39
0.02854385 0.0006961897 0.73100001 4.8698345e-39
0.029936222 0.00069618225 0.73100007 4.6940612e-39
0.03154289 0.00070095062 0.73600006 7.4563063e-39
0.032944798 0.00070095062 0.73600006 1.021173e-38
0.034393344 0.0007019192 0.73700005 9.0139224e-39
0.035797149 0.0007019192 0.73700005 7.7292835e-39
0.037503827 0.00070764124 0.74300003 7.0878503e-39
0.039128609 0.00071143359 0.74700004 6.3553327e-39
0.040605757 0.00071237981 0.74800003 6.0809179e-39
0.042142898 0.00071427226 0.75000012 5.713922e-39
0.043571457 0.00071427226 0.75000006 5.806105e-39
0.045000043 0.00071427971 0.75000012 5.8979545e-39
-0.040822852 0.0021485612 0.75200003 4.5100203e-39
-0.039285667 0.0021428466 0.75000012 5.6142336e-39
-0.037756152 0.0021371469 0.74800003 6.622629e-39
-0.036331382 0.0021371394 0.74800003 7.1675422e-39
-0.034906644 0.0021371469 0.74800003 7.716058e-39
-0.03343714 0.0021342859 0.74700004 8.7409705e-39
-0.031928554 0.0021285713 0.74500006 9.7605048e-39
-0.030427584 0.0021228716 0.74300003 1.0405162e-38
-0.028973324 0.0021199957 0.74200004 1.1139485e-38
-0.027448578 0.00211142 0.73900002 1.0770345e-38
-0.025970463 0.0021057278 0.73700005 1.0493408e-38
-0.024533298 0.0021028519 0.73600006 1.07682e-38
-0.023068534 0.0020971447 0.73400009 1.1138057e-38
-0.021611409 0.0020914152 0.73200011 1.1413566e-38
-0.020217111 0.0020914301 0.73200011 1.1781271e-38
-0.018797118 0.0020885617 0.73100001 1.2151486e-38
-0.017404716 0.0020885691 0.73100001 1.2521371e-38
-0.015968526 0.0020828396 0.72900009 1.2705074e-38
-0.014559956 0.0020800009 0.7280001 1.2887607e-38
-0.013173325 0.0020800009 0.72800004 1.2687014e-38
-0.011754256 0.0020742863 0.72600001 1.2490089e-38
-0.010371389 0.0020742714 0.72600001 1.2308947e-38
-0.0089885453 0.0020742789 0.72600001 1.2123467e-38
-0.0075951959 0.0020714253 0.72500008 1.2869255e-38
-0.0062142494 0.0020714253 0.72500008 1.3606454e-38
-0.0048332768 0.0020714253 0.72500008 1.3602153e-38
-0.003452332 0.0020714253 0.72500008 1.3592824e-38
-0.0020628397 0.0020628572 0.72200012 1.3414529e-38
-0.00068760791 0.0020628572 0.72200012 1.322727e-38
0.00068765006 0.0020628572 0.72200012 1.3324843e-38
0.0020657263 0.0020657182 0.72300005 1.3500223e-38
0.0034428823 0.0020657182 0.72300005 1.359417e-38
0.0048200102 0.0020657107 0.72300005 1.3683864e-38
