# .PCD v0.7 - Point Cloud Data file format
VERSION 0.7
FIELDS x y z rgb
SIZE 4 4 4 4
TYPE F F F F
COUNT 1 1 1 1
WIDTH 952
HEIGHT 1
VIEWPOINT 0 0 0 1 0 0 0
POINTS 952
DATA ascii
0.017261917 -0.051785715 0.72500008 7.8085605e-39
0.018642876 -0.051785715 0.72500002 1.2932752e-39
0.020023821 -0.0517857 0.72500008 4.6051054e-39
0.021404766 -0.051785715 0.72500008 7.8211302e-39
0.022785749 -0.0517857 0.72500008 6.2556107e-39
0.02416669 -0.051785715 0.72500008 4.6894131e-39
0.025547635 -0.051785715 0.72500008 8.2695905e-39
0.026928596 -0.051785715 0.72500002 1.1778691e-38
0.028309539 -0.0517857 0.72500008 1.2151755e-38
0.029731471 -0.051857121 0.72600001 1.2522697e-38
0.031199994 -0.051999994 0.7280001 1.4562463e-38
0.032586668 -0.051999994 0.7280001 1.6579261e-38
0.034020025 -0.052071415 0.72900009 1.4469919e-38
0.035408605 -0.0520714 0.72900003 1.2341894e-38
0.036797162 -0.052071415 0.72900009 1.0680581e-38
0.038290523 -0.052214272 0.73100001 9.0218019e-39
0.039682891 -0.052214272 0.73100001 9.7550524e-39
0.041131448 -0.052285679 0.73200005 1.0400397e-38
0.042525716 -0.052285694 0.73200005 8.4682484e-39
0.043920033 -0.052285679 0.73200011 6.5354514e-39
0.045561917 -0.052571408 0.73600006 7.553946e-39
0.046963848 -0.052571408 0.73600012 8.4805462e-39
0.04862858 -0.052857123 0.74000001 8.3969573e-39
0.050038118 -0.052857108 0.74000001 8.2953968e-39
0.051656198 -0.053071432 0.74300009 7.7375287e-39
-0.029363781 -0.052281894 0.75200009 8.2939423e-39
-0.02785713 -0.052142836 0.75000012 8.1830954e-39
-0.026428549 -0.052142851 0.75000012 7.9911665e-39
-0.024999991 -0.052142836 0.75000012 8.2666646e-39
-0.023477128 -0.051934265 0.74700004 8.5418082e-39
-0.021995248 -0.051795222 0.74500012 9.0006213e-39
-0.020520948 -0.051656179 0.74300009 9.4594288e-39
-0.019105714 -0.051656179 0.74300009 9.9185937e-39
-0.017666647 -0.051586665 0.7420001 1.0377809e-38
-0.016187577 -0.051378079 0.73900002 1.0746624e-38
-0.014739987 -0.051239051 0.73700011 1.1112543e-38
-0.013336178 -0.051239036 0.73700011 1.1121164e-38
-0.011932345 -0.051239036 0.73700011 1.1119045e-38
-0.010528537 -0.051239036 0.73700011 1.242307e-38
-0.0090875858 -0.051030464 0.73400003 1.3724557e-38
-0.0076685753 -0.050891407 0.73200011 1.4281314e-38
-0.0062656682 -0.050821893 0.73100001 1.4912955e-38
-0.0048733223 -0.050821908 0.73100001 1.0570411e-38
-0.0034809168 -0.050821893 0.73100001 6.3370878e-39
-0.0020828079 -0.050682835 0.72900003 1.0033185e-38
-0.00069330249 -0.050613321 0.7280001 1.3736794e-38
0.00069331203 -0.050613336 0.7280001 1.6226453e-38
0.0020799879 -0.050613336 0.7280001 1.8815033e-38
0.003466662 -0.050613336 0.7280001 1.8625947e-38
0.0048400518 -0.050474264 0.72600001 1.8441487e-38
0.0062229205 -0.050474264 0.72600001 1.6588922e-38
0.007605765 -0.050474249 0.72600001 1.4646716e-38
0.0089761913 -0.05040475 0.72500008 7.7342721e-39
0.010357173 -0.050404735 0.72500002 7.350441e-40
0.011754327 -0.050474264 0.72600007 3.1317353e-39
0.013119061 -0.05040475 0.72500008 5.4503322e-39
0.014520039 -0.050474279 0.72600001 1.0063023e-38
0.015902907 -0.050474264 0.72600001 1.4754775e-38
0.017285774 -0.050474264 0.72600001 1.0775964e-38
0.018668618 -0.050474264 0.72600001 6.8880574e-39
0.020051485 -0.050474264 0.72600001 6.2527759e-39
0.021434352 -0.050474249 0.72600001 5.7110732e-39
0.022785738 -0.05040475 0.72500002 7.178988e-39
0.024166683 -0.05040475 0.72500008 8.6339926e-39
0.025547627 -0.050404765 0.72500008 1.0853455e-38
0.026965762 -0.050474279 0.72600001 1.3067913e-38
0.028348628 -0.050474264 0.72600001 1.3716145e-38
0.029731497 -0.050474264 0.72600001 1.4450902e-38
0.031200038 -0.050613321 0.7280001 1.5669947e-38
0.032631457 -0.05068285 0.72900003 1.6971797e-38
0.034020014 -0.05068285 0.72900009 1.5392665e-38
0.035505768 -0.050821893 0.73100001 1.3898856e-38
0.036898151 -0.050821893 0.73100001 1.2981528e-38
0.038290519 -0.050821893 0.73100001 1.2061004e-38
0.039737158 -0.050891407 0.73200005 1.2340438e-38
0.04124381 -0.051030464 0.73400003 1.2622747e-38
0.042641923 -0.05103045 0.73400003 1.0958572e-38
0.044160008 -0.051169492 0.73600006 9.2898045e-39
0.045623843 -0.051239036 0.73700011 9.7623097e-39
0.047219053 -0.051447593 0.74000007 1.0233681e-38
0.048760023 -0.051586665 0.7420001 9.0358696e-39
0.05024099 -0.051656194 0.74300009 7.9291381e-39
0.051656198 -0.051656179 0.74300009 7.5556556e-39
-0.027857143 -0.050714262 0.75000012 8.3613616e-39
-0.026428562 -0.050714277 0.75000012 8.0837027e-39
-0.024999982 -0.050714262 0.75000012 8.3588504e-39
-0.023477132 -0.050511412 0.74700004 8.6336353e-39
-0.022054281 -0.050511397 0.74700004 9.0924512e-39
-0.020576168 -0.050376169 0.74500006 9.5512629e-39
-0.019105714 -0.050240941 0.74300009 1.0010433e-38
-0.017666657 -0.050173305 0.7420001 1.0377795e-38
-0.016187575 -0.049970455 0.73900002 1.0561486e-38
-0.014779974 -0.049970455 0.73900008 1.0745166e-38
-0.01333617 -0.049835242 0.73700011 1.0194165e-38
-0.011932361 -0.049835227 0.73700011 9.5531197e-39
-0.010528552 -0.049835227 0.73700011 1.0653362e-38
-0.0090875905 -0.049632348 0.73400003 1.1777291e-38
-0.0076685743 -0.04949712 0.73200011 1.2995209e-38
-0.0062656999 -0.049429514 0.73100001 1.4079237e-38
-0.0048732907 -0.049429528 0.73100001 1.0561445e-38
-0.003471395 -0.049294256 0.72900009 6.9824096e-39
-0.0020828191 -0.049294271 0.72900003 9.4695392e-39
-0.00069332111 -0.049226664 0.7280001 1.1978228e-38
0.00069335301 -0.049226664 0.7280001 1.5678267e-38
0.0020800065 -0.049226649 0.72800004 1.9358152e-38
0.0034666806 -0.049226649 0.72800004 1.9556179e-38
0.0048533585 -0.049226649 0.72800004 1.9732999e-38
0.0062229205 -0.049091391 0.72600001 2.0013134e-38
0.0076057501 -0.049091406 0.72600007 2.0169107e-38
0.008988617 -0.049091406 0.72600007 1.041187e-38
0.010357188 -0.0490238 0.72500002 5.599925e-40
0.011754328 -0.049091391 0.72600001 3.6841958e-40
0.013137196 -0.049091391 0.72600001 2.060161e-40
0.014520063 -0.049091406 0.72600001 7.6785144e-39
0.015902907 -0.049091421 0.72600001 1.5121794e-38
0.017285775 -0.049091406 0.72600001 1.3836038e-38
0.018668605 -0.049091406 0.72600007 1.2513365e-38
0.020051472 -0.049091406 0.72600007 7.9900833e-39
0.021434318 -0.049091406 0.72600001 3.5084408e-39
0.022817183 -0.049091391 0.72600001 8.0227308e-39
0.024166698 -0.0490238 0.72500008 1.2518353e-38
0.025582917 -0.049091391 0.72600001 1.3442436e-38
0.026965762 -0.049091391 0.72600001 1.4269684e-38
0.028426688 -0.049226664 0.7280001 1.5286343e-38
0.029813344 -0.049226649 0.7280001 1.6303048e-38
0.03124287 -0.049294256 0.72900009 1.6785602e-38
0.032631468 -0.049294256 0.72900009 1.7240838e-38
0.034020003 -0.049294256 0.72900009 1.6413604e-38
0.035505775 -0.049429514 0.73100001 1.5471871e-38
0.036898144 -0.049429514 0.73100001 1.5285987e-38
0.038342863 -0.04949712 0.73200011 1.500868e-38
0.039845724 -0.049632378 0.73400003 1.4922579e-38
0.041243851 -0.049632363 0.73400009 1.4737132e-38
0.042758144 -0.049767621 0.73600012 1.3361053e-38
0.044220038 -0.049835242 0.73700011 1.1969531e-38
0.045747649 -0.04997047 0.73900008 1.1971326e-38
0.047155291 -0.04997047 0.73900008 1.1880574e-38
0.048760016 -0.05017332 0.7420001 9.7672885e-39
0.05024099 -0.050240941 0.74300009 7.5574787e-39
0.051656194 -0.050240941 0.74300003 7.3698448e-39
0.05307145 -0.050240941 0.74300009 7.093981e-39
-0.026499035 -0.049417101 0.75200009 8.2655632e-39
-0.024999997 -0.049285688 0.75000012 8.4503174e-39
-0.023508582 -0.049154274 0.74800009 8.6336283e-39
-0.022054262 -0.04908856 0.74700004 9.0924442e-39
-0.020576188 -0.048957132 0.74500012 9.5512615e-39
-0.019105714 -0.048825704 0.74300003 1.0102273e-38
-0.017666666 -0.048759989 0.7420001 1.0561452e-38
-0.016209519 -0.048628561 0.74000007 1.0745123e-38
-0.014779971 -0.048562832 0.73900008 1.0928804e-38
-0.013336148 -0.048431404 0.73700005 1.0653307e-38
-0.011932378 -0.048431404 0.73700011 1.0377787e-38
-0.010528547 -0.048431404 0.73700011 1.0929144e-38
-0.009112346 -0.04836569 0.73600006 1.1480554e-38
-0.0076685594 -0.048102818 0.73200005 1.2789605e-38
-0.0062656682 -0.048037119 0.73100001 1.4081365e-38
-0.0048732851 -0.048037104 0.73100001 1.1034256e-38
-0.003480915 -0.048037119 0.73100001 7.8982156e-39
-0.0020885095 -0.048037104 0.73100001 9.4755592e-39
-0.00069333974 -0.047839977 0.7280001 1.0956139e-38
0.00069333438 -0.047839977 0.7280001 1.2619312e-38
0.0020800103 -0.047839992 0.7280001 1.4290695e-38
0.0034666862 -0.047840007 0.7280001 1.5583257e-38
0.004853338 -0.047839992 0.7280001 1.6971912e-38
0.0062229056 -0.047708549 0.72600007 1.7240602e-38
0.0076057501 -0.047708549 0.72600001 1.751276e-38
0.0089886189 -0.047708549 0.72600001 9.6703887e-39
0.010371486 -0.047708549 0.72600001 1.8370897e-39
0.011754353 -0.047708549 0.72600001 1.0109093e-39
0.013137197 -0.047708534 0.72600001 1.8412641e-40
0.014520063 -0.047708534 0.72600001 6.0921857e-39
0.015902892 -0.047708549 0.72600007 1.2094847e-38
0.01728576 -0.047708549 0.72600007 1.2359942e-38
0.018719986 -0.047839977 0.7280001 1.270639e-38
0.020106662 -0.047839992 0.7280001 9.2897358e-39
0.021493338 -0.047839992 0.7280001 5.9933647e-39
0.022817206 -0.047708564 0.72600001 1.0139255e-38
0.024166694 -0.047642864 0.72500008 1.4279736e-38
0.025582917 -0.047708534 0.72600001 1.4269323e-38
0.026965747 -0.047708549 0.72600007 1.4362972e-38
0.02842667 -0.047839992 0.7280001 1.4913645e-38
0.029813344 -0.047839992 0.7280001 1.5566942e-38
0.031242881 -0.047905676 0.72900009 1.5751733e-38
0.032631453 -0.047905691 0.72900003 1.6036923e-38
0.034113396 -0.048037119 0.73100001 1.538044e-38
0.035505738 -0.048037134 0.73100001 1.4728192e-38
0.036898151 -0.048037134 0.73100001 1.4631261e-38
0.038342845 -0.048102848 0.73200011 1.4550911e-38
0.039845746 -0.048234262 0.73400003 1.4268594e-38
0.041356228 -0.04836569 0.73600006 1.4001748e-38
0.042758159 -0.04836569 0.73600006 1.2981922e-38
0.044220023 -0.048431419 0.73700011 1.1970603e-38
0.045747653 -0.048562847 0.73900002 1.1319811e-38
0.047219079 -0.048628561 0.74000007 1.0683079e-38
0.048760038 -0.048759989 0.74200004 8.9324818e-39
0.050240945 -0.048825718 0.74300009 7.1836683e-39
0.051656161 -0.048825718 0.74300009 7.0932733e-39
0.053071413 -0.048825704 0.74300009 7.0943467e-39
0.054486711 -0.048825704 0.74300009 6.8191962e-39
-0.026428552 -0.047857143 0.75000006 8.461099e-39
-0.024999971 -0.047857128 0.75000006 8.5436004e-39
-0.023508575 -0.047729515 0.74800003 8.5425144e-39
-0.022054264 -0.047665693 0.74700004 9.0920827e-39
-0.020576209 -0.047538079 0.74500012 9.5512587e-39
-0.019157168 -0.047538079 0.74500012 1.0194107e-38
-0.017690459 -0.047410481 0.74300003 1.074512e-38
-0.016209507 -0.047219031 0.74000001 1.0928791e-38
-0.014779969 -0.047155209 0.73900002 1.1020632e-38
-0.013336163 -0.047027595 0.73700005 1.1112472e-38
-0.011932332 -0.047027595 0.73700005 1.1112471e-38
-0.010514257 -0.046963803 0.73600006 1.1112471e-38
-0.009112332 -0.046963789 0.73600006 1.1117504e-38
-0.0077104252 -0.046963789 0.73600006 1.2600874e-38
-0.0062656626 -0.04664474 0.73100001 1.4079576e-38
-0.0048732925 -0.04664474 0.73100001 1.1503884e-38
-0.0034809094 -0.046644725 0.73100001 8.8424652e-39
-0.0020885393 -0.04664474 0.73100001 9.3945698e-39
-0.00069425802 -0.046517111 0.72900009 9.9434345e-39
0.00069333811 -0.046453334 0.7280001 9.5513442e-39
0.0020828787 -0.046517111 0.72900003 9.1147949e-39
0.003471477 -0.046517111 0.72900003 1.1606221e-38
0.0048533399 -0.046453319 0.7280001 1.4090825e-38
0.0062399935 -0.046453319 0.7280001 1.4463931e-38
0.0076266695 -0.046453334 0.7280001 1.4727155e-38
0.0089886412 -0.046325676 0.72600001 8.9202681e-39
0.010371486 -0.046325676 0.72600001 3.1260096e-39
0.011754313 -0.046325691 0.72600007 1.6533991e-39
0.013137181 -0.046325706 0.72600007 9.2960739e-41
0.014520048 -0.046325706 0.72600007 4.5025485e-39
0.015902892 -0.046325691 0.72600001 8.9458516e-39
0.01728576 -0.046325691 0.72600001 1.0985649e-38
0.018668627 -0.046325691 0.72600001 1.2882533e-38
0.020051494 -0.046325706 0.72600001 1.0653278e-38
0.021434341 -0.046325691 0.72600001 8.3864658e-39
0.022817168 -0.046325691 0.72600007 1.2168959e-38
0.024200035 -0.046325691 0.72600007 1.5921655e-38
0.025582902 -0.046325691 0.72600007 1.5175849e-38
0.026965769 -0.046325676 0.72600007 1.4346459e-38
0.028465737 -0.046517126 0.72900009 1.4529771e-38
0.029813323 -0.046453319 0.7280001 1.4714186e-38
0.031242874 -0.046517111 0.72900009 1.470883e-38
0.03272102 -0.04664474 0.73100001 1.4716001e-38
0.034113366 -0.04664474 0.73100001 1.4342913e-38
0.035505772 -0.046644755 0.73100001 1.3972318e-38
0.036898118 -0.046644755 0.73100001 1.3960454e-38
0.038342882 -0.046708532 0.73200005 1.3973015e-38
0.039845742 -0.046836175 0.73400003 1.3599579e-38
0.041356251 -0.046963789 0.73600012 1.3151536e-38
0.042758133 -0.046963803 0.73600012 1.2593722e-38
0.044220041 -0.047027595 0.73700005 1.1950143e-38
0.045747656 -0.047155209 0.73900002 1.0653673e-38
0.04721909 -0.047219031 0.74000001 9.3819721e-39
0.048760034 -0.047346644 0.74200004 8.0962821e-39
0.050173346 -0.047346644 0.74200004 6.8156074e-39
0.051656201 -0.047410481 0.74300009 6.9092366e-39
0.053071413 -0.047410496 0.74300009 7.0025056e-39
0.05448667 -0.047410481 0.74300009 6.7284327e-39
-0.026428565 -0.046428569 0.75000012 1.0032375e-38
-0.024999985 -0.046428554 0.75000006 9.4684252e-39
-0.023508584 -0.04630474 0.74800009 8.9105781e-39
-0.022083811 -0.04630474 0.74800009 9.2764669e-39
-0.020631418 -0.046242826 0.74700004 9.6434502e-39
-0.019157127 -0.046119027 0.74500012 1.0102269e-38
-0.017690459 -0.045995228 0.74300003 1.0653282e-38
-0.016209509 -0.0458095 0.74000007 1.0836953e-38
-0.014779942 -0.0457476 0.73900002 1.1020624e-38
-0.013372326 -0.0457476 0.73900002 1.1112459e-38
-0.011932346 -0.045623802 0.73700005 1.1296143e-38
-0.010528537 -0.045623802 0.73700005 1.1296154e-38
-0.0091123348 -0.045561887 0.73600006 1.129614e-38
-0.007689517 -0.045438074 0.73400003 1.2693389e-38
-0.0062742513 -0.04531426 0.73200005 1.4183614e-38
-0.0048799813 -0.04531426 0.73200005 1.3542608e-38
-0.0034809168 -0.045252375 0.73100001 1.2909122e-38
-0.0020885337 -0.04525236 0.73100001 1.3362234e-38
-0.00069426547 -0.045128547 0.72900003 1.382097e-38
0.00069433276 -0.045128547 0.72900003 9.5695499e-39
0.0020828918 -0.045128547 0.72900009 5.4186656e-39
0.0034714676 -0.045128547 0.72900003 7.2650697e-39
0.0048600286 -0.045128547 0.72900009 9.0960876e-39
0.0062486269 -0.045128532 0.72900003 1.0947193e-38
0.0076371636 -0.045128562 0.72900003 1.2777038e-38
0.0090133259 -0.045066662 0.7280001 1.1131842e-38
0.010371471 -0.044942819 0.72600007 9.4605008e-39
0.011786676 -0.045066662 0.7280001 4.7833393e-39
0.013137182 -0.044942833 0.72600001 9.2197031e-41
0.01452005 -0.044942833 0.72600001 2.7626011e-39
0.015902918 -0.044942819 0.72600001 5.4449414e-39
0.017285785 -0.044942819 0.72600001 6.4527174e-39
0.018720008 -0.045066647 0.7280001 7.4502541e-39
0.020106684 -0.045066647 0.7280001 9.8507933e-39
0.021493338 -0.045066632 0.72800004 1.235261e-38
0.022880012 -0.045066662 0.72800004 1.3813384e-38
0.024200035 -0.044942819 0.72600001 1.5266254e-38
0.025582902 -0.044942833 0.72600001 1.452153e-38
0.026965769 -0.044942833 0.72600001 1.3776782e-38
0.028465724 -0.045128576 0.72900009 1.4332437e-38
0.029854324 -0.045128547 0.72900009 1.4877719e-38
0.031328622 -0.045252346 0.73100001 1.5072518e-38
0.03272099 -0.045252375 0.73100001 1.5245061e-38
0.034113396 -0.04525236 0.73100001 1.4889549e-38
0.035554301 -0.045314275 0.73200005 1.4602226e-38
0.036948588 -0.04531426 0.73200011 1.4795606e-38
0.038447622 -0.045438088 0.73400009 1.4974976e-38
0.039954338 -0.045561887 0.73600012 1.4525489e-38
0.041356221 -0.045561872 0.73600012 1.4155254e-38
0.042758144 -0.045561872 0.73600006 1.3240464e-38
0.04422003 -0.045623802 0.73700005 1.2398189e-38
0.045747664 -0.045747615 0.73900008 1.1030369e-38
0.047219064 -0.0458095 0.74000007 9.6564192e-39
0.048760023 -0.045933314 0.74200004 8.2831873e-39
0.050240945 -0.045995243 0.74300009 6.9092352e-39
0.05179524 -0.046119042 0.74500012 6.9099457e-39
0.053214259 -0.046119027 0.74500012 6.9110219e-39
0.054633323 -0.046119042 0.74500012 6.8199038e-39
-0.026428558 -0.044999994 0.75000012 1.1594321e-38
-0.024999976 -0.044999979 0.75000012 1.0478617e-38
-0.023571396 -0.044999994 0.75000012 9.2793634e-39
-0.022083806 -0.044879995 0.74800003 9.459796e-39
-0.020631421 -0.044819959 0.74700004 9.6434586e-39
-0.019157147 -0.044699974 0.74500012 1.0102268e-38
-0.017738106 -0.044699974 0.74500012 1.0469621e-38
-0.016253322 -0.044519983 0.74200004 1.0745138e-38
-0.014779979 -0.044339992 0.73900008 1.1020634e-38
-0.013372363 -0.044339977 0.73900002 1.1204293e-38
-0.011932363 -0.044219993 0.73700005 1.138797e-38
-0.010528532 -0.044220008 0.73700005 1.1387976e-38
-0.0091123581 -0.044159986 0.73600006 1.1392646e-38
-0.0076895002 -0.044039987 0.73400009 1.2876012e-38
-0.0062742736 -0.043919973 0.73200005 1.4272951e-38
-0.0048799813 -0.043919958 0.73200011 1.5573033e-38
-0.0034857113 -0.043919973 0.73200011 1.6859833e-38
-0.0020885412 -0.043859981 0.73100001 1.7232583e-38
-0.0006942543 -0.043739967 0.72900009 1.7586614e-38
0.00069432158 -0.043739967 0.72900003 9.6704294e-39
0.0020828806 -0.043739982 0.72900009 1.6602598e-39
0.0034714788 -0.043739967 0.72900003 2.9391072e-39
0.0048600174 -0.043739967 0.72900003 4.1448517e-39
0.0062486157 -0.043739952 0.72900003 7.5428113e-39
0.0076371748 -0.043739982 0.72900009 1.0866096e-38
0.0090133268 -0.04367999 0.7280001 1.3370037e-38
0.010371473 -0.043559991 0.72600001 1.5741223e-38
0.011786657 -0.04367999 0.7280001 7.9272785e-39
0.013137207 -0.043559961 0.72600001 1.0080941e-40
0.014520074 -0.043559961 0.72600001 1.010552e-39
0.01594666 -0.043679975 0.7280001 1.9357705e-39
0.017333334 -0.043680005 0.7280001 1.9297211e-39
0.018720012 -0.04367999 0.7280001 1.9415242e-39
0.020106664 -0.04367999 0.7280001 9.1308454e-39
0.021493338 -0.04367999 0.7280001 1.6300471e-38
0.022880014 -0.04367999 0.7280001 1.546606e-38
0.024266666 -0.043679975 0.7280001 1.4526182e-38
0.025653346 -0.043680005 0.7280001 1.3867552e-38
0.027040018 -0.04367999 0.7280001 1.3225421e-38
0.028465735 -0.043739967 0.72900009 1.4145211e-38
0.029854313 -0.043739967 0.72900003 1.4984644e-38
0.031457148 -0.044039987 0.73400009 1.5458169e-38
0.032765742 -0.043919973 0.73200011 1.5819401e-38
0.034253366 -0.044039987 0.73400003 1.5551776e-38
0.035554301 -0.043919973 0.73200011 1.5176917e-38
0.037049543 -0.044039987 0.73400003 1.5644004e-38
0.038552407 -0.044159971 0.73600006 1.6006685e-38
0.039954353 -0.044159971 0.73600006 1.5555761e-38
0.041412398 -0.044219993 0.73700011 1.50919e-38
0.042816229 -0.044219993 0.73700011 1.3997746e-38
0.044220015 -0.044219978 0.73700011 1.2877805e-38
0.045747668 -0.044339992 0.73900008 1.1412765e-38
0.047346666 -0.044519983 0.74200004 9.8465376e-39
0.048760016 -0.044519983 0.74200004 8.3786017e-39
0.050240949 -0.044579975 0.74300003 6.9095841e-39
0.051795263 -0.044699974 0.74500006 6.9102946e-39
0.053357143 -0.044819988 0.7470001 6.8195353e-39
0.054853342 -0.044879995 0.74800009 6.9120896e-39
0.056804743 -0.045299985 0.75500011 7.0028574e-39
-0.027931422 -0.043687604 0.75200009 9.9449662e-39
-0.026499033 -0.043687604 0.75200009 1.0504517e-38
-0.024999991 -0.04357142 0.75000012 9.9337025e-39
-0.023571411 -0.043571435 0.75000012 9.4616093e-39
-0.022083798 -0.043455206 0.74800003 9.6452775e-39
-0.020631401 -0.043397121 0.74700004 9.9189721e-39
-0.01920855 -0.043397106 0.74700004 1.019446e-38
-0.017738087 -0.043280937 0.74500006 1.0561466e-38
-0.016253307 -0.043106668 0.7420001 1.0745159e-38
-0.014799964 -0.042990454 0.74000007 1.1020643e-38
-0.013372338 -0.042932369 0.73900002 1.1204292e-38
-0.011932356 -0.042816184 0.73700011 1.1387963e-38
-0.010528548 -0.042816184 0.73700011 1.1571633e-38
-0.0091123218 -0.04275807 0.73600006 1.1755332e-38
-0.007689504 -0.0426419 0.73400003 1.2880702e-38
-0.0062742941 -0.042525686 0.73200011 1.3999969e-38
-0.0048800036 -0.042525701 0.73200011 1.3908155e-38
-0.0034857094 -0.042525701 0.73200011 1.3826384e-38
-0.0020885356 -0.042467602 0.73100001 1.5853599e-38
-0.00069426547 -0.042351417 0.72900003 1.7867173e-38
0.00069433276 -0.042351402 0.72900003 1.1783798e-38
0.0020828936 -0.042351417 0.72900009 5.7860749e-39
0.0034714695 -0.042351402 0.72900003 6.8962746e-39
0.0048600305 -0.042351402 0.72900009 8.0213043e-39
0.0062486287 -0.042351402 0.72900003 1.0595972e-38
0.0076371673 -0.042351417 0.72900003 1.3080936e-38
0.0090133473 -0.042293333 0.72800004 1.4656871e-38
0.010400022 -0.042293333 0.72800004 1.6135505e-38
0.011802901 -0.042351402 0.72900003 1.1519632e-38
0.013173313 -0.042293333 0.7280001 6.893053e-39
0.014520035 -0.042177118 0.72600007 3.9507214e-39
0.015946664 -0.042293333 0.7280001 1.0105506e-39
0.017333318 -0.042293333 0.7280001 2.3884418e-39
0.018719994 -0.042293318 0.7280001 3.857479e-39
0.020106668 -0.042293318 0.7280001 1.0692434e-38
0.021493319 -0.042293318 0.7280001 1.7599811e-38
0.022879997 -0.042293318 0.7280001 1.5922362e-38
0.024266671 -0.042293318 0.7280001 1.4331025e-38
0.025653346 -0.042293318 0.7280001 1.3960454e-38
0.027077165 -0.042351402 0.72900003 1.3592057e-38
0.028543826 -0.042467602 0.73100001 1.433537e-38
0.029936232 -0.042467587 0.73100001 1.4998657e-38
0.031457167 -0.042641886 0.73400009 1.5273795e-38
0.032765716 -0.042525701 0.73200011 1.5552514e-38
0.034253363 -0.0426419 0.73400003 1.5181211e-38
0.03565146 -0.0426419 0.73400003 1.4817826e-38
0.037049536 -0.0426419 0.73400003 1.4998997e-38
0.038552441 -0.042758085 0.73600006 1.5280246e-38
0.039954327 -0.04275807 0.73600006 1.4910036e-38
0.041412421 -0.04281617 0.73700005 1.4638098e-38
0.042816214 -0.042816184 0.73700011 1.3527086e-38
0.044220001 -0.042816184 0.73700005 1.2416827e-38
0.045747671 -0.042932354 0.73900002 1.0577264e-38
0.047346704 -0.043106653 0.7420001 8.8359771e-39
0.048825737 -0.043164767 0.74300003 7.9190571e-39
0.050376218 -0.043280937 0.74500012 7.0936054e-39
0.051934306 -0.043397136 0.7470001 6.6351356e-39
0.053571466 -0.04357142 0.75000012 6.26923e-39
0.055000003 -0.04357142 0.75000012 6.4529024e-39
0.056654323 -0.043745704 0.75300008 6.7269893e-39
-0.027931418 -0.04225523 0.75200009 9.2016039e-39
-0.026499029 -0.04225523 0.75200009 9.2952135e-39
-0.025000006 -0.042142831 0.75000012 9.4742027e-39
-0.023571424 -0.042142846 0.75000012 9.5635187e-39
-0.02208383 -0.042030461 0.74800009 9.8318435e-39
-0.020631403 -0.041974254 0.74700004 1.0104098e-38
-0.019157128 -0.041861899 0.74500012 1.0378145e-38
-0.017738087 -0.041861899 0.74500012 1.0561462e-38
-0.016253319 -0.041693337 0.74200004 1.0836973e-38
-0.014799991 -0.041580938 0.74000007 1.1020632e-38
-0.013372336 -0.041524746 0.73900002 1.1204293e-38
-0.011932372 -0.041412376 0.73700011 1.1387963e-38
-0.010528539 -0.041412376 0.73700011 1.1755304e-38
-0.0091123478 -0.041356184 0.73600006 1.2130916e-38
-0.0076895077 -0.041243799 0.73400003 1.2982568e-38
-0.006274255 -0.0411314 0.73200005 1.3715109e-38
-0.004879985 -0.041131414 0.73200005 1.2233197e-38
-0.0034856945 -0.041131414 0.73200005 1.0693946e-38
-0.002088543 -0.041075237 0.73100007 1.4396492e-38
-0.0006942543 -0.040962823 0.72900009 1.8049421e-38
0.00069432158 -0.040962823 0.72900003 1.3994984e-38
0.0020828824 -0.040962853 0.72900009 9.9279824e-39
0.0034714807 -0.040962838 0.72900003 1.0929869e-38
0.0048600174 -0.040962838 0.72900003 1.1880211e-38
0.0062486175 -0.040962838 0.72900003 1.3646311e-38
0.0076371785 -0.040962838 0.72900009 1.5293983e-38
0.0090257535 -0.040962823 0.72900003 1.5948326e-38
0.010414314 -0.040962838 0.72900009 1.6499681e-38
0.011802912 -0.040962823 0.72900003 1.5122849e-38
0.01319145 -0.040962823 0.72900003 1.3710816e-38
0.014560007 -0.040906645 0.72800004 6.8880223e-39
0.015946683 -0.040906645 0.72800004 9.219563e-41
0.017333359 -0.040906645 0.7280001 2.9390974e-39
0.01872001 -0.04090663 0.72800004 5.7125011e-39
0.020106684 -0.04090666 0.72800004 1.2273402e-38
0.021493323 -0.04090666 0.7280001 1.8787944e-38
0.022879999 -0.04090666 0.7280001 1.6476592e-38
0.024266653 -0.040906675 0.7280001 1.4153441e-38
0.025688618 -0.040962838 0.72900003 1.4051202e-38
0.027077179 -0.040962838 0.72900009 1.3960116e-38
0.028465716 -0.040962838 0.72900009 1.4512954e-38
0.029936243 -0.041075207 0.73100001 1.4989356e-38
0.031371426 -0.0411314 0.73200011 1.5177338e-38
0.032765731 -0.041131414 0.73200005 1.5270963e-38
0.034160025 -0.0411314 0.73200005 1.4894289e-38
0.035651457 -0.041243784 0.73400003 1.443978e-38
0.037049554 -0.041243784 0.73400003 1.4437991e-38
0.038552422 -0.041356169 0.73600006 1.4444806e-38
0.040008619 -0.041412361 0.73700011 1.4350101e-38
0.041412406 -0.041412361 0.73700005 1.4169301e-38
0.042816237 -0.041412376 0.73700005 1.3055438e-38
0.044340029 -0.04152476 0.73900002 1.1860122e-38
0.045747671 -0.041524746 0.73900002 9.8275247e-39
0.047346693 -0.041693322 0.7420001 7.8193323e-39
0.048825741 -0.041749515 0.74300003 7.5509921e-39
0.050240997 -0.0417495 0.74300009 7.1850738e-39
0.052003805 -0.042030461 0.74800003 6.4510975e-39
0.053571444 -0.042142831 0.75000012 5.6256598e-39
0.055000026 -0.042142831 0.75000012 5.9948025e-39
0.056428611 -0.042142846 0.75000012 6.3607235e-39
-0.027968578 -0.040877141 0.75300008 7.8196981e-39
-0.026499026 -0.040822826 0.75200003 7.4498786e-39
-0.025066637 -0.040822826 0.75200003 8.3750817e-39
-0.023571439 -0.040714271 0.75000012 9.3031098e-39
-0.0220838 -0.040605702 0.74800009 9.5631768e-39
-0.020659029 -0.040605702 0.74800003 9.9204462e-39
-0.019208556 -0.040551387 0.74700004 1.0286683e-38
-0.017738108 -0.040442847 0.74500012 1.0653293e-38
-0.016253328 -0.040279977 0.74200004 1.083695e-38
-0.01479998 -0.040171392 0.74000001 1.1112458e-38
-0.013372371 -0.040117137 0.73900008 1.1204293e-38
-0.011932364 -0.040008582 0.73700011 1.1296128e-38
-0.010528555 -0.040008567 0.73700011 1.1663468e-38
-0.0091123339 -0.039954253 0.73600006 1.2030823e-38
-0.0076894891 -0.039845683 0.73400003 1.2791707e-38
-0.0062742773 -0.039737113 0.73200005 1.3624325e-38
-0.004879985 -0.039737128 0.73200011 1.0305691e-38
-0.0034857187 -0.039737128 0.73200005 7.0947979e-39
-0.0020885356 -0.039682843 0.73100001 9.8657662e-39
-0.00069426361 -0.039574258 0.72900003 1.2622529e-38
0.00069433462 -0.039574258 0.72900003 1.0031309e-38
0.0020828731 -0.039574243 0.72900003 7.4390802e-39
0.0034714714 -0.039574258 0.72900003 9.2872401e-39
0.0048600305 -0.039574273 0.72900009 1.1065911e-38
0.0062486064 -0.039574258 0.72900003 1.3182507e-38
0.0076371673 -0.039574273 0.72900003 1.5285401e-38
0.0090257665 -0.039574258 0.72900003 1.5473381e-38
0.010414303 -0.039574273 0.72900003 1.5761473e-38
0.011802903 -0.039574258 0.72900003 1.5486712e-38
0.013191463 -0.039574258 0.72900009 1.5102035e-38
0.014560012 -0.039520003 0.7280001 7.7245863e-39
0.015946686 -0.039519988 0.7280001 3.6770352e-40
0.01733334 -0.039519988 0.7280001 4.3202172e-39
0.018745735 -0.039574258 0.72900003 8.3714425e-39
0.020134334 -0.039574258 0.72900003 1.4010417e-38
0.021493344 -0.039519973 0.72800004 1.9525868e-38
0.02291147 -0.039574258 0.72900003 1.6654512e-38
0.024300031 -0.039574273 0.72900003 1.386752e-38
0.02568863 -0.039574258 0.72900003 1.3775685e-38
0.027077168 -0.039574258 0.72900003 1.3683893e-38
0.028543865 -0.039682858 0.73100001 1.4611617e-38
0.029936235 -0.039682858 0.73100001 1.5635101e-38
0.031371441 -0.039737128 0.73200005 1.5825966e-38
0.032765735 -0.039737128 0.73200011 1.6011081e-38
0.034253336 -0.039845712 0.73400003 1.5451824e-38
0.035651475 -0.039845712 0.73400003 1.4802158e-38
0.037049551 -0.039845712 0.73400003 1.4718212e-38
0.03855243 -0.039954267 0.73600006 1.4537408e-38
0.040008608 -0.040008567 0.73700011 1.4445927e-38
0.041412439 -0.040008552 0.73700011 1.4357343e-38
0.042816225 -0.040008582 0.73700005 1.3154893e-38
0.044340044 -0.040117122 0.73900008 1.2048864e-38
0.045809574 -0.040171392 0.74000007 9.9283397e-39
0.047346685 -0.040279977 0.7420001 7.8179002e-39
0.0488257 -0.040334277 0.74300009 7.5491914e-39
0.050376214 -0.040442832 0.74500006 7.2776198e-39
0.052003816 -0.040605702 0.74800003 6.6347587e-39
0.053428549 -0.040605702 0.74800009 5.9915641e-39
0.054853324 -0.040605702 0.74800003 6.2688754e-39
0.056278098 -0.040605687 0.74800003 6.4536352e-39
-0.027968565 -0.03944283 0.75300008 6.5354613e-39
-0.026498999 -0.039390452 0.75200003 5.526368e-39
-0.025066672 -0.039390467 0.75200009 7.2734159e-39
-0.023634283 -0.039390467 0.75200009 9.019707e-39
-0.022142848 -0.039285697 0.75000012 9.3802148e-39
-0.020659061 -0.039180942 0.74800009 9.6474411e-39
-0.019208536 -0.039128534 0.74700004 1.019412e-38
-0.017738089 -0.039023809 0.74500006 1.0653287e-38
-0.016253315 -0.038866647 0.7420001 1.0928786e-38
-0.014799984 -0.038761877 0.74000007 1.1112458e-38
-0.013372345 -0.038709514 0.73900008 1.1112461e-38
-0.011964729 -0.038709499 0.73900002 1.1112465e-38
-0.010528571 -0.038604744 0.73700011 1.1479811e-38
-0.0091123348 -0.038552366 0.73600006 1.1856845e-38
-0.0076894937 -0.038447596 0.73400003 1.2712787e-38
-0.0062742773 -0.038342841 0.73200011 1.3435985e-38
-0.0048800074 -0.038342856 0.73200011 8.4546194e-39
-0.003485715 -0.038342841 0.73200011 3.4109076e-39
-0.0020885039 -0.038290463 0.73100001 5.2566531e-39
-0.00069425243 -0.038185678 0.72900009 7.0897323e-39
0.00069432345 -0.038185678 0.72900003 6.0683777e-39
0.0020828843 -0.038185693 0.72900009 4.9613042e-39
0.0034714825 -0.038185678 0.72900003 7.6227147e-39
0.0048600193 -0.038185693 0.72900003 1.0225037e-38
0.0062486175 -0.038185678 0.72900003 1.2731936e-38
0.0076371562 -0.038185693 0.72900003 1.519675e-38
0.0090257544 -0.038185678 0.72900003 1.5081919e-38
0.010414316 -0.038185693 0.72900009 1.5019941e-38
0.011802915 -0.038185693 0.72900003 1.5776231e-38
0.013191451 -0.038185693 0.72900003 1.6478505e-38
0.014559991 -0.038133316 0.7280001 8.5410669e-39
0.015968587 -0.038185678 0.72900003 5.5138712e-40
0.017357185 -0.038185678 0.72900003 5.7860202e-39
0.018745746 -0.038185693 0.72900009 1.1054066e-38
0.020134324 -0.038185678 0.72900003 1.5687157e-38
0.021522883 -0.038185678 0.72900003 2.0261998e-38
0.022911482 -0.038185664 0.72900003 1.6932171e-38
0.02430002 -0.038185678 0.72900003 1.3508795e-38
0.025759082 -0.038290463 0.73100001 1.3500192e-38
0.027151488 -0.038290448 0.73100001 1.3411274e-38
0.028543858 -0.038290448 0.73100001 1.4797464e-38
0.029936241 -0.038290463 0.73100001 1.6190453e-38
0.031457178 -0.038447596 0.73400003 1.647998e-38
0.032765713 -0.038342841 0.73200011 1.6747941e-38
0.034253355 -0.038447611 0.73400009 1.6007144e-38
0.03565143 -0.038447626 0.73400009 1.5179913e-38
0.037150521 -0.038552351 0.73600006 1.4911947e-38
0.03855243 -0.038552366 0.73600006 1.4632127e-38
0.04000859 -0.038604759 0.73700011 1.453885e-38
0.041412421 -0.038604774 0.73700011 1.4447384e-38
0.042816207 -0.038604759 0.73700005 1.3341422e-38
0.044340048 -0.038709514 0.73900008 1.2234682e-38
0.045809548 -0.038761906 0.74000007 1.0019099e-38
0.047410492 -0.038919039 0.74300009 7.7285786e-39
0.048957177 -0.039023794 0.74500012 7.5495557e-39
0.050511476 -0.039128564 0.74700004 7.276552e-39
0.052003786 -0.039180942 0.74800003 6.8180835e-39
0.053571459 -0.039285697 0.75000012 6.3596333e-39
0.054853331 -0.039180942 0.74800003 6.4521961e-39
0.056428622 -0.039285697 0.75000012 6.5436785e-39
-0.02660476 -0.038109489 0.75500011 7.8258554e-39
-0.025100006 -0.038008563 0.75300008 8.652742e-39
-0.023634255 -0.037958078 0.75200009 9.386686e-39
-0.02220189 -0.037958078 0.75200003 9.6535605e-39
-0.020714281 -0.037857138 0.75000012 1.0012621e-38
-0.019234281 -0.037756182 0.74800003 1.0378497e-38
-0.017785691 -0.037705697 0.74700004 1.0836953e-38
-0.01627522 -0.037503801 0.74300003 1.102062e-38
-0.014839973 -0.037453301 0.74200004 1.129613e-38
-0.01339047 -0.037352361 0.74000007 1.1296133e-38
-0.011964727 -0.037301876 0.73900002 1.1204307e-38
-0.010528526 -0.03720095 0.73700005 1.1571659e-38
-0.0091247568 -0.037200935 0.73700011 1.1847167e-38
-0.0077104121 -0.037150465 0.73600006 1.2701309e-38
-0.0062913969 -0.037049495 0.73400003 1.3442436e-38
-0.0048799682 -0.036948539 0.73200005 8.0008103e-39
-0.0034857001 -0.036948554 0.73200005 2.5717666e-39
-0.0020914078 -0.036948539 0.73200005 3.8635746e-39
-0.00069612812 -0.036898084 0.73100001 5.1453353e-39
0.00069433649 -0.036797114 0.72900003 3.8600069e-39
0.0020886231 -0.036898084 0.73100001 2.5724939e-39
0.0034714732 -0.036797114 0.72900003 4.8726637e-39
0.0048600342 -0.036797114 0.72900009 7.2748158e-39
0.0062486101 -0.036797099 0.72900003 1.1708109e-38
0.0076371692 -0.036797114 0.72900003 1.6218016e-38
0.0090257674 -0.036797114 0.72900003 1.6117134e-38
0.010414306 -0.036797114 0.72900003 1.6031175e-38
0.011802904 -0.036797114 0.72900003 1.5394204e-38
0.013191464 -0.036797129 0.72900009 1.4647549e-38
0.01458004 -0.036797114 0.72900003 7.9097035e-39
0.015968602 -0.036797114 0.72900003 1.1942496e-39
0.0173572 -0.036797114 0.72900003 5.9811917e-39
0.018745739 -0.036797129 0.72900003 1.0881179e-38
0.020134337 -0.036797114 0.72900003 1.5586734e-38
0.021522896 -0.036797114 0.72900009 2.0362096e-38
0.022911472 -0.036797114 0.72900003 1.7021854e-38
0.024300033 -0.036797114 0.72900003 1.3775699e-38
0.025688607 -0.036797114 0.72900003 1.3683877e-38
0.027077166 -0.036797114 0.72900003 1.368393e-38
0.028465725 -0.036797129 0.72900009 1.4985463e-38
0.029854326 -0.036797129 0.72900009 1.6288421e-38
0.031242903 -0.036797114 0.72900003 1.6292408e-38
0.03276575 -0.036948554 0.73200005 1.6380981e-38
0.034253351 -0.037049495 0.73400003 1.5825987e-38
0.035651427 -0.037049495 0.73400003 1.5273554e-38
0.037150521 -0.03715045 0.73600006 1.4999855e-38
0.038552407 -0.037150465 0.73600006 1.4723261e-38
0.040008571 -0.03720095 0.73700011 1.4632132e-38
0.041412402 -0.037200965 0.73700011 1.4633566e-38
0.04293241 -0.037301876 0.73900002 1.3345716e-38
0.044400021 -0.037352361 0.74000007 1.2151809e-38
0.04580956 -0.037352361 0.74000007 1.0029144e-38
0.047410488 -0.037503801 0.74300009 7.915481e-39
0.049088564 -0.037705682 0.74700004 7.5502788e-39
0.050579064 -0.037756167 0.74800009 7.2765604e-39
0.05200379 -0.037756167 0.74800003 6.910289e-39
0.053571448 -0.037857123 0.75000012 6.6362258e-39
0.055000026 -0.037857108 0.75000012 6.6351566e-39
0.056428608 -0.037857123 0.75000012 6.6333644e-39
0.057857152 -0.037857123 0.75000012 6.7269935e-39
-0.028079949 -0.036719956 0.75600004 9.2123477e-39
-0.026604768 -0.036671408 0.75500011 1.0126769e-38
-0.025099991 -0.036574267 0.75300008 9.9409584e-39
-0.023665719 -0.036574282 0.75300008 9.7508036e-39
-0.022201862 -0.036525704 0.75200009 1.0017674e-38
-0.020714257 -0.036428563 0.75000012 1.0288486e-38
-0.019234315 -0.036331408 0.74800009 1.0653287e-38
-0.017785691 -0.03628283 0.74700004 1.092879e-38
-0.016275236 -0.036088564 0.74300009 1.1204291e-38
-0.01483996 -0.036039971 0.74200004 1.14798e-38
-0.013390437 -0.035942845 0.74000007 1.1387967e-38
-0.01196474 -0.035894267 0.73900008 1.129614e-38
-0.01052854 -0.035797141 0.73700011 1.1571655e-38
-0.0091247316 -0.035797141 0.73700005 1.1856484e-38
-0.0077104382 -0.035748549 0.73600006 1.2710265e-38
-0.0062914006 -0.035651408 0.73400003 1.3434187e-38
-0.0048933029 -0.035651408 0.73400003 7.6266692e-39
-0.0034857001 -0.035554267 0.73200011 1.7474024e-39
-0.0020914301 -0.035554267 0.73200011 2.4799339e-39
-0.00069615978 -0.035505705 0.73100001 3.1288837e-39
0.00069624756 -0.03550569 0.73100001 1.6534215e-39
0.0020885933 -0.03550569 0.73100001 9.2565573e-41
0.0034714602 -0.035408549 0.72900003 2.204412e-39
0.004860023 -0.035408534 0.72900009 4.242106e-39
0.0062486213 -0.035408534 0.72900003 1.0699023e-38
0.007637158 -0.035408549 0.72900003 1.7136426e-38
0.0090257563 -0.035408549 0.72900003 1.7137094e-38
0.010414317 -0.035408549 0.72900009 1.7045299e-38
0.011835258 -0.035505705 0.73100001 1.493743e-38
0.013191452 -0.035408549 0.72900009 1.2791773e-38
0.014580052 -0.035408549 0.72900003 7.2553783e-39
0.016012417 -0.03550569 0.73100001 1.7484954e-39
0.017357189 -0.035408564 0.72900003 6.154465e-39
0.01874575 -0.035408564 0.72900003 1.0599944e-38
0.020134326 -0.035408549 0.72900003 1.5508188e-38
0.021522883 -0.035408549 0.72900009 2.0353494e-38
0.022911482 -0.035408549 0.72900003 1.7200503e-38
0.02430002 -0.035408534 0.72900003 1.3966191e-38
0.025688622 -0.035408534 0.72900003 1.3959395e-38
0.027077181 -0.035408549 0.72900009 1.3964109e-38
0.028465759 -0.035408534 0.72900003 1.5172369e-38
0.029936239 -0.035505705 0.73100001 1.6286977e-38
0.031457193 -0.035651408 0.73400003 1.6112301e-38
0.032855269 -0.035651408 0.73400003 1.5921794e-38
0.0343467 -0.035748549 0.73600006 1.5641606e-38
0.035748608 -0.035748564 0.73600012 1.5273198e-38
0.037150495 -0.035748549 0.73600012 1.5090254e-38
0.038604788 -0.035797127 0.73700005 1.4815812e-38
0.040008619 -0.035797127 0.73700011 1.481616e-38
0.041524816 -0.035894267 0.73900002 1.4725403e-38
0.042990495 -0.035942845 0.74000007 1.3440068e-38
0.044520002 -0.036039971 0.7420001 1.2058539e-38
0.046119057 -0.036185704 0.74500012 1.0029857e-38
0.047538072 -0.036185689 0.74500012 8.0087528e-39
0.049088556 -0.03628283 0.74700004 7.6431989e-39
0.050579071 -0.036331423 0.74800009 7.2765674e-39
0.052142888 -0.036428548 0.75000006 7.0936068e-39
0.053571429 -0.036428548 0.75000012 6.8184633e-39
0.055000011 -0.036428548 0.75000012 6.7266334e-39
0.056278121 -0.036331408 0.74800009 6.634442e-39
-0.028154263 -0.035373293 0.75800002 9.1208695e-39
-0.026639981 -0.035279982 0.75600004 1.0496985e-38
-0.025099978 -0.035139985 0.75300002 1.0031367e-38
-0.023759993 -0.035279982 0.75600004 9.6578962e-39
-0.022201858 -0.035093315 0.75200003 9.8322079e-39
-0.020714272 -0.034999989 0.75000012 1.001047e-38
-0.019234285 -0.034906663 0.74800009 1.0377782e-38
-0.017785694 -0.034859978 0.74700004 1.0836954e-38
-0.016275235 -0.034673311 0.74300009 1.1112455e-38
-0.014839971 -0.034626655 0.74200004 1.1387964e-38
-0.01342666 -0.034626655 0.7420001 1.129613e-38
-0.011964738 -0.034486659 0.73900002 1.1204302e-38
-0.01055712 -0.034486659 0.73900002 1.138798e-38
-0.0091247251 -0.034393333 0.73700011 1.1571642e-38
-0.0077104624 -0.034346648 0.73600012 1.2692314e-38
-0.0062914211 -0.034253336 0.73400009 1.3803684e-38
-0.0048933066 -0.034253322 0.73400003 1.1315531e-38
-0.0034857206 -0.034159981 0.73200011 8.8216096e-39
-0.0020914283 -0.034159981 0.73200011 9.8507975e-39
-0.00069615233 -0.034113325 0.73100001 1.0859552e-38
0.0006962159 -0.034113325 0.73100001 9.021404e-39
0.0020886231 -0.03411331 0.73100001 7.1642463e-39
0.003480969 -0.03411331 0.73100001 5.0523886e-39
0.0048733745 -0.03411331 0.73100001 2.9424325e-39
0.0062486101 -0.034019969 0.72900003 8.8544491e-39
0.0076371711 -0.034019999 0.72900003 1.475701e-38
0.0090257693 -0.034019969 0.72900003 1.4011541e-38
0.01044288 -0.034113325 0.73100001 1.3370792e-38
0.011835286 -0.03411331 0.73100001 1.0040266e-38
0.013227632 -0.034113325 0.73100001 6.7043906e-39
0.014620039 -0.034113325 0.73100001 4.8733966e-39
0.016012423 -0.03411331 0.73099995 3.1342829e-39
0.017404791 -0.034113325 0.73100001 4.2352522e-39
0.0187972 -0.034113325 0.73100001 5.4474819e-39
0.020134337 -0.034019969 0.72900003 1.171712e-38
0.021522874 -0.034019969 0.72900003 1.796578e-38
0.022911474 -0.034019984 0.72900003 1.6098836e-38
0.024300035 -0.034019984 0.72900003 1.4234887e-38
0.025688633 -0.034019969 0.72900003 1.4051241e-38
0.027077168 -0.034019984 0.72900003 1.3959454e-38
0.028465733 -0.034019984 0.72900009 1.5080539e-38
0.029936209 -0.03411331 0.73100001 1.6289478e-38
0.031542905 -0.034346633 0.73600006 1.60147e-38
0.032944795 -0.034346648 0.73600006 1.582708e-38
0.034346703 -0.034346648 0.73600012 1.5550136e-38
0.035748627 -0.034346633 0.73600006 1.5362166e-38
0.037150536 -0.034346633 0.73600006 1.5090969e-38
0.038604792 -0.034393333 0.73700011 1.4908364e-38
0.040117182 -0.034486659 0.73900002 1.4725399e-38
0.04152482 -0.034486644 0.73900002 1.454281e-38
0.042990502 -0.034533314 0.74000007 1.3255325e-38
0.044519994 -0.034626655 0.7420001 1.1969573e-38
0.046119075 -0.034766652 0.74500006 9.9398108e-39
0.04766573 -0.034859978 0.74700004 7.8236497e-39
0.049154304 -0.034906648 0.74800009 7.5502956e-39
0.050579075 -0.034906663 0.74800003 7.3684099e-39
0.052142877 -0.034999974 0.75000012 7.2765646e-39
0.053571459 -0.034999974 0.75000006 7.2762086e-39
0.054999996 -0.034999989 0.75000012 7.0014224e-39
0.056052383 -0.034766667 0.74500012 6.7269963e-39
-0.028154284 -0.03392949 0.75800002 9.0300766e-39
-0.026639979 -0.033839978 0.75600004 1.0866093e-38
-0.025199974 -0.033839978 0.75600004 1.0213224e-38
-0.023759993 -0.033839978 0.75600004 9.4702651e-39
-0.022201894 -0.033660926 0.75200009 9.6431517e-39
-0.020714285 -0.033571415 0.75000012 9.7349578e-39
-0.019234279 -0.033481888 0.74800003 1.0194106e-38
-0.017785713 -0.033437125 0.7470001 1.065328e-38
-0.016275235 -0.033258088 0.74300009 1.0928784e-38
-0.01483998 -0.03321331 0.74200004 1.1204293e-38
-0.013426668 -0.03321331 0.7420001 1.1112461e-38
-0.011964711 -0.033079036 0.73900002 1.1020627e-38
-0.010557096 -0.033079036 0.73900002 1.12043e-38
-0.0091247419 -0.032989509 0.73700011 1.1298643e-38
-0.0077104252 -0.032944746 0.73600006 1.2775899e-38
-0.0063171024 -0.032989509 0.73700005 1.4174298e-38
-0.004893288 -0.03285522 0.73400003 1.5009487e-38
-0.0034952089 -0.03285522 0.73400003 1.5842123e-38
-0.0020914134 -0.032765694 0.73200005 1.7242633e-38
-0.00069616165 -0.032720931 0.73100001 1.8606171e-38
0.0006962457 -0.032720931 0.73100001 1.6499691e-38
0.0020885915 -0.032720946 0.73100001 1.4264712e-38
0.0034809988 -0.032720946 0.73100001 7.8982142e-39
0.0048733838 -0.032720931 0.73100001 1.5720355e-39
0.0062657502 -0.032720946 0.73100001 6.926544e-39
0.0076581351 -0.032720931 0.73100001 1.2253345e-38
0.0090505034 -0.032720931 0.73100001 1.0964045e-38
0.010442911 -0.032720931 0.73100001 9.6668322e-39
0.011835258 -0.032720946 0.73100001 5.1485625e-39
0.013227664 -0.032720931 0.73100001 5.5570733e-40
0.014620047 -0.032720916 0.73100001 2.5829e-39
0.016012415 -0.032720931 0.73100001 4.507142e-39
0.017404823 -0.032720931 0.73100001 2.3884712e-39
0.018797169 -0.032720931 0.73100001 2.0346854e-40
0.020134326 -0.03263139 0.72900003 7.9463852e-39
0.021522887 -0.03263142 0.72900009 1.5562583e-38
0.022911485 -0.03263139 0.72900003 1.4994657e-38
0.024366712 -0.032720931 0.73100001 1.4425003e-38
0.02575908 -0.032720946 0.73100001 1.4143052e-38
0.027151486 -0.032720946 0.73100001 1.3873345e-38
0.028543832 -0.032720946 0.73100001 1.5084129e-38
0.030059071 -0.032855235 0.73400003 1.6194774e-38
0.031542882 -0.032944746 0.73600006 1.5921073e-38
0.032944828 -0.032944746 0.73600006 1.5644497e-38
0.034346715 -0.032944731 0.73600006 1.5553386e-38
0.03574862 -0.032944746 0.73600012 1.5368276e-38
0.03715051 -0.032944746 0.73600012 1.5187113e-38
0.038604777 -0.032989524 0.73700011 1.4910159e-38
0.040117189 -0.033079036 0.73900008 1.4633564e-38
0.041580979 -0.033123784 0.74000007 1.4356619e-38
0.043106671 -0.033213325 0.74200004 1.3160244e-38
0.044579986 -0.033258088 0.74300009 1.1872363e-38
0.046119049 -0.033347614 0.74500012 9.7522218e-39
0.047665726 -0.03343711 0.74700004 7.6410689e-39
0.049154308 -0.033481888 0.74800003 7.5499383e-39
0.05071428 -0.0335714 0.75000012 7.3676868e-39
0.052142862 -0.0335714 0.75000012 7.5513438e-39
0.053714331 -0.033660941 0.75200009 7.6435464e-39
0.05514672 -0.033660941 0.75200009 7.2762143e-39
-0.026710488 -0.032485701 0.75800008 1.1427482e-38
-0.025199972 -0.032399975 0.75600004 1.0491579e-38
-0.023759967 -0.032399975 0.75600004 9.560653e-39
-0.022231421 -0.032271422 0.75300008 9.6456572e-39
-0.020769501 -0.032228552 0.75200003 9.8267876e-39
-0.019285696 -0.03214284 0.75000012 1.0285936e-38
-0.017809538 -0.032057129 0.74800009 1.0745113e-38
-0.016319027 -0.031928547 0.74500006 1.0928784e-38
-0.014859979 -0.031842835 0.74300009 1.1204293e-38
-0.013444746 -0.031842835 0.74300009 1.1296132e-38
-0.011980917 -0.031714268 0.74000001 1.1296129e-38
-0.010557093 -0.031671412 0.73900002 1.1296126e-38
-0.0091494927 -0.031671427 0.73900008 1.1387962e-38
-0.007741875 -0.031671412 0.73900008 1.2785583e-38
-0.0063171154 -0.031585701 0.73700005 1.4189767e-38
-0.0049132854 -0.031585701 0.73700005 1.5297636e-38
-0.0034951903 -0.031457119 0.73400003 1.6417292e-38
-0.0020971149 -0.031457134 0.73400003 1.7519727e-38
-0.00069615419 -0.031328551 0.73100001 1.8619238e-38
0.00069621403 -0.031328551 0.73100007 1.7146277e-38
0.0020886213 -0.031328566 0.73100001 1.5762137e-38
0.0034810044 -0.031328551 0.73100001 8.2813404e-39
0.0048733745 -0.031328551 0.73100001 8.2691043e-40
0.0062657576 -0.031328551 0.73100001 4.6990975e-39
0.0076581258 -0.031328551 0.73100001 8.5590483e-39
0.0090505099 -0.031328551 0.73100001 7.3605122e-39
0.010442879 -0.031328551 0.73100001 6.2451963e-39
0.011835285 -0.031328566 0.73100001 3.4000714e-39
0.01322767 -0.031328566 0.73100001 4.6063343e-40
0.014620038 -0.031328566 0.73100001 1.7499317e-39
0.016012423 -0.031328551 0.73100001 3.034537e-39
0.017404791 -0.031328551 0.73100001 1.7463122e-39
0.018797198 -0.031328551 0.73100001 3.6770492e-40
0.020189542 -0.031328566 0.73100001 7.561726e-39
0.021522878 -0.031242825 0.72900003 1.4730633e-38
0.022911476 -0.031242825 0.72900003 1.4527588e-38
0.024366703 -0.031328566 0.73100001 1.4418533e-38
0.02575909 -0.031328551 0.73100001 1.4051191e-38
0.027151456 -0.031328566 0.73100001 1.3775759e-38
0.028543865 -0.031328566 0.73100001 1.5083771e-38
0.030059066 -0.031457134 0.73400003 1.6381675e-38
0.03154292 -0.03154283 0.73600006 1.5920714e-38
0.032944806 -0.03154283 0.73600006 1.5552312e-38
0.034346711 -0.031542845 0.73600012 1.546157e-38
0.035748597 -0.03154286 0.73600012 1.5370441e-38
0.037200991 -0.031585701 0.73700005 1.5095998e-38
0.038604762 -0.031585716 0.73700011 1.4819401e-38
0.040171444 -0.031714268 0.74000007 1.4634638e-38
0.041580986 -0.031714253 0.74000001 1.4354459e-38
0.043106664 -0.031799994 0.74200004 1.3067674e-38
0.044579983 -0.03184285 0.74300003 1.1780533e-38
0.046242896 -0.032014258 0.74700004 9.7565532e-39
0.047729544 -0.032057099 0.74800003 7.6425179e-39
0.049154278 -0.032057129 0.74800009 7.4595377e-39
0.050714266 -0.032142825 0.75000012 7.2758471e-39
0.05228195 -0.032228537 0.75200003 7.2761862e-39
0.053714339 -0.032228537 0.75200003 7.3683959e-39
0.055220019 -0.032271393 0.75300008 7.0017854e-39
-0.026639977 -0.030959971 0.75600004 1.1974216e-38
-0.025199972 -0.030959971 0.75600004 1.0764576e-38
-0.023759965 -0.030959971 0.75600004 9.5595768e-39
-0.022290478 -0.030919023 0.75500011 9.7349788e-39
-0.020769497 -0.030796178 0.75200003 9.918633e-39
-0.019285711 -0.030714266 0.75000012 1.0377795e-38
-0.017809533 -0.030632354 0.74800003 1.0745126e-38
-0.01631905 -0.030509509 0.74500012 1.1020621e-38
-0.014859979 -0.030427612 0.74300003 1.1204292e-38
-0.013444748 -0.030427612 0.74300003 1.1387964e-38
-0.012013316 -0.030386649 0.74200004 1.1571634e-38
-0.010571382 -0.030304722 0.74000001 1.1479797e-38
-0.0091494909 -0.030263789 0.73900008 1.1394063e-38
-0.0077209398 -0.030181877 0.73700011 1.2789175e-38
-0.0063171089 -0.030181877 0.73700011 1.4185088e-38
-0.0049133003 -0.030181877 0.73700011 1.5573827e-38
-0.0035047345 -0.030140929 0.73600012 1.6868541e-38
-0.0020970963 -0.030059032 0.73400003 1.7707308e-38
-0.00069616165 -0.029936202 0.73100001 1.8528073e-38
0.00069622148 -0.029936187 0.73100001 1.7887723e-38
0.0020886287 -0.029936187 0.73100001 1.7211748e-38
0.0034809969 -0.029936187 0.73100001 8.6375617e-39
0.0048733819 -0.029936172 0.73100001 9.4369044e-41
0.0062657502 -0.029936172 0.73100001 2.4839066e-39
0.0076371618 -0.02985426 0.72900003 4.7830114e-39
0.0090505015 -0.029936157 0.73100007 3.8574706e-39
0.01044291 -0.029936172 0.73100001 2.8472717e-39
0.011835294 -0.029936157 0.73100001 1.6534019e-39
0.013227662 -0.029936172 0.73100001 3.6879373e-40
0.014620046 -0.029936172 0.73100001 1.0127324e-39
0.016012415 -0.029936187 0.73100001 1.5633726e-39
0.017404798 -0.029936172 0.73100001 1.1023875e-39
0.018797167 -0.029936172 0.73100001 5.6106869e-40
0.020189574 -0.029936187 0.73100001 7.2019314e-39
0.021522889 -0.029854245 0.72900009 1.3805841e-38
0.022911463 -0.029854245 0.72900003 1.4058752e-38
0.024300028 -0.02985426 0.72900003 1.4328509e-38
0.025759079 -0.029936187 0.73100001 1.4051201e-38
0.027151484 -0.029936172 0.73100001 1.3694345e-38
0.028582875 -0.02997712 0.73200005 1.5093484e-38
0.030141007 -0.030140929 0.73600006 1.6474605e-38
