# .PCD v0.7 - Point Cloud Data file format
VERSION 0.7
FIELDS x y z rgb
SIZE 4 4 4 4
TYPE F F F F
COUNT 1 1 1 1
WIDTH 956
HEIGHT 1
VIEWPOINT 0 0 0 1 0 0 0
POINTS 956
DATA ascii
0.045879066 -0.069160953 0.7190001 6.1533944e-39
0.047314316 -0.06925714 0.72000003 6.9813278e-39
0.048820961 -0.069449514 0.72200006 7.8103584e-39
0.050265722 -0.069545731 0.72300005 8.3638825e-39
0.051642887 -0.069545731 0.72300011 9.006738e-39
0.053020027 -0.069545716 0.72300011 8.188475e-39
0.054547656 -0.06973809 0.72500002 7.3680511e-39
0.056005742 -0.069834292 0.72600007 7.0950516e-39
0.057388596 -0.069834292 0.72600007 6.9117477e-39
0.059257157 -0.070411429 0.73200005 7.003949e-39
0.061231427 -0.071084753 0.73900002 7.09616e-39
0.062639065 -0.071084753 0.73900002 7.3716819e-39
0.064133331 -0.07118094 0.74000001 7.7382854e-39
-0.024633344 -0.069677144 0.73900002 1.1441847e-38
-0.023131428 -0.06939429 0.73600006 1.5566157e-38
-0.021729538 -0.06939429 0.73600006 9.9576984e-39
-0.02032762 -0.069394305 0.73600006 4.3263156e-39
-0.018745704 -0.068734273 0.72900003 3.122767e-39
-0.017333301 -0.068640009 0.7280001 1.9314167e-39
-0.01590284 -0.068451419 0.72600001 1.2860571e-39
-0.014499968 -0.068357155 0.72500008 5.5680735e-40
-0.013082855 -0.068168566 0.72300005 8.0109599e-39
-0.011657103 -0.067885697 0.72000003 1.5465087e-38
-0.010271433 -0.067791432 0.71900004 1.7973013e-38
-0.0089019062 -0.067791417 0.71900004 2.0441408e-38
-0.0075114155 -0.067602828 0.71700007 2.0633645e-38
-0.0061457083 -0.067602843 0.71700001 2.0806562e-38
-0.0047800001 -0.067602843 0.71700001 1.6955937e-38
-0.0034095235 -0.067508578 0.71600002 1.3062569e-38
-0.0020399913 -0.067320004 0.71400011 6.6125159e-39
-0.00067712733 -0.06703715 0.71100008 1.8403953e-40
0.0006771498 -0.067037135 0.71100003 2.296263e-39
0.0020314567 -0.067037135 0.71100003 4.322385e-39
0.003380971 -0.066942856 0.71000004 6.5210573e-39
0.0047333539 -0.066942856 0.71000004 8.7387368e-39
0.006068565 -0.066754267 0.708 8.3584777e-39
0.0074171573 -0.066754282 0.708 7.9993809e-39
0.0087657217 -0.066754267 0.70799994 6.5206804e-39
0.01009999 -0.066660002 0.70700002 4.9695214e-39
0.011446657 -0.066659987 0.70700002 4.9594769e-39
0.012811445 -0.066754267 0.70799994 4.9702515e-39
0.014139999 -0.066659987 0.70700002 4.6839957e-39
0.015486665 -0.066659987 0.70700002 4.3209459e-39
0.016833335 -0.066659972 0.70700002 2.6635909e-39
0.018179977 -0.066659987 0.70700002 9.2162419e-40
0.019554298 -0.066754267 0.70799994 2.3895964e-39
0.020902863 -0.066754296 0.708 3.8661054e-39
0.022219986 -0.066659987 0.70700002 3.7656267e-39
0.023600021 -0.066754267 0.70799994 3.6741541e-39
0.024948586 -0.066754282 0.708 3.3982945e-39
0.026297152 -0.066754267 0.70799994 3.1227782e-39
0.027723826 -0.066942856 0.71000004 3.7656183e-39
0.028994309 -0.066754296 0.708 4.3166299e-39
0.030428594 -0.066942841 0.71000004 4.6839718e-39
0.031780984 -0.066942841 0.71000004 5.0520355e-39
0.033133335 -0.066942841 0.71000004 5.6941721e-39
0.034534279 -0.067037135 0.71100003 6.3370304e-39
0.035888586 -0.067037135 0.71100003 6.1533692e-39
0.037347626 -0.06722571 0.71300006 5.9704031e-39
0.038705755 -0.06722571 0.71300006 5.5104955e-39
0.040063825 -0.06722571 0.71300006 4.9594867e-39
0.04142192 -0.067225695 0.71300006 3.490123e-39
0.042840015 -0.067319989 0.71400011 2.0207677e-39
0.044385713 -0.067602843 0.71700001 1.2860963e-39
0.045879073 -0.067791447 0.7190001 5.5140114e-40
0.047314301 -0.067885727 0.72000003 2.2966245e-39
0.048820958 -0.068074271 0.72200012 4.0465408e-39
0.050265748 -0.068168581 0.72300011 5.6160147e-39
0.051642884 -0.068168566 0.72300005 7.1786376e-39
0.053020023 -0.068168566 0.72300005 7.1811347e-39
0.054547634 -0.068357125 0.72500002 7.0932509e-39
0.05600575 -0.068451434 0.72600007 6.8209786e-39
0.057309575 -0.068357155 0.72500008 6.5451218e-39
0.059823811 -0.069677144 0.73900002 6.7270061e-39
0.061314292 -0.069771409 0.74000001 6.8195689e-39
0.062723823 -0.069771409 0.74000001 7.0943691e-39
0.064133354 -0.069771424 0.74000001 7.3709336e-39
-0.024633354 -0.068269521 0.73900002 1.0051825e-38
-0.023068575 -0.067807615 0.73400003 1.4840834e-38
-0.021670474 -0.067807615 0.73400003 1.1700063e-38
-0.020217134 -0.067622855 0.73200005 8.5410641e-39
-0.018745705 -0.067345709 0.72900003 7.0831728e-39
-0.017357137 -0.067345709 0.72900003 5.6116524e-39
-0.015902853 -0.067068562 0.72600001 3.0334426e-39
-0.014499962 -0.066976175 0.72500002 3.6780722e-40
-0.013082828 -0.066791445 0.72300011 6.9129851e-39
-0.011689499 -0.066699043 0.72200012 1.337632e-38
-0.010285698 -0.066514269 0.72000003 1.5586881e-38
-0.0089019015 -0.066421911 0.71900004 1.7811297e-38
-0.0075323712 -0.066421911 0.7190001 1.7611397e-38
-0.0061628446 -0.066421911 0.71900004 1.7441734e-38
-0.0047933441 -0.066421896 0.71900004 1.4836277e-38
-0.0034000054 -0.065960005 0.71400005 1.2334029e-38
-0.0020400099 -0.06595999 0.71400005 6.6196905e-39
-0.00067901792 -0.065867618 0.71300006 1.010566e-39
0.00067714235 -0.065682828 0.71100003 4.6904584e-39
0.002031453 -0.065682843 0.71100003 8.3803828e-39
0.003385704 -0.065682858 0.71100003 1.2252183e-38
0.0047333445 -0.065590471 0.71000004 1.6126118e-38
0.0060685705 -0.065405697 0.70799994 1.5931666e-38
0.0074171387 -0.065405726 0.708 1.5739744e-38
0.008765731 -0.065405726 0.708 1.4918965e-38
0.010114294 -0.065405712 0.70799994 1.4183563e-38
0.011446662 -0.065313324 0.70700002 1.4185716e-38
0.012811454 -0.065405712 0.708 1.4186074e-38
0.014139973 -0.065313339 0.70700002 1.2982886e-38
0.015486671 -0.065313339 0.70700002 1.167997e-38
0.016857147 -0.065405697 0.70799994 1.094708e-38
0.018179981 -0.065313324 0.70700002 1.0203846e-38
0.019554308 -0.065405712 0.708 1.1135893e-38
0.02090287 -0.065405697 0.70799994 1.2153916e-38
0.022219989 -0.065313324 0.70700002 1.1137566e-38
0.023566658 -0.065313324 0.70700002 1.0102265e-38
0.024948567 -0.065405712 0.708 7.7145418e-39
0.026297161 -0.065405712 0.708 5.4186558e-39
0.027723815 -0.065590456 0.71000004 8.6454538e-39
0.029076202 -0.065590456 0.71000004 1.1847141e-38
0.030428583 -0.065590456 0.70999998 1.0389609e-38
0.031825747 -0.065682843 0.71100003 9.0002388e-39
0.033179995 -0.065682858 0.71100003 7.8982128e-39
0.034534276 -0.065682843 0.71099997 6.8880223e-39
0.035888579 -0.065682843 0.71100003 6.9866738e-39
0.037347633 -0.065867603 0.71300006 7.0716975e-39
0.038705733 -0.065867618 0.71300006 6.7111757e-39
0.040063828 -0.065867618 0.71300006 6.3370206e-39
0.041479997 -0.065960005 0.71400005 3.9493005e-39
0.042960007 -0.066144764 0.71600002 1.5619293e-39
0.044385713 -0.066237122 0.71700007 1.2860571e-39
0.045879047 -0.066421881 0.71900004 1.1023875e-39
0.047314312 -0.066514269 0.72000003 2.4809961e-39
0.048820946 -0.066699043 0.72200006 3.8603615e-39
0.050265748 -0.06679143 0.72300005 5.8018591e-39
0.051642884 -0.066791415 0.72300005 7.8290209e-39
0.053166684 -0.066976175 0.72500002 7.5516843e-39
0.054622885 -0.067068562 0.72600007 7.2779869e-39
0.056237154 -0.067345709 0.72900009 7.0042895e-39
0.057783842 -0.067530483 0.73100007 6.8224206e-39
0.059419043 -0.0678076 0.73400003 6.9124694e-39
0.061065733 -0.068084762 0.73700005 7.0035916e-39
0.062723823 -0.068361878 0.74000001 7.2791023e-39
0.064133354 -0.068361893 0.74000001 7.6464317e-39
-0.023068609 -0.066409513 0.73400003 1.4104062e-38
-0.021670507 -0.066409513 0.73400003 1.3460827e-38
-0.020217149 -0.066228569 0.73200005 1.2800384e-38
-0.01879712 -0.066138089 0.73100001 1.1057287e-38
-0.017333314 -0.065866679 0.72800004 9.2955232e-39
-0.015946643 -0.065866679 0.72800004 4.7758242e-39
-0.014499955 -0.065595239 0.72500002 1.8877032e-40
-0.013082832 -0.06541428 0.72300005 5.7129467e-39
-0.011705696 -0.065414265 0.72300005 1.124249e-38
-0.01027142 -0.06505239 0.71900004 1.3185787e-38
-0.0089018932 -0.065052375 0.71900004 1.5117153e-38
-0.0075114239 -0.064871415 0.71700001 1.4558199e-38
-0.0061457176 -0.064871401 0.71700001 1.3908528e-38
-0.0047799796 -0.064871415 0.71700001 1.2704615e-38
-0.0033999942 -0.064600006 0.71400005 1.1506762e-38
-0.0020400025 -0.064599976 0.71400005 6.6132473e-39
-0.00067904213 -0.064509511 0.71300006 1.7542435e-39
0.00067714049 -0.064328566 0.71100003 7.0746305e-39
0.0020314474 -0.064328566 0.71100003 1.2341926e-38
0.0033857003 -0.064328551 0.71100003 1.7889751e-38
0.0047400072 -0.064328551 0.71100003 2.3396672e-38
0.0060857479 -0.064238071 0.71000004 2.3410681e-38
0.0074485671 -0.064328551 0.71100003 2.3398133e-38
0.0088276193 -0.064509511 0.71300006 2.3415002e-38
0.010157155 -0.064328551 0.71100003 2.3402805e-38
0.011462869 -0.064057156 0.70799994 2.3413209e-38
0.012811435 -0.064057142 0.708 2.3399929e-38
0.014159996 -0.064057127 0.70799994 2.1289141e-38
0.015508592 -0.064057142 0.708 1.9061737e-38
0.016857157 -0.064057142 0.708 1.9240711e-38
0.018205723 -0.064057142 0.70799994 1.9426552e-38
0.019554289 -0.064057142 0.708 1.9980095e-38
0.02090288 -0.064057127 0.708 2.0448228e-38
0.022219995 -0.063966647 0.70700002 1.8528997e-38
0.02360001 -0.064057156 0.708 1.646695e-38
0.024948573 -0.064057127 0.70799994 1.203081e-38
0.026297143 -0.064057142 0.708 7.6421227e-39
0.027645733 -0.064057142 0.708 1.3549774e-38
0.028994296 -0.064057127 0.708 1.9424368e-38
0.030471431 -0.064328566 0.71100003 1.6211195e-38
0.03182574 -0.064328566 0.71100003 1.2881779e-38
0.033180017 -0.064328551 0.71100003 1.010266e-38
0.034534302 -0.064328551 0.71100003 7.3630359e-39
0.035888579 -0.064328551 0.71100003 7.7415126e-39
0.037242886 -0.064328566 0.71100003 8.1049071e-39
0.038705736 -0.064509526 0.71300006 7.9251794e-39
0.040063836 -0.064509526 0.71300006 7.7282087e-39
0.041480009 -0.064599991 0.71400005 4.408471e-39
0.042959999 -0.064780951 0.71600002 1.1031162e-39
0.044385705 -0.064871415 0.71700001 1.3779108e-39
0.045879055 -0.065052375 0.71900004 1.5615958e-39
0.047445726 -0.0653238 0.72200012 2.572159e-39
0.048820943 -0.0653238 0.72200012 3.5941988e-39
0.050265741 -0.065414295 0.72300005 5.9937711e-39
0.051785763 -0.065595239 0.72500002 8.3818345e-39
0.053166691 -0.065595239 0.72500002 7.9186928e-39
0.054773368 -0.065866664 0.72800004 7.3698336e-39
0.05639144 -0.066138089 0.73100007 7.1876003e-39
0.057862889 -0.066228569 0.73200005 7.0053741e-39
0.059419043 -0.066409513 0.73400003 7.0972194e-39
0.060982861 -0.066590488 0.73600006 7.0965061e-39
0.06238478 -0.066590473 0.73600006 7.5560479e-39
0.064046673 -0.066861898 0.73900002 7.92265e-39
-0.024566663 -0.065277115 0.73699999 8.0253933e-39
-0.023131415 -0.065188572 0.73600006 1.3834001e-38
-0.021729521 -0.065188587 0.73600006 1.3924773e-38
-0.020272383 -0.065011427 0.73400003 1.4101238e-38
-0.018822851 -0.064834267 0.73200005 1.1149199e-38
-0.017333318 -0.064480007 0.72800004 8.206818e-39
-0.015902858 -0.064302847 0.72600001 4.2330802e-39
-0.014499975 -0.064214274 0.72500002 2.7591146e-40
-0.013082836 -0.064037144 0.72300005 4.0512197e-39
-0.011657126 -0.063771427 0.72000003 7.9191048e-39
-0.010285703 -0.063771412 0.72000003 1.0966569e-38
-0.0089018866 -0.063682839 0.71900004 1.3994975e-38
-0.0075114258 -0.063505709 0.71700007 1.270209e-38
-0.0061457176 -0.063505694 0.71700001 1.1479859e-38
-0.0047800094 -0.063505694 0.71700001 1.2612705e-38
-0.0034095217 -0.063417137 0.71600002 1.373159e-38
-0.0020399932 -0.063239992 0.71400005 1.0228208e-38
-0.0006771441 -0.062974274 0.71100003 6.7363444e-39
0.00067713304 -0.062974274 0.71100003 6.4486774e-39
0.0020314418 -0.062974274 0.71100003 6.2887374e-39
0.0033856947 -0.062974274 0.71100003 1.0982088e-38
0.0047333539 -0.062885687 0.71000004 1.5771939e-38
0.0060857087 -0.062885702 0.71000004 1.6872944e-38
0.0074485894 -0.062974289 0.71100003 1.7986107e-38
0.0088028722 -0.062974289 0.71100003 1.918106e-38
0.010157151 -0.062974274 0.71100003 2.0384966e-38
0.01146288 -0.062708557 0.708 2.0472856e-38
0.012811443 -0.062708557 0.70799994 2.0568625e-38
0.014160013 -0.062708572 0.708 1.6968015e-38
0.015552394 -0.062885687 0.71000004 1.3476046e-38
0.016904783 -0.062885702 0.71000004 1.5209014e-38
0.018205734 -0.062708572 0.708 1.6985792e-38
0.019554297 -0.062708572 0.70799994 1.7984838e-38
0.020902863 -0.062708572 0.708 1.9006901e-38
0.022251427 -0.062708557 0.70799994 1.5116842e-38
0.02360002 -0.062708572 0.70799994 1.124637e-38
0.025019059 -0.062885702 0.71000004 1.0578661e-38
0.026371442 -0.062885717 0.71000004 1.0037783e-38
0.027723826 -0.062885687 0.71000004 1.5399846e-38
0.029076209 -0.062885702 0.71000004 2.0845031e-38
0.030471429 -0.062974274 0.71100003 1.825174e-38
0.031825732 -0.062974274 0.71100003 1.5754206e-38
0.033273377 -0.063151434 0.71300006 1.1511797e-38
0.034534294 -0.062974274 0.71100003 7.2916986e-39
0.035989515 -0.063151419 0.71300006 7.6544065e-39
0.037347645 -0.063151419 0.71300006 8.1200327e-39
0.038705714 -0.063151434 0.71300006 9.2152344e-39
0.040119998 -0.063239977 0.71400005 1.0221063e-38
0.041480016 -0.063239992 0.71400005 7.7306848e-39
0.042960018 -0.063417137 0.71600002 5.146036e-39
0.044385705 -0.063505694 0.71700001 4.0418745e-39
0.045879059 -0.063682839 0.71900004 2.9391591e-39
0.047445718 -0.063948572 0.72200012 5.4244852e-39
0.048888575 -0.064037129 0.72300005 7.9201697e-39
0.050404787 -0.064214274 0.72500002 9.2158944e-39
0.051785741 -0.064214259 0.72500002 1.0407603e-38
0.053166673 -0.064214274 0.72500002 8.5644349e-39
0.054622881 -0.064302862 0.72600007 6.6351622e-39
0.056391444 -0.064745724 0.73100007 6.4525562e-39
0.057862874 -0.064834267 0.73199999 6.2706901e-39
0.059580948 -0.065188572 0.73600006 6.6373258e-39
0.060982864 -0.065188572 0.73600006 7.0050322e-39
0.062639058 -0.065454304 0.73900002 7.2801855e-39
-0.02759712 -0.064393342 0.74300003 2.0218215e-39
-0.026040956 -0.064046681 0.73900002 9.2812201e-40
-0.024566652 -0.063873321 0.73700005 7.190948e-39
-0.02313141 -0.063786671 0.73600006 1.3457326e-38
-0.021759022 -0.063873321 0.73700005 1.4486213e-38
-0.020272387 -0.063613325 0.73400003 1.5382963e-38
-0.018822867 -0.063439995 0.73199999 1.1231273e-38
-0.017357137 -0.06318 0.72900009 6.9949722e-39
-0.015946625 -0.063093334 0.7280001 3.6737982e-39
-0.014499966 -0.062833339 0.72500008 2.7624778e-40
-0.013082839 -0.062659994 0.72300005 2.480664e-39
-0.011657142 -0.062399998 0.72000003 4.6090752e-39
-0.010285689 -0.062400013 0.72000003 8.7668357e-39
-0.0089142667 -0.062400013 0.72000003 1.2801132e-38
-0.0075323815 -0.062313333 0.71900004 1.0959033e-38
-0.0061457194 -0.062139988 0.71700001 9.1179941e-39
-0.0047800113 -0.062139973 0.71700001 1.2534538e-38
-0.0034095012 -0.062053338 0.71600008 1.5843501e-38
-0.0020400099 -0.061879992 0.71400005 1.3832105e-38
-0.00067903096 -0.061793357 0.71300006 1.1686504e-38
0.00067716098 -0.061619997 0.71100003 5.8778851e-39
0.0020314381 -0.061619982 0.71100003 1.1021913e-40
0.0033809878 -0.061533317 0.71000004 4.1617766e-39
0.0047333427 -0.061533302 0.71000004 8.1150595e-39
0.0060685705 -0.061359987 0.70799994 1.0322393e-38
0.0074171629 -0.061359987 0.708 1.2533653e-38
0.0088028647 -0.061619997 0.71100003 1.493791e-38
0.010142883 -0.061533317 0.71000004 1.7237395e-38
0.011495262 -0.061533317 0.71000004 1.7432198e-38
0.012811452 -0.061360002 0.708 1.7598626e-38
0.014160018 -0.061359987 0.708 1.2720919e-38
0.015552418 -0.061533317 0.71000004 7.8403126e-39
0.016904771 -0.061533302 0.71000004 1.1133065e-38
0.018205715 -0.061359987 0.708 1.4384274e-38
0.019554306 -0.061360002 0.708 1.5966302e-38
0.020902868 -0.061360002 0.70799994 1.7404427e-38
0.022251436 -0.061359987 0.708 1.1684765e-38
0.023666691 -0.061533317 0.71000004 5.893682e-39
0.024948591 -0.061360016 0.708 9.0920743e-39
0.026297159 -0.061360002 0.708 1.2345546e-38
0.027723819 -0.061533317 0.71000004 1.7349632e-38
0.029076198 -0.061533332 0.71000004 2.2220125e-38
0.03047142 -0.061619997 0.71100003 2.038053e-38
0.031825732 -0.061619997 0.71100003 1.8518281e-38
0.033273354 -0.061793342 0.71300006 1.2806834e-38
0.03463145 -0.061793327 0.71300006 7.0997585e-39
0.035989549 -0.061793327 0.71300006 7.6482604e-39
0.037399992 -0.061879978 0.71400005 8.1106721e-39
0.03876001 -0.061880007 0.71400005 1.0410154e-38
0.040120006 -0.061879992 0.71400005 1.2704601e-38
0.041480005 -0.061879992 0.71400011 1.0962949e-38
0.04296001 -0.062053323 0.71600002 9.2011808e-39
0.044385727 -0.062140003 0.71700001 6.7962051e-39
0.045942869 -0.062400013 0.72000003 4.3224368e-39
0.047445711 -0.062573314 0.72200006 8.2667515e-39
0.048888575 -0.062659994 0.72300005 1.2246886e-38
0.050404795 -0.062833324 0.72500008 1.2358092e-38
0.051785752 -0.062833324 0.72500002 1.2433741e-38
0.053166706 -0.062833339 0.72500002 9.2047471e-39
0.054622892 -0.062920004 0.72600007 5.8993811e-39
0.056622829 -0.063613325 0.73399997 5.7167821e-39
0.058020931 -0.06361334 0.73399997 5.5345614e-39
0.059580948 -0.063786656 0.73600006 6.2685433e-39
0.061065707 -0.063873321 0.73699999 6.9124722e-39
0.06263905 -0.064046651 0.73900002 7.0954299e-39
-0.027597137 -0.062978104 0.74300003 1.9314251e-39
-0.026076175 -0.062723815 0.74000001 9.1877956e-40
-0.024633327 -0.062639043 0.73900002 5.8051297e-39
-0.023225725 -0.062639043 0.73900002 1.0696157e-38
-0.021759039 -0.062469497 0.73699999 1.2171694e-38
-0.020327622 -0.062384754 0.73600006 1.3630887e-38
-0.018822853 -0.062045708 0.73200005 8.5589979e-39
-0.017404761 -0.06196095 0.73100001 3.5819445e-39
-0.01594663 -0.061706677 0.72800004 1.9292643e-39
-0.01449996 -0.061452389 0.72500002 2.7586802e-40
-0.013028528 -0.06102857 0.72000003 1.2871347e-39
-0.01165713 -0.061028555 0.72000003 2.3917432e-39
-0.010285709 -0.06102857 0.72000003 6.2664834e-39
-0.0089019006 -0.060943797 0.7190001 1.0136845e-38
-0.007532374 -0.060943797 0.71900004 9.3982103e-39
-0.006145725 -0.060774252 0.71700001 8.7528339e-39
-0.0047733225 -0.060689509 0.71600002 1.0498766e-38
-0.0034095068 -0.060689524 0.71600002 1.2255155e-38
-0.0020399988 -0.060519978 0.71400005 1.1050565e-38
-0.00067902537 -0.060435236 0.71300006 9.9215519e-39
0.00067715539 -0.060265705 0.71100003 5.0520341e-39
0.0020314343 -0.060265705 0.71100003 2.7588344e-40
0.0033857431 -0.060265705 0.71100003 2.2119734e-39
0.0047333632 -0.060180947 0.71000004 4.1330359e-39
0.0060685817 -0.060011417 0.708 5.2440806e-39
0.0074381046 -0.060180932 0.71000004 6.3371887e-39
0.0088028628 -0.060265705 0.71100003 7.4618639e-39
0.01014287 -0.060180932 0.71000004 8.6639972e-39
0.011495255 -0.060180932 0.71000004 8.756211e-39
0.012811434 -0.060011432 0.708 8.8365349e-39
0.014159998 -0.060011402 0.70799994 6.4459085e-39
0.015552379 -0.060180932 0.71000004 3.9494532e-39
0.016857155 -0.060011432 0.708 8.0077565e-39
0.018205721 -0.060011417 0.70799994 1.2074406e-38
0.019554287 -0.060011432 0.708 1.2437861e-38
0.020902878 -0.060011432 0.708 1.2765641e-38
0.022251444 -0.060011402 0.70799994 8.1791465e-39
0.023600008 -0.060011417 0.708 3.5819683e-39
0.024948575 -0.060011417 0.70799994 8.5546931e-39
0.026297141 -0.060011417 0.708 1.3452991e-38
0.027645731 -0.060011432 0.708 1.7615886e-38
0.028994298 -0.060011417 0.70799994 2.1764608e-38
0.030471418 -0.060265705 0.71100003 1.9638024e-38
0.031825725 -0.060265705 0.71100003 1.7601403e-38
0.033273358 -0.06043525 0.71300006 1.1883469e-38
0.034631457 -0.060435236 0.71300006 6.253492e-39
0.036040008 -0.060519993 0.71400005 6.9974708e-39
0.0374 -0.060519993 0.71400005 7.7332519e-39
0.038868561 -0.060689524 0.71600002 1.0313276e-38
0.040232405 -0.060689524 0.71600008 1.2979423e-38
0.041596193 -0.060689524 0.71600002 1.2429892e-38
0.042960003 -0.060689524 0.71600002 1.1970629e-38
0.044385698 -0.060774267 0.71700001 9.8400313e-39
0.045942903 -0.06102857 0.72000003 7.6443059e-39
0.047445733 -0.061198086 0.72200012 1.0133983e-38
0.048888598 -0.061282858 0.72300011 1.2636873e-38
0.050404802 -0.061452374 0.72500002 1.2539311e-38
0.05178573 -0.061452374 0.72500002 1.2345868e-38
0.053166687 -0.061452359 0.72500002 9.3012195e-39
0.054773375 -0.061706647 0.7280001 6.2649098e-39
0.056622826 -0.062215239 0.73400003 6.267781e-39
0.058020927 -0.062215209 0.73400003 6.2692356e-39
0.059580956 -0.062384769 0.73600006 6.6373146e-39
0.060982849 -0.062384754 0.73600006 7.0975711e-39
0.062639043 -0.062639058 0.73900008 7.1883332e-39
-0.026040943 -0.061231419 0.73900002 8.3050336e-40
-0.02456666 -0.061065689 0.73699999 4.4142653e-39
-0.023162846 -0.061065719 0.73700005 7.9263299e-39
-0.021729507 -0.060982853 0.73600006 9.8732463e-39
-0.020272369 -0.060817122 0.73400003 1.1781956e-38
-0.018822838 -0.060651436 0.73200005 5.9750484e-39
-0.017404752 -0.060568556 0.73100001 1.8582619e-40
-0.015946664 -0.06032002 0.72800004 2.7694562e-40
-0.014499983 -0.060071409 0.72500002 2.7659109e-40
-0.013082839 -0.059905708 0.72300005 1.8404234e-40
-0.011657122 -0.059657142 0.72000003 9.439707e-41
-0.010285669 -0.059657127 0.72000003 3.7703673e-39
-0.008901896 -0.059574291 0.7190001 7.3655849e-39
-0.0075323693 -0.059574276 0.71900004 7.9277213e-39
-0.0061457269 -0.05940856 0.71700001 8.3746809e-39
-0.0047800187 -0.059408545 0.71700001 8.5447004e-39
-0.0034095161 -0.05932571 0.71600002 8.6505475e-39
-0.0020399895 -0.059159994 0.71400005 8.3772145e-39
-0.00067904958 -0.059077144 0.71300006 8.0898334e-39
0.00067715166 -0.058911413 0.71100003 4.224814e-39
0.0020314287 -0.058911413 0.71100003 3.6808327e-40
0.0033857357 -0.058911413 0.71100003 2.7660931e-40
0.0047399886 -0.058911428 0.71100003 1.844347e-40
0.0060857367 -0.058828562 0.71000004 1.8409559e-40
0.0074485745 -0.058911413 0.71100003 9.2285313e-41
0.0088028554 -0.058911413 0.71100003 9.2310536e-41
0.010157164 -0.058911413 0.71100008 1.0021246e-40
0.011495247 -0.058828562 0.71000004 9.2330155e-41
0.012847658 -0.058828548 0.71000004 9.7336994e-41
0.014160009 -0.058662847 0.708 9.2297925e-41
0.0155524 -0.058828548 0.71000004 9.3714637e-41
0.016857162 -0.058662847 0.708 4.8738057e-39
0.01820573 -0.058662847 0.708 9.6697539e-39
0.019554293 -0.058662847 0.70799994 8.9448118e-39
0.020902863 -0.058662847 0.708 8.1827871e-39
0.022251423 -0.058662847 0.70799994 4.7758298e-39
0.023600016 -0.058662847 0.708 1.2886116e-39
0.024948584 -0.058662862 0.708 7.9086791e-39
0.026297146 -0.058662862 0.70799994 1.4554308e-38
0.027645713 -0.058662847 0.708 1.7987846e-38
0.029076183 -0.058828548 0.71000004 2.1289226e-38
0.030471412 -0.058911413 0.71100003 1.8988998e-38
0.031825718 -0.058911413 0.71100003 1.6580386e-38
0.033320002 -0.059159994 0.71400011 1.0964348e-38
0.034631461 -0.059077144 0.71300006 5.3437396e-39
0.036040019 -0.059159994 0.71400011 6.3550175e-39
0.03750477 -0.05932571 0.71600002 7.3677134e-39
0.038868584 -0.059325695 0.71600002 1.0313617e-38
0.040232398 -0.059325725 0.71600008 1.3164863e-38
0.041596211 -0.05932571 0.71600002 1.3989629e-38
0.043020014 -0.05940856 0.71700001 1.4721015e-38
0.044509556 -0.059574276 0.7190001 1.285733e-38
0.045942888 -0.059657142 0.72000003 1.0952881e-38
0.047445729 -0.059822872 0.72200012 1.1987884e-38
0.048888594 -0.059905708 0.72300005 1.3000958e-38
0.050404783 -0.060071409 0.72500002 1.2632554e-38
0.051785741 -0.060071424 0.72500008 1.2250796e-38
0.053166695 -0.060071424 0.72500002 9.3898376e-39
0.054773372 -0.06031999 0.72800004 6.542947e-39
0.056622848 -0.060817137 0.73400003 6.8195409e-39
0.058020949 -0.060817137 0.73400003 7.0042937e-39
0.059580963 -0.060982868 0.73600006 7.0972124e-39
0.060982853 -0.060982853 0.73600006 7.1890563e-39
-0.025970466 -0.059661895 0.73700005 2.6689803e-39
-0.02456665 -0.059661895 0.73700005 4.8787635e-39
-0.023131421 -0.059580952 0.73600006 7.1808307e-39
-0.021729501 -0.059580937 0.73600006 7.5521986e-39
-0.020272402 -0.059419021 0.73399997 7.9137196e-39
-0.018822854 -0.059257135 0.73199999 4.4142037e-39
-0.017357143 -0.059014276 0.72900003 1.0116296e-39
-0.01594664 -0.058933347 0.7280001 8.279614e-40
-0.01451998 -0.058771431 0.72600007 5.5246192e-40
-0.013082843 -0.058528557 0.72300005 5.5175146e-40
-0.011689511 -0.058447614 0.72200012 5.5139833e-40
-0.010285687 -0.058285698 0.72000003 2.2987895e-39
-0.0089142602 -0.058285713 0.72000009 3.9539892e-39
-0.007532361 -0.058204755 0.71900004 5.9811931e-39
-0.0061457045 -0.058042854 0.71700001 8.089441e-39
-0.0047799964 -0.058042854 0.71700001 8.8276885e-39
-0.0034142844 -0.058042869 0.71700007 9.5569999e-39
-0.0020457134 -0.057961896 0.71600002 8.0908675e-39
-0.00067901606 -0.057719052 0.71300006 6.6215108e-39
0.00067714608 -0.057557151 0.71100003 3.4926579e-39
0.0020314232 -0.057557121 0.71100003 2.7661351e-40
0.0033809599 -0.057476163 0.71000004 6.4466456e-40
0.0047333445 -0.057476178 0.71000004 1.0109205e-39
0.0060857274 -0.057476163 0.70999998 2.4799185e-39
0.0074486006 -0.057557136 0.71100003 3.9492865e-39
0.0088028517 -0.057557121 0.71100003 4.2326851e-39
0.010157162 -0.057557121 0.71100003 4.5921349e-39
0.011495266 -0.057476178 0.71000004 3.2146025e-39
0.012847619 -0.057476163 0.71000004 1.928907e-39
0.014200034 -0.057476178 0.71000004 3.4951326e-39
0.015552387 -0.057476178 0.71000004 5.0513138e-39
0.016904775 -0.057476178 0.71000004 6.9002192e-39
0.01820574 -0.057314277 0.708 8.7452333e-39
0.019554304 -0.057314277 0.708 6.6269703e-39
0.02090287 -0.057314277 0.708 4.5921882e-39
0.022314308 -0.057476178 0.71000004 2.6635895e-39
0.023666693 -0.057476178 0.71000004 8.2694266e-40
0.02501905 -0.057476163 0.71000004 6.6266325e-39
0.02637146 -0.057476178 0.71000004 1.2531424e-38
0.027723817 -0.057476178 0.71000004 1.5486359e-38
0.029117156 -0.057557136 0.71100003 1.851688e-38
0.03047144 -0.057557136 0.71100008 1.5569124e-38
0.031825718 -0.057557121 0.71100003 1.2705654e-38
0.033320013 -0.057799995 0.71400011 9.2979867e-39
0.034680001 -0.057799995 0.71400005 5.9758205e-39
0.036040027 -0.05779998 0.71400011 6.812079e-39
0.037504788 -0.057961881 0.71600002 7.6403585e-39
0.038922857 -0.058042839 0.71700001 1.0867123e-38
0.040288594 -0.058042839 0.71700001 1.4091443e-38
0.0416543 -0.058042824 0.71700001 1.3631941e-38
0.043019984 -0.058042839 0.71700001 1.3271003e-38
0.044571448 -0.058285713 0.72000003 1.0765561e-38
0.046070479 -0.058447614 0.72200012 8.2910724e-39
0.047445718 -0.058447599 0.72200006 1.0418043e-38
0.048888594 -0.058528572 0.72300005 1.2634307e-38
0.050404791 -0.058690473 0.72500002 1.1891387e-38
0.051857173 -0.058771417 0.72600007 1.1144458e-38
0.053166676 -0.058690473 0.72500002 8.9335412e-39
0.054773338 -0.058933333 0.72800004 6.635521e-39
0.056468591 -0.05925712 0.73200005 6.8202864e-39
0.058020946 -0.059419021 0.73400003 6.9121149e-39
0.059419047 -0.059419051 0.73400003 7.0046608e-39
0.060817145 -0.059419036 0.73400003 7.1887074e-39
-0.025970455 -0.058258086 0.73700005 4.5117929e-39
-0.024566639 -0.058258072 0.73700005 5.4340911e-39
-0.023131417 -0.058179051 0.73600006 6.3496183e-39
-0.021670507 -0.058020949 0.73400003 5.1482655e-39
-0.02021715 -0.057862848 0.73200005 3.9557941e-39
-0.018797122 -0.057783812 0.73100001 2.9394603e-39
-0.017357141 -0.057625711 0.72900003 1.8377931e-39
-0.015902823 -0.057388559 0.72600007 1.3782569e-39
-0.014519969 -0.057388559 0.72600001 8.279628e-40
-0.013119008 -0.057309523 0.72500008 9.1944237e-40
-0.01168952 -0.057072371 0.72200006 1.0112807e-39
-0.010285675 -0.056914285 0.72000003 8.2689501e-40
-0.0089142518 -0.056914285 0.72000003 5.5390386e-40
-0.0075323805 -0.056835234 0.7190001 4.1376448e-39
-0.0061457343 -0.056677133 0.71700001 7.7343127e-39
-0.0047799982 -0.056677133 0.71700001 9.1193968e-39
-0.00341429 -0.056677133 0.71700001 1.0395383e-38
-0.0020457208 -0.056598097 0.71600002 7.8078206e-39
-0.00067903841 -0.056360945 0.71300006 5.1456731e-39
0.00067714235 -0.056202844 0.71100003 2.6636091e-39
0.0020314492 -0.056202844 0.71100008 1.8512274e-40
0.0033857264 -0.056202859 0.71100003 1.0141491e-39
0.0047400091 -0.056202859 0.71100008 1.8392295e-39
0.0060942862 -0.056202844 0.71100003 4.7758087e-39
0.0074485932 -0.056202859 0.71100003 7.7350358e-39
0.0088028461 -0.056202844 0.71100003 8.4805266e-39
0.010157153 -0.056202859 0.71100003 9.1143605e-39
0.011511434 -0.056202859 0.71100003 6.4288449e-39
0.012847638 -0.056123793 0.71000004 3.6856392e-39
0.014199995 -0.056123778 0.71000004 6.8166766e-39
0.015552405 -0.056123793 0.71000004 9.942661e-39
0.016904762 -0.056123793 0.71000004 8.9303084e-39
0.018257171 -0.056123778 0.71000004 7.8250692e-39
0.019609559 -0.056123793 0.71000004 4.4085172e-39
0.020961914 -0.056123793 0.71000004 9.1874172e-40
0.022314303 -0.056123793 0.71000004 6.4320861e-40
0.023666682 -0.056123793 0.71000004 2.7697505e-40
0.02501907 -0.056123793 0.71000004 5.3304693e-39
0.026371423 -0.056123778 0.71000004 1.0404802e-38
0.027723838 -0.056123808 0.71000004 1.3092128e-38
0.029117152 -0.056202844 0.71100003 1.5652355e-38
0.030471431 -0.056202844 0.71100003 1.2248656e-38
0.031915274 -0.056360945 0.71300006 8.7448942e-39
0.033273343 -0.056360945 0.71300006 7.7292989e-39
0.034631472 -0.056360975 0.71300006 6.6283744e-39
0.036040008 -0.056439996 0.71400011 7.2773465e-39
0.037504781 -0.056598097 0.71600002 7.9223095e-39
0.038868565 -0.056598097 0.71600002 1.1514978e-38
0.040232383 -0.056598097 0.71600002 1.5006564e-38
0.041596193 -0.056598097 0.71600002 1.3358591e-38
0.043020006 -0.056677133 0.71700001 1.1689019e-38
0.044695254 -0.057072371 0.72200012 8.6429931e-39
0.046070497 -0.057072386 0.72200012 5.5288483e-39
0.047511455 -0.057151422 0.72300005 8.8500055e-39
0.049023837 -0.057309508 0.72500002 1.216256e-38
0.050404768 -0.057309523 0.72500002 1.1154183e-38
0.051857159 -0.057388574 0.72600007 1.0040627e-38
0.05316671 -0.057309508 0.72500002 8.381082e-39
0.054773387 -0.057546675 0.7280001 6.7284201e-39
0.056391437 -0.057783812 0.73100001 6.8217101e-39
0.057783823 -0.057783797 0.73100001 6.8209856e-39
0.059419043 -0.058020934 0.73400003 7.0042909e-39
0.060817145 -0.058020934 0.73400003 7.096139e-39
-0.023131438 -0.056777149 0.73600006 6.5325438e-39
-0.021670485 -0.056622848 0.73400003 6.1644871e-39
-0.020272411 -0.056622848 0.73400003 5.7910383e-39
-0.018797141 -0.056391433 0.73100001 3.4000784e-39
-0.017357145 -0.056237131 0.72900009 1.0112765e-39
-0.015946653 -0.056160003 0.72800004 1.0119897e-39
-0.014519986 -0.056005716 0.72600007 1.0127058e-39
-0.013119029 -0.055928573 0.72500002 1.5633572e-39
-0.011689526 -0.055697143 0.72200012 2.205847e-39
-0.01028569 -0.055542871 0.72000003 1.6541165e-39
-0.0089142676 -0.055542856 0.72000003 1.1023861e-39
-0.0075323749 -0.055465698 0.7190001 5.4369498e-39
-0.0061457101 -0.055311412 0.71700001 9.8655602e-39
-0.0047799982 -0.055311427 0.71700007 1.0505955e-38
-0.0034142919 -0.055311427 0.71700001 1.1148746e-38
-0.0020457283 -0.055234283 0.71600002 9.479864e-39
-0.00067711429 -0.054848567 0.71100003 7.8063773e-39
0.00067713676 -0.054848567 0.71100003 4.3166285e-39
0.0020314436 -0.054848582 0.71100003 7.350441e-40
0.0033857226 -0.054848567 0.71100003 1.196374e-39
0.0047400054 -0.054848567 0.71100003 1.5655124e-39
0.0060942844 -0.054848552 0.71100003 7.1886457e-39
0.0074695311 -0.055002853 0.71300006 1.2815452e-38
0.0088028666 -0.054848552 0.71100003 1.3089251e-38
0.010157151 -0.054848567 0.71100003 1.3374354e-38
0.01151143 -0.054848567 0.71100003 1.0321809e-38
0.012865735 -0.054848552 0.71100003 7.1904744e-39
0.01421999 -0.054848567 0.71100003 9.9531133e-39
0.015574295 -0.054848552 0.71100003 1.2634979e-38
0.016904781 -0.054771408 0.71000004 1.2717467e-38
0.018257169 -0.054771423 0.71000004 1.2798161e-38
0.019609548 -0.054771408 0.71000004 9.4773529e-39
0.020961933 -0.054771408 0.71000004 6.2451739e-39
0.022345724 -0.054848552 0.71100003 3.5819445e-39
0.023700001 -0.054848567 0.71100003 1.0105506e-39
0.02505431 -0.054848567 0.71100003 3.861397e-39
0.026408562 -0.054848552 0.71100003 6.6244227e-39
0.027762869 -0.054848552 0.71100003 8.1017514e-39
0.029117148 -0.054848552 0.71100003 9.5674914e-39
0.030471455 -0.054848567 0.71100003 8.2781651e-39
0.031915251 -0.055002853 0.71300006 6.8880994e-39
0.03327335 -0.055002838 0.71300006 6.9013935e-39
0.03463145 -0.055002868 0.71300006 6.9089241e-39
0.035989545 -0.055002853 0.71300006 7.4606504e-39
0.03755714 -0.055311412 0.71700001 8.011264e-39
0.038922876 -0.055311427 0.71700001 1.0128819e-38
0.04028856 -0.055311412 0.71700001 1.2337231e-38
0.041654266 -0.055311397 0.71700001 1.0489812e-38
0.04320002 -0.055542856 0.72000003 8.6358759e-39
0.044695247 -0.055697128 0.72200006 6.1588217e-39
0.046134312 -0.055774271 0.72300005 3.6785234e-39
0.047511451 -0.055774286 0.72300011 6.0809305e-39
0.049023848 -0.055928558 0.72500008 8.3893987e-39
0.050404802 -0.055928558 0.72500002 8.202523e-39
0.05185717 -0.056005716 0.72600007 8.0130618e-39
0.05324002 -0.056005716 0.72600001 7.4623571e-39
0.054773357 -0.056160003 0.7280001 6.9120798e-39
0.056237176 -0.056237146 0.72900009 6.9128155e-39
0.057783827 -0.056391433 0.73100001 6.820973e-39
0.059176214 -0.056391418 0.73100001 7.0042783e-39
0.060651436 -0.056468576 0.73200005 7.0957648e-39
-0.02021715 -0.055074289 0.73199999 7.542751e-39
-0.018797103 -0.054999053 0.73100007 3.8585426e-39
-0.017357143 -0.054848552 0.72900009 1.8511853e-40
-0.015946656 -0.054773331 0.72800004 6.4536941e-40
-0.014519973 -0.054622859 0.72600001 1.1056273e-39
-0.013119048 -0.054547608 0.72500002 2.2076589e-39
-0.011705711 -0.054397136 0.72300005 3.3096848e-39
-0.010314289 -0.0543219 0.72200012 2.4813717e-39
-0.0089142574 -0.054171413 0.72000003 1.5705417e-39
-0.0075323675 -0.054096192 0.7190001 6.8256029e-39
-0.006145712 -0.05394569 0.71700001 1.1972412e-38
-0.0047800038 -0.053945705 0.71700001 1.189034e-38
-0.0034142677 -0.053945705 0.71700001 1.1798825e-38
-0.0020456798 -0.053870469 0.71600002 1.1156656e-38
-0.00068287732 -0.05394569 0.71700001 1.0490092e-38
0.00068286067 -0.05394569 0.71700001 5.8778319e-39
0.0020371713 -0.053644776 0.71300006 1.2864158e-39
0.003385717 -0.053494275 0.71100003 1.2867745e-39
0.0047399998 -0.05349429 0.71100003 1.3015386e-39
0.0061114393 -0.053644747 0.71300006 9.5976389e-39
0.0074695349 -0.053644747 0.71300006 1.7777841e-38
0.008827636 -0.053644761 0.71300006 1.768603e-38
0.010185707 -0.053644761 0.71300006 1.7598462e-38
0.011543833 -0.053644761 0.71300006 1.4201946e-38
0.012865731 -0.053494275 0.71100003 1.0690318e-38
0.01422001 -0.053494275 0.71100008 1.2986569e-38
0.015574291 -0.053494275 0.71100003 1.5296472e-38
0.016928596 -0.053494275 0.71100003 1.6506501e-38
0.018282849 -0.05349426 0.71100003 1.7679181e-38
0.019609541 -0.053419039 0.71000004 1.46407e-38
0.020991435 -0.053494275 0.71100003 1.1504606e-38
0.02234572 -0.053494275 0.71100003 6.6125159e-39
0.023699997 -0.053494275 0.71100003 1.7516917e-39
0.025054306 -0.053494275 0.71100003 2.2962475e-39
0.026408583 -0.053494275 0.71099997 2.8508857e-39
0.027762866 -0.053494275 0.71100003 3.2146768e-39
0.029117143 -0.053494275 0.71099997 3.494488e-39
0.030471426 -0.05349429 0.71100003 4.3170629e-39
0.031915255 -0.053644747 0.71300006 5.0596403e-39
0.033273358 -0.053644761 0.71300006 6.0784432e-39
0.034631453 -0.053644747 0.71300006 7.0911504e-39
0.035989553 -0.053644776 0.71300006 7.5532019e-39
0.037557136 -0.05394569 0.71700001 8.0094801e-39
0.038922843 -0.053945705 0.71700001 8.8359701e-39
0.040288582 -0.053945705 0.71700001 9.5710479e-39
0.041654292 -0.05394569 0.71700001 7.6278281e-39
0.043200005 -0.054171413 0.72000003 5.6099527e-39
0.044757146 -0.054397121 0.72300005 3.7696498e-39
0.046134315 -0.054397136 0.72300011 1.8425085e-39
0.047511451 -0.054397151 0.72300005 3.2218052e-39
0.049023826 -0.054547608 0.72500002 4.6083255e-39
0.050474301 -0.054622859 0.72600007 5.2537062e-39
0.051857155 -0.054622844 0.72600007 5.8986818e-39
0.053386707 -0.054773346 0.72800004 6.5433001e-39
0.054848578 -0.054848582 0.72900003 7.0957592e-39
0.056237176 -0.054848582 0.72900009 7.0039336e-39
0.057783809 -0.054999039 0.73100001 6.8202584e-39
0.059176195 -0.054999039 0.73100001 7.0042825e-39
0.060568582 -0.054999053 0.73100001 7.0961222e-39
-0.021611419 -0.053679973 0.73200005 6.9067857e-39
-0.020217136 -0.053680003 0.73200005 7.4584713e-39
-0.01879712 -0.053606674 0.73100007 5.3358054e-39
-0.017357118 -0.053459987 0.72900009 3.3064534e-39
-0.01596855 -0.053459987 0.72900009 3.5876954e-39
-0.014519987 -0.053240001 0.72600001 3.9539738e-39
-0.013119011 -0.053166643 0.72500002 4.4174673e-39
-0.011738082 -0.053166673 0.72500002 4.8737763e-39
-0.010314268 -0.052946672 0.72200012 2.8505255e-39
-0.0089390278 -0.052946672 0.72200012 8.3156134e-40
-0.0075323638 -0.052726671 0.7190001 3.7803235e-39
-0.0061628371 -0.052726671 0.71900004 6.8188809e-39
-0.0047933366 -0.052726671 0.71900004 7.6530276e-39
-0.0034142993 -0.052579984 0.71700001 8.591096e-39
-0.0020485632 -0.052579984 0.71700001 9.4986708e-39
-0.00068190316 -0.05250667 0.71600002 1.0506992e-38
0.00068285322 -0.052579984 0.71700001 7.9161494e-39
0.0020371731 -0.052286685 0.71300006 5.3268189e-39
0.0033952445 -0.05228667 0.71300006 3.0338014e-39
0.0047533456 -0.05228667 0.71300006 7.4627271e-40
0.0061114412 -0.052286655 0.71300006 7.2907359e-39
0.0074695405 -0.05228667 0.71300006 1.3930479e-38
0.0088276397 -0.05228667 0.71300006 1.5305105e-38
0.010185737 -0.05228667 0.71300006 1.6774847e-38
0.011543809 -0.05228667 0.71300006 1.1801754e-38
0.012901936 -0.052286655 0.71300006 6.9129164e-39
0.014220009 -0.052139997 0.71100003 8.6602697e-39
0.015574288 -0.052140012 0.71100003 1.0517139e-38
0.016928595 -0.052140012 0.71100003 1.4106684e-38
0.018282847 -0.052139997 0.71100003 1.7679289e-38
0.019637153 -0.052139997 0.71100003 1.6311071e-38
0.020991433 -0.052139983 0.71100003 1.4937731e-38
0.022345712 -0.052139997 0.71100003 1.1331641e-38
0.023699991 -0.052139997 0.71100003 7.7400118e-39
0.025054298 -0.052139997 0.71100003 4.97275e-39
0.026408551 -0.052139983 0.71100003 2.299123e-39
0.027762862 -0.052139983 0.71100003 2.0214697e-39
0.029117167 -0.052140012 0.71100003 1.8371233e-39
0.030471446 -0.052139997 0.71100003 3.1268083e-39
0.031825725 -0.052140012 0.71100003 4.5154447e-39
0.033273362 -0.05228667 0.71300006 5.5270533e-39
0.034631427 -0.052286655 0.71300006 6.5386927e-39
0.03598953 -0.052286685 0.71300006 6.9982415e-39
0.037557159 -0.052579984 0.71700001 7.546009e-39
0.038922869 -0.052579984 0.71700001 8.6533978e-39
0.040288549 -0.052579984 0.71700001 9.8497858e-39
0.041654289 -0.052579999 0.71700001 8.6505573e-39
0.043319996 -0.052946657 0.72200006 7.5496034e-39
0.044757172 -0.053019986 0.72300011 5.0599949e-39
0.046261922 -0.053166658 0.72500002 2.5771714e-39
0.047642875 -0.053166658 0.72500002 3.6805959e-39
0.049091462 -0.053240001 0.72600007 4.7819198e-39
0.050474312 -0.053239986 0.72600007 5.3415578e-39
0.052000027 -0.053386673 0.72800004 5.8972371e-39
0.053386699 -0.053386673 0.72800004 6.3589271e-39
0.054848578 -0.053460002 0.72900003 6.9131714e-39
0.056391433 -0.053606659 0.73100001 6.8202626e-39
0.05778382 -0.053606674 0.73100001 6.7273481e-39
0.059176207 -0.053606674 0.73100001 6.9124512e-39
-0.021611404 -0.052285701 0.73200005 6.7202084e-39
-0.020217121 -0.052285701 0.73200005 7.3637548e-39
-0.018797113 -0.052214295 0.73100007 6.9027654e-39
-0.017357117 -0.052071422 0.72900009 6.3492511e-39
-0.015946642 -0.052000001 0.7280001 6.5368794e-39
-0.014519976 -0.051857129 0.72600001 6.7208895e-39
-0.013137124 -0.051857144 0.72600001 6.634058e-39
-0.011738047 -0.051785707 0.72500008 6.4403579e-39
-0.010328549 -0.051642865 0.72300005 3.3075646e-39
-0.0089514107 -0.05164285 0.72300005 9.4014515e-41
-0.0075742444 -0.051642865 0.72300011 8.2831453e-40
-0.0061628539 -0.051357135 0.7190001 1.5695047e-39
-0.0047933273 -0.051357135 0.71900004 3.4030351e-39
-0.0034142751 -0.051214263 0.71700001 5.2548104e-39
-0.002048593 -0.051214278 0.71700001 7.8312265e-39
-0.00067999208 -0.050999984 0.71400005 1.0407598e-38
0.0006790795 -0.050928593 0.71300006 9.952323e-39
0.0020371526 -0.050928578 0.71300006 9.3826517e-39
0.0033999924 -0.050999984 0.71400005 4.7758059e-39
0.0047600139 -0.050999984 0.71400011 1.0014239e-40
0.0061200056 -0.050999984 0.71400005 5.0711506e-39
0.0074800309 -0.050999984 0.71400005 1.0048218e-38
0.0088276453 -0.050928578 0.71300006 1.3012438e-38
0.010185715 -0.050928578 0.71300006 1.5841032e-38
0.011543844 -0.050928578 0.71300006 9.5000665e-39
0.012901915 -0.050928563 0.71300006 3.1393528e-39
0.014260009 -0.050928548 0.71300006 4.4085186e-39
0.01561811 -0.050928578 0.71300006 5.6304481e-39
0.016976183 -0.050928563 0.71300006 1.1632127e-38
0.018282844 -0.050785691 0.71100003 1.7597861e-38
0.019637151 -0.050785691 0.71100003 1.7985666e-38
0.02099143 -0.050785705 0.71099997 1.8334621e-38
0.022408575 -0.050928563 0.71300006 1.6036133e-38
0.023766676 -0.050928563 0.71300006 1.362362e-38
0.025124773 -0.050928563 0.71300006 7.6474603e-39
0.026408605 -0.050785705 0.71100003 1.6602178e-39
0.027762854 -0.050785705 0.71100003 9.187207e-40
0.029117163 -0.05078572 0.71100003 9.2595e-41
0.03047144 -0.050785705 0.71100003 2.0208167e-39
0.031825725 -0.050785705 0.71100003 3.8654033e-39
0.033180002 -0.050785691 0.71100003 4.8831132e-39
0.040400952 -0.051357135 0.7190001 1.003489e-38
0.041770481 -0.051357135 0.71900004 9.7590447e-39
0.043200023 -0.051428586 0.72000003 9.4774201e-39
0.044757169 -0.051642835 0.72300005 6.3427981e-39
0.046261933 -0.051785722 0.72500008 3.2210933e-39
0.047642887 -0.051785707 0.72500002 4.0493896e-39
0.049091443 -0.051857144 0.72600007 4.8780727e-39
0.050474301 -0.051857159 0.72600007 5.3408473e-39
0.052000023 -0.052000001 0.72800004 5.803968e-39
0.053460009 -0.052071422 0.72900009 6.2652951e-39
0.054848578 -0.052071422 0.72900009 6.7273509e-39
0.05639144 -0.052214295 0.73100001 6.6362412e-39
0.057783827 -0.052214295 0.73100001 6.5451274e-39
0.059176188 -0.052214295 0.73100001 6.822073e-39
-0.018822854 -0.050891429 0.73199999 8.2824671e-39
-0.017404744 -0.050821915 0.73100007 9.0178923e-39
-0.015946647 -0.050613344 0.72800004 9.2112729e-39
-0.014559977 -0.050613329 0.72800004 9.4824256e-39
-0.013137138 -0.050474271 0.72600001 8.1016141e-39
-0.011738067 -0.050404742 0.72500002 6.7216027e-39
-0.010357112 -0.050404742 0.72500002 4.8755966e-39
-0.0089513846 -0.050265715 0.72300011 3.0309637e-39
-0.0075428262 -0.050057128 0.72000003 3.7695615e-39
-0.0061714016 -0.050057143 0.72000003 4.5031735e-39
-0.0047933236 -0.049987614 0.71900004 5.5176716e-39
-0.003423823 -0.049987614 0.71900004 6.6125397e-39
-0.0020542666 -0.049987614 0.7190001 6.0733803e-39
-0.00067998091 -0.049639985 0.71400005 5.6249536e-39
0.00067998475 -0.049639985 0.71400005 6.9109966e-39
0.0020400081 -0.049639985 0.71400011 8.2913919e-39
0.0033999998 -0.04964 0.71400005 4.3238031e-39
0.0047600251 -0.04964 0.71400011 3.6770212e-40
0.0061200168 -0.04964 0.71400005 4.1390559e-39
0.0074799843 -0.049639985 0.71400005 7.9032981e-39
0.0088276491 -0.049570486 0.71300006 1.132244e-38
0.01018572 -0.049570486 0.71300006 1.480139e-38
0.011543822 -0.049570471 0.71300006 1.1780468e-38
0.012901915 -0.049570456 0.71300006 8.8165944e-39
0.014260018 -0.049570471 0.71300006 8.9206002e-39
0.015618116 -0.049570471 0.71300006 9.0042885e-39
0.016976213 -0.049570486 0.71300006 8.9351555e-39
0.018334284 -0.049570471 0.71300006 8.8591448e-39
0.019692414 -0.049570456 0.71300006 1.0969249e-38
0.021050481 -0.049570456 0.71300006 1.2990997e-38
0.022408608 -0.049570486 0.71300006 1.2067192e-38
0.02376668 -0.049570486 0.71300006 1.1223379e-38
0.025124779 -0.049570486 0.71300006 6.3481315e-39
0.026482876 -0.049570471 0.71300006 1.4697295e-39
0.027840978 -0.049570471 0.71300006 2.8501304e-39
0.029199071 -0.049570471 0.71300006 4.2262559e-39
0.030557174 -0.049570486 0.71300006 4.5064539e-39
0.031915244 -0.049570471 0.71300006 4.7765668e-39
0.033273369 -0.049570486 0.71300006 5.3401214e-39
0.040738139 -0.050404757 0.72500008 1.0129236e-38
0.042119093 -0.050404757 0.72500002 1.0129618e-38
0.043500021 -0.050404742 0.72500002 1.0125999e-38
0.044880979 -0.050404742 0.72500002 6.1637668e-39
0.046261933 -0.050404742 0.72500002 2.2108987e-39
0.047708604 -0.050474271 0.72600007 3.4072754e-39
0.049091455 -0.050474286 0.72600007 4.605806e-39
0.050613374 -0.050613359 0.7280001 5.3415718e-39
0.052000046 -0.050613344 0.7280001 6.0791172e-39
0.053460009 -0.050682843 0.72900009 6.4493206e-39
0.054848578 -0.050682843 0.72900009 6.7273537e-39
0.056391422 -0.050821915 0.73100001 6.7280851e-39
0.057783809 -0.0508219 0.73100001 6.7288138e-39
0.059176195 -0.050821885 0.73100001 6.912496e-39
-0.018822841 -0.049497142 0.73200005 9.6625022e-39
-0.017404735 -0.049429521 0.73100007 1.1604333e-38
-0.015946655 -0.049226671 0.72800004 1.1899583e-38
-0.014559984 -0.049226671 0.72800004 1.2149944e-38
-0.013137127 -0.049091414 0.72600001 9.5688324e-39
-0.011738059 -0.049023807 0.72500008 6.9956771e-39
-0.010357102 -0.049023792 0.72500002 6.5336634e-39
-0.0089514134 -0.048888564 0.72300005 5.9797497e-39
-0.007542843 -0.048685715 0.72000003 6.7154791e-39
-0.0061714202 -0.0486857 0.72000003 7.3619135e-39
-0.0047933161 -0.048618078 0.71900004 7.7357126e-39
-0.0034238156 -0.048618093 0.71900004 8.0040515e-39
-0.0020542592 -0.048618108 0.7190001 4.4088423e-39
-0.00067999767 -0.048280001 0.71400011 7.4332017e-40
0.00067999592 -0.048280001 0.71400005 3.9582856e-39
0.0020400193 -0.048279986 0.71400011 7.0821176e-39
0.003400011 -0.048279986 0.71400005 3.8606908e-39
0.0047599785 -0.048279971 0.71400005 5.5210038e-40
0.00612 -0.048279986 0.71400005 3.2146109e-39
0.0074799936 -0.048280001 0.71400005 5.805431e-39
0.0088276286 -0.048212379 0.71300006 9.7562042e-39
0.010185728 -0.048212379 0.71300006 1.3720563e-38
0.011608576 -0.04848285 0.71700007 1.4187281e-38
0.012956176 -0.048415244 0.71600002 1.4550663e-38
0.014320018 -0.048415244 0.71600002 1.3453286e-38
0.015683804 -0.048415229 0.71600002 1.2334781e-38
0.016976191 -0.048212379 0.71300006 6.2453196e-39
0.01833432 -0.048212379 0.71300006 1.0635435e-40
0.019692391 -0.048212379 0.71300006 3.8576415e-39
0.021050515 -0.048212379 0.71300006 7.6540828e-39
0.022408588 -0.048212379 0.71300006 8.2014846e-39
0.023766689 -0.048212394 0.71300012 8.7474039e-39
0.025124783 -0.048212379 0.71300006 5.0513138e-39
0.026482854 -0.048212379 0.71300006 1.2885696e-39
0.027840983 -0.048212364 0.71300006 4.786212e-39
0.029199051 -0.048212364 0.71300006 8.2781258e-39
0.030557152 -0.048212394 0.71300006 7.0017699e-39
0.031915251 -0.048212379 0.71300006 5.7096242e-39
0.03327335 -0.048212394 0.71300006 5.8036219e-39
0.040738117 -0.049023792 0.72500002 1.0225025e-38
0.042119075 -0.049023807 0.72500002 1.0503782e-38
0.043500002 -0.049023792 0.72500002 1.0676302e-38
0.044880986 -0.049023807 0.72500008 5.9754449e-39
0.046325736 -0.049091429 0.72600007 1.1996446e-39
0.04770859 -0.049091429 0.72600007 2.7626473e-39
0.049226698 -0.049226657 0.7280001 4.2359641e-39
0.050682873 -0.049294293 0.72900009 5.340504e-39
0.052071441 -0.049294293 0.72900009 6.3557083e-39
0.053460013 -0.049294278 0.72900009 6.541882e-39
0.054999076 -0.049429536 0.73100007 6.7277166e-39
0.056391433 -0.049429521 0.73100001 6.8199234e-39
0.05778385 -0.049429521 0.73100007 6.9121219e-39
-0.018822826 -0.048102871 0.73200005 9.945891e-39
-0.017428575 -0.048102841 0.73199999 1.1244864e-38
-0.01596858 -0.047905713 0.72900003 1.1883768e-38
-0.014559958 -0.047840014 0.7280001 1.2413957e-38
-0.013137139 -0.047708556 0.72600001 1.0580818e-38
-0.011754258 -0.047708571 0.72600007 8.831315e-39
-0.010357123 -0.047642842 0.72500002 8.8363723e-39
-0.0089514153 -0.047511429 0.72300005 8.9238736e-39
-0.0075637847 -0.0474457 0.72200012 9.2976419e-39
-0.0061885696 -0.0474457 0.72200012 9.7586075e-39
-0.0047999844 -0.047314256 0.72000003 9.9469364e-39
-0.00342381 -0.047248557 0.71900004 1.0137063e-38
-0.0020542834 -0.047248542 0.71900004 7.3651364e-39
-0.00067998649 -0.046919987 0.71400011 4.5925161e-39
0.00068000524 -0.046919972 0.71400005 4.9627504e-39
0.0020399969 -0.046919972 0.71400005 5.4215579e-39
0.0033999961 -0.046919987 0.71400005 4.7772633e-39
0.0047599878 -0.046919987 0.71400005 4.1329771e-39
0.0061200112 -0.046920002 0.71400005 8.2017172e-39
0.0074800029 -0.046920002 0.71400005 1.2265842e-38
0.0088400003 -0.046919987 0.71400011 1.3826014e-38
0.010185732 -0.046854287 0.71300006 1.5403052e-38
0.011608569 -0.047117129 0.71700001 1.5398078e-38
0.012956196 -0.047051415 0.71600002 1.5499958e-38
0.014320012 -0.047051415 0.71600002 1.475487e-38
0.015705694 -0.047117129 0.71700001 1.4024432e-38
0.017047636 -0.04705143 0.71600008 1.0683855e-38
0.018334297 -0.046854272 0.71300006 7.2690858e-39
0.019692395 -0.046854272 0.71300006 1.0320109e-38
0.021050494 -0.046854272 0.71300006 1.3371867e-38
0.022408592 -0.046854287 0.71300006 1.327503e-38
