# .PCD v0.7 - Point Cloud Data file format
VERSION 0.7
FIELDS x y z rgb
SIZE 4 4 4 4
TYPE F F F F
COUNT 1 1 1 1
WIDTH 971
HEIGHT 1
VIEWPOINT 0 0 0 1 0 0 0
POINTS 971
DATA ascii
0.00070382003 0.035894297 0.73899996 1.9073583e-38
0.0021057124 0.035797134 0.73700011 1.9163557e-38
0.0035095341 0.035797141 0.73700005 1.7312786e-38
0.0049133464 0.035797134 0.73700011 1.5472157e-38
0.006317154 0.035797141 0.73700005 1.5750558e-38
0.0077209659 0.035797134 0.73700005 1.612365e-38
0.0091247633 0.035797141 0.73700011 1.3718359e-38
0.010528584 0.035797149 0.73700005 1.1342459e-38
0.011932381 0.035797141 0.73700011 1.3262738e-38
0.013336194 0.035797134 0.73700011 1.5202771e-38
0.01478001 0.03589429 0.73900002 1.5927778e-38
0.016187631 0.035894297 0.73900002 1.6760732e-38
0.017595256 0.03589429 0.73900002 1.5464609e-38
0.019002873 0.035894297 0.73900002 1.4191478e-38
0.020410484 0.035894282 0.73900002 1.5566866e-38
0.021818116 0.035894305 0.73900002 1.6952298e-38
0.023225727 0.035894297 0.73900002 1.5382132e-38
0.024666674 0.035942845 0.74000007 1.3909925e-38
0.026076196 0.03594286 0.74000007 1.3998562e-38
0.027485717 0.03594286 0.74000007 1.4200511e-38
0.028973348 0.036040001 0.7420001 1.5203507e-38
0.030386683 0.036040001 0.7420001 1.6224178e-38
0.031799998 0.036039993 0.7420001 1.6312144e-38
0.033213343 0.036040008 0.74200004 1.6495082e-38
0.034626689 0.036040001 0.7420001 1.428348e-38
0.03608859 0.036088586 0.74300003 1.2080059e-38
0.037503831 0.036088593 0.74300003 1.243978e-38
0.038919065 0.036088586 0.74300009 1.2898647e-38
0.040605724 0.03633143 0.74800003 1.24327e-38
0.042142875 0.036428571 0.75000012 1.1976768e-38
0.043687634 0.036525711 0.75200009 1.1704146e-38
0.045120008 0.036525704 0.75200009 1.1337556e-38
0.046738122 0.036671422 0.75500011 1.0970247e-38
0.048240017 0.036719993 0.75600004 1.0509995e-38
0.049811441 0.036817148 0.75800008 1.0143372e-38
0.051458117 0.036962859 0.7610001 9.7771018e-39
0.052907635 0.036962859 0.76100004 1.0513934e-38
0.054500025 0.037060007 0.76300001 1.1249726e-38
0.055953357 0.037060015 0.76300007 1.3094718e-38
0.057707652 0.037254289 0.76700002 1.493857e-38
0.059245728 0.037302852 0.76800007 1.6410417e-38
0.060708594 0.037302867 0.76800001 1.7972704e-38
-0.02971522 0.0384124 0.76100004 5.8926128e-39
-0.028228557 0.038361914 0.76000011 6.8116894e-39
-0.026780944 0.038361911 0.76000011 7.7329058e-39
-0.025266662 0.038260963 0.75800008 8.6537621e-39
-0.023822844 0.038260963 0.75800002 9.5810966e-39
-0.022319976 0.038160007 0.75600004 1.014037e-38
-0.020852378 0.038109519 0.75500011 1.0592744e-38
-0.019362848 0.038008567 0.75300008 1.1415689e-38
-0.017904747 0.037958108 0.75200003 1.2156797e-38
-0.016428562 0.037857149 0.75000006 1.0229651e-38
-0.01495999 0.037756197 0.74800003 8.2838936e-39
-0.013535229 0.037756193 0.74800009 8.4571669e-39
-0.012094283 0.037705708 0.7470001 8.5611853e-39
-0.01064285 0.037604749 0.74500012 8.8456461e-39
-0.0092238011 0.037604757 0.74500012 9.1161766e-39
-0.0077837994 0.037503816 0.74300003 8.1842374e-39
-0.0063685561 0.037503816 0.74300003 7.267983e-39
-0.0049533243 0.037503824 0.74300009 6.5228454e-39
-0.0035333266 0.037453331 0.7420001 5.8040241e-39
-0.0021199943 0.037453324 0.7420001 1.3280445e-38
-0.00070666242 0.037453331 0.7420001 2.0645221e-38
0.00070476672 0.037352391 0.74000001 2.1026195e-38
0.0021057241 0.03720095 0.73700011 2.1374495e-38
0.0035190587 0.037301905 0.73900002 1.8148745e-38
0.0049133436 0.03720095 0.73700005 1.4840167e-38
0.0063171559 0.037200943 0.73700011 1.5672796e-38
0.0077209524 0.037200943 0.73700011 1.6484229e-38
0.0091247745 0.03720095 0.73700011 1.1867323e-38
0.010528572 0.037200943 0.73700011 7.1894458e-39
0.011932394 0.03720095 0.73700005 1.0965097e-38
0.013336207 0.037200943 0.73700011 1.4642138e-38
0.014780016 0.037301905 0.73900002 1.6116921e-38
0.016187638 0.037301913 0.73899996 1.7587686e-38
0.017595246 0.037301913 0.73900002 1.5000111e-38
0.019002881 0.03730192 0.73899996 1.2439455e-38
0.020438109 0.037352376 0.74000007 1.5207771e-38
0.021818109 0.03730192 0.73899996 1.7966806e-38
0.023257149 0.037352376 0.74000007 1.4660393e-38
0.024733342 0.037453339 0.7420001 1.1328475e-38
0.026146673 0.037453331 0.7420001 1.1230531e-38
0.027560003 0.037453331 0.7420001 1.1146245e-38
0.028973337 0.037453331 0.7420001 1.2901179e-38
0.030386679 0.037453339 0.74200004 1.4645752e-38
0.031800013 0.037453339 0.74200004 1.4472901e-38
0.033213343 0.037453331 0.74200004 1.4270546e-38
0.034673359 0.037503824 0.74300003 1.0959774e-38
0.036185727 0.03760476 0.74500006 7.5568004e-39
0.037503824 0.037503816 0.74300003 8.7477542e-39
0.039180972 0.037756205 0.74800003 9.853722e-39
0.040714305 0.037857153 0.75000012 1.0212809e-38
0.042142883 0.037857153 0.75000006 1.0499833e-38
0.043687623 0.037958078 0.75200009 1.0594577e-38
0.045300014 0.038109515 0.75500005 1.0691474e-38
0.046738114 0.038109511 0.75500011 1.0879131e-38
0.048240017 0.038159996 0.7560001 1.0971685e-38
0.049811441 0.038260952 0.75800002 1.0696539e-38
0.051458113 0.038412374 0.7610001 1.0328474e-38
0.053046685 0.038513348 0.76300001 9.5919903e-39
0.054500028 0.038513348 0.76300001 8.7676386e-39
0.055953361 0.038513336 0.76300007 1.0239176e-38
0.05755714 0.038614277 0.7650001 1.171607e-38
-0.029715227 0.039861914 0.7610001 4.1466425e-39
-0.028228557 0.039809536 0.76000005 4.9728117e-39
-0.026780937 0.039809529 0.76000011 5.8972441e-39
-0.025266655 0.039704766 0.75800002 7.6453247e-39
-0.023822846 0.039704766 0.75800002 9.4871199e-39
-0.02231998 0.039599992 0.75600004 1.096516e-38
-0.020852378 0.039547607 0.75500011 1.2344456e-38
-0.019362846 0.039442867 0.75300008 1.1234507e-38
-0.017904753 0.039390471 0.75200009 1.004599e-38
-0.016428558 0.039285719 0.75000012 9.5839048e-39
-0.014959994 0.039180957 0.74800003 9.2065477e-39
-0.013535234 0.039180953 0.74800009 7.0835988e-39
-0.012094283 0.039128564 0.7470001 4.9756563e-39
-0.010671424 0.039128564 0.7470001 7.4645095e-39
-0.0092237946 0.039023809 0.74500006 1.0041297e-38
-0.0077838027 0.03891905 0.74300003 7.6374438e-39
-0.0063685603 0.038919054 0.74300003 5.144957e-39
-0.0049533169 0.038919054 0.74300003 4.7768821e-39
-0.0035380912 0.038919039 0.74300009 4.4086055e-39
-0.0021199896 0.038866673 0.74200004 1.170895e-38
-0.00070665823 0.038866673 0.74200004 1.9001939e-38
0.00070667407 0.038866673 0.7420001 2.0285802e-38
0.0021114391 0.038709536 0.73900002 2.1557878e-38
0.0035190629 0.038709529 0.73900002 1.8889638e-38
0.0049133324 0.038604762 0.73700011 1.6127754e-38
0.0063342922 0.038709525 0.73900002 1.4560448e-38
0.0077209659 0.038604766 0.73700011 1.3089237e-38
0.0091495346 0.038709525 0.73900002 8.4665626e-39
0.010528585 0.038604759 0.73700005 3.8575701e-39
0.011964777 0.038709525 0.73900002 7.2723453e-39
0.013336204 0.038604762 0.73700005 1.0682156e-38
0.014740016 0.038604759 0.73700011 1.3362304e-38
0.016143814 0.038604755 0.73700011 1.6044136e-38
0.01759525 0.038709532 0.73900002 1.4371313e-38
0.018951435 0.038604759 0.73700011 1.2704587e-38
0.020355247 0.038604751 0.73700011 1.4372995e-38
0.021759067 0.038604759 0.73700005 1.6047241e-38
0.023320008 0.038866665 0.7420001 1.2989807e-38
0.024666678 0.038761903 0.74000007 9.9207994e-39
0.026076198 0.038761899 0.74000007 7.8153456e-39
0.027560016 0.038866669 0.74200004 5.7010273e-39
0.028973348 0.038866676 0.74200004 6.5372829e-39
0.030386681 0.038866673 0.7420001 7.3620466e-39
0.031800013 0.038866673 0.7420001 7.2731188e-39
0.033213343 0.038866669 0.7420001 7.2569324e-39
0.034673352 0.038919058 0.74300003 5.886171e-39
0.036088578 0.038919058 0.74300003 4.5003989e-39
0.037705727 0.039128561 0.7470001 5.7075447e-39
0.039180975 0.039180949 0.74800003 7.0046664e-39
0.040714301 0.039285704 0.75000012 7.8268251e-39
0.042142879 0.039285712 0.75000012 8.663808e-39
0.043687634 0.039390482 0.75200009 9.122687e-39
0.045180015 0.039442863 0.75300008 9.5876491e-39
0.04673811 0.0395476 0.75500011 1.0512865e-38
0.048176218 0.039547622 0.75500005 1.1433375e-38
0.049942877 0.039809525 0.76000011 1.1065676e-38
0.051458109 0.03986191 0.76100004 1.069725e-38
0.053046688 0.03996668 0.76300001 9.8689289e-39
0.054500017 0.03996668 0.76300001 9.0409759e-39
0.055953361 0.039966673 0.76300001 9.5008723e-39
-0.029676182 0.041257139 0.76000011 2.3977996e-39
-0.028154282 0.041148573 0.75800008 3.2185794e-39
-0.026710473 0.041148569 0.75800008 3.9622219e-39
-0.025266659 0.041148562 0.75800008 6.7273214e-39
-0.02382285 0.041148562 0.75800008 9.3963326e-39
-0.022319984 0.041039996 0.75600004 1.1796296e-38
-0.020852376 0.040985715 0.75500011 1.4087517e-38
-0.019362845 0.040877145 0.75300002 1.1039725e-38
-0.017857129 0.04071429 0.75000006 7.924106e-39
-0.016428553 0.04071429 0.75000006 9.0368645e-39
-0.014959991 0.040605716 0.74800003 1.0029854e-38
-0.013535236 0.040605709 0.74800009 5.6942324e-39
-0.012094284 0.040551417 0.7470001 1.2965052e-39
-0.010671424 0.040551417 0.7470001 6.1784693e-39
-0.0092237936 0.04044285 0.74500006 1.0952846e-38
-0.0077837957 0.040334292 0.74300003 6.9960344e-39
-0.0063685626 0.040334284 0.74300009 3.0374055e-39
-0.0049533267 0.040334288 0.74300003 3.0309315e-39
-0.0035380833 0.040334288 0.74300003 2.9496029e-39
-0.0021142787 0.040171433 0.74000001 1.0143726e-38
-0.00070475182 0.040171433 0.74000001 1.7331663e-38
0.00070476905 0.04017143 0.74000001 1.9557613e-38
0.0021114442 0.040117148 0.73899996 2.1748023e-38
0.0035190536 0.040117159 0.73900002 1.9631851e-38
0.0049266885 0.040117163 0.73899996 1.7410552e-38
0.0063342974 0.040117156 0.73900002 1.3534779e-38
0.0077419314 0.040117163 0.73899996 9.5721689e-39
0.0091495393 0.040117156 0.73900002 5.0513713e-39
0.010557149 0.040117148 0.73900002 5.5215083e-40
0.011964784 0.040117159 0.73900002 3.5841571e-39
0.013336192 0.040008575 0.73700011 6.631652e-39
0.014780012 0.040117148 0.73900002 1.0513917e-38
0.016187636 0.040117145 0.73900002 1.4374227e-38
0.017595256 0.040117148 0.73900002 1.3644915e-38
0.018951446 0.040008571 0.73700005 1.2892582e-38
0.020355243 0.040008567 0.73700011 1.3532849e-38
0.021759056 0.040008564 0.73700011 1.4088904e-38
0.023225728 0.040117148 0.73900002 1.1330272e-38
0.024666673 0.04017143 0.74000007 8.4582263e-39
0.026076194 0.04017143 0.74000007 4.3166285e-39
0.027485726 0.04017143 0.74000007 1.8585001e-40
0.028973348 0.040279999 0.7420001 1.8408297e-40
0.030386679 0.040279999 0.7420001 9.585442e-41
0.031800013 0.040279999 0.7420001 1.8412221e-40
0.033213343 0.040280011 0.7420001 1.8447113e-40
0.034673352 0.040334307 0.74300003 8.2695247e-40
0.036088582 0.040334299 0.74300009 1.4758994e-39
0.037756201 0.040605716 0.74800009 2.7605201e-39
0.039285734 0.040714283 0.75000012 4.0522791e-39
0.040714312 0.040714297 0.75000006 5.4261878e-39
0.042142872 0.040714286 0.75000012 6.7219853e-39
0.043687634 0.04082286 0.75200003 7.6439836e-39
0.045180019 0.040877141 0.75300008 8.4838308e-39
0.046738118 0.040985707 0.75500011 1.0150558e-38
0.04817621 0.040985711 0.75500005 1.1802876e-38
0.049811445 0.041148577 0.75800002 1.1435174e-38
0.05145812 0.041311439 0.76100004 1.0974199e-38
0.053046692 0.041420005 0.76300007 1.0145165e-38
0.054500017 0.041420005 0.76300001 9.225014e-39
0.055953361 0.041420005 0.76300001 8.8551595e-39
-0.029715227 0.042760968 0.76100004 6.1623151e-39
-0.02822856 0.042704757 0.76000011 4.5046042e-39
-0.026780941 0.042704757 0.76000011 2.9437609e-39
-0.025266649 0.042592391 0.75800002 6.0808772e-39
-0.023822842 0.042592388 0.75800002 9.2065351e-39
-0.022379033 0.042592384 0.75800002 1.1148376e-38
-0.020879982 0.042479996 0.75600004 1.3180264e-38
-0.01941427 0.042423811 0.75500005 1.1326362e-38
-0.017857132 0.042142864 0.75000012 9.4720545e-39
-0.016384747 0.04203048 0.74800003 7.6446506e-39
-0.014939995 0.041974287 0.7470001 5.7118074e-39
-0.013517137 0.041974287 0.7470001 3.4948468e-39
-0.012094284 0.041974287 0.7470001 1.1942762e-39
-0.010642852 0.041861895 0.74500012 5.8032506e-39
-0.0092238048 0.041861899 0.74500012 1.030929e-38
-0.0077837985 0.041749533 0.74300003 6.4417957e-39
-0.0063685626 0.041749533 0.74300003 2.5789469e-39
-0.0049466603 0.041693341 0.7420001 2.0225347e-39
-0.003533328 0.041693341 0.7420001 1.5616294e-39
-0.0021142787 0.041580956 0.74000001 7.2791724e-39
-0.00070475088 0.041580956 0.74000001 1.3001027e-38
0.00070477696 0.041580956 0.74000001 1.6414796e-38
0.0021114396 0.041524768 0.73900002 1.990846e-38
0.0035190587 0.041524772 0.73900002 1.8248216e-38
0.0049133324 0.041412376 0.73700011 1.6673686e-38
0.006317155 0.041412387 0.73700005 1.0858939e-38
0.0077209524 0.04141238 0.73700011 5.0513671e-39
0.0091495449 0.041524775 0.73900002 3.4908265e-39
0.010557154 0.041524768 0.73900002 1.8374288e-39
0.011964773 0.041524772 0.73900002 2.7568599e-39
0.013336205 0.041412376 0.73700005 3.674206e-39
0.014780016 0.041524764 0.73900002 7.1823174e-39
0.016187627 0.04152476 0.73900002 1.0681427e-38
0.017595261 0.041524764 0.73899996 1.0593571e-38
0.018951435 0.041412387 0.73700011 1.0494118e-38
0.020355247 0.04141238 0.73700011 1.1040741e-38
0.021759056 0.041412387 0.73700011 1.1587446e-38
0.023225732 0.041524779 0.73899996 9.473432e-39
0.024633355 0.041524772 0.73900002 7.3472124e-39
0.026040975 0.041524775 0.73899996 3.7656155e-39
0.027485721 0.041580953 0.74000007 2.7586802e-40
0.028973334 0.041693337 0.7420001 2.4799199e-39
0.030386683 0.041693337 0.7420001 4.6839746e-39
0.031800009 0.041693345 0.74200004 5.6152454e-39
0.03325811 0.041749526 0.74300003 6.5207112e-39
0.034860004 0.04197428 0.7470001 6.6179529e-39
0.036282856 0.04197428 0.7470001 6.7237691e-39
0.037756212 0.042030487 0.74800003 7.7346659e-39
0.039285738 0.042142864 0.75000006 8.7322839e-39
0.040714305 0.042142857 0.75000012 6.8030028e-39
0.042142879 0.042142861 0.75000006 4.969932e-39
0.043687634 0.04225523 0.75200009 5.9866301e-39
0.045180019 0.042311441 0.75300002 7.0126706e-39
0.04673811 0.042423796 0.75500011 9.4108626e-39
0.048176207 0.042423803 0.75500005 1.1896873e-38
0.049811438 0.04259238 0.75800008 1.152809e-38
0.05125526 0.042592391 0.75800008 1.1252225e-38
0.053046681 0.042873349 0.76300007 1.0697983e-38
0.054357152 0.04276095 0.76100004 1.0235572e-38
-0.031246651 0.044326682 0.76300001 9.7669354e-39
-0.029715223 0.044210482 0.76100004 9.8486843e-39
-0.02822856 0.044152394 0.76000011 5.8778319e-39
-0.026780941 0.04415239 0.76000011 1.8471216e-39
-0.025266659 0.044036191 0.75800008 5.4462908e-39
-0.023885708 0.044152386 0.76000011 8.9371425e-39
-0.022379043 0.044036195 0.75800008 1.0594156e-38
-0.020879984 0.043919999 0.75600004 1.2252236e-38
-0.019285703 0.043571431 0.75000012 1.1704473e-38
-0.017857127 0.043571435 0.75000006 1.104976e-38
-0.016384751 0.043455236 0.74800003 6.2656791e-39
-0.014959992 0.043455232 0.74800003 1.3879847e-39
-0.01353522 0.043455232 0.74800003 1.2868124e-39
-0.012094278 0.04339714 0.7470001 1.1074392e-39
-0.010671425 0.043397136 0.7470001 5.4384099e-39
-0.0092237992 0.043280955 0.74500006 9.6649923e-39
-0.0078047491 0.043280959 0.74500006 5.882515e-39
-0.0063685654 0.043164775 0.74300003 2.0236207e-39
-0.0049533215 0.043164767 0.74300003 1.1023861e-39
-0.0035333275 0.043106664 0.7420001 9.2587993e-41
-0.0021142769 0.042990483 0.74000001 4.409606e-39
-0.00070475647 0.042990483 0.74000001 8.6660431e-39
0.00070477091 0.042990487 0.74000001 1.3374842e-38
0.0021114447 0.042932384 0.73900002 1.7968395e-38
0.0035190638 0.042932391 0.73900002 1.6961776e-38
0.004913345 0.042816181 0.73700011 1.5830271e-38
0.0063343067 0.042932387 0.73900002 8.1755746e-39
0.0077419165 0.042932387 0.73900002 5.5248714e-40
0.0091495356 0.042932391 0.73899996 1.8392351e-39
0.010557159 0.042932384 0.73900002 3.1252851e-39
0.011964778 0.04293238 0.73899996 1.9321341e-39
0.013372387 0.042932387 0.73900002 6.4539884e-40
0.014780022 0.042932395 0.73899996 3.858963e-39
0.016187632 0.042932391 0.73900002 6.9939367e-39
0.01759525 0.042932399 0.73899996 7.5532131e-39
0.018951446 0.042816184 0.73700005 8.006969e-39
0.020355243 0.042816184 0.73700011 8.5482541e-39
0.021818105 0.042932387 0.73900002 9.1042866e-39
0.023225728 0.042932387 0.73900002 7.6288174e-39
0.024666674 0.042990468 0.74000007 6.1547803e-39
0.026076194 0.042990468 0.74000007 3.2146025e-39
0.027485713 0.042990468 0.74000007 2.7590726e-40
0.028973337 0.043106664 0.7420001 4.7758858e-39
0.030386679 0.043106671 0.74200004 9.3027679e-39
0.031800013 0.043106671 0.74200004 1.1072433e-38
0.033258114 0.043164767 0.74300003 1.279536e-38
0.034673344 0.04316476 0.74300009 1.2400691e-38
0.03608859 0.043164764 0.74300003 1.1969907e-38
0.037756216 0.043455239 0.74800003 1.2722223e-38
0.039285734 0.043571427 0.75000012 1.3345993e-38
0.040714312 0.043571442 0.75000006 8.2677114e-39
0.042142875 0.043571435 0.75000012 3.2253953e-39
0.04368763 0.043687634 0.75200009 4.4113913e-39
0.045300018 0.043861907 0.75500011 5.5357441e-39
0.046738122 0.0438619 0.75500011 8.7672911e-39
0.048240032 0.043920003 0.75600004 1.189472e-38
0.049811453 0.044036202 0.75800002 1.1712127e-38
0.051458128 0.044210494 0.76100004 1.1528096e-38
0.052907646 0.04421049 0.76100004 1.1342988e-38
0.054357164 0.044210482 0.76100004 1.1157159e-38
-0.03132857 0.045899998 0.76500005 1.0781501e-38
-0.029793322 0.045780011 0.76300001 1.1618705e-38
-0.028265698 0.045660019 0.76100004 7.1879226e-39
-0.026816182 0.045660004 0.76100004 2.762971e-39
-0.025333319 0.045600004 0.76000011 5.3451381e-39
-0.023885701 0.045600001 0.76000011 8.0223903e-39
-0.022379037 0.045480005 0.75800002 8.7524429e-39
-0.020879986 0.045360003 0.75600004 9.4889346e-39
-0.019414276 0.045299988 0.75500011 9.6776404e-39
-0.017904749 0.045120008 0.75200009 9.8695315e-39
-0.016428556 0.044999998 0.75000006 5.3448088e-39
-0.014959997 0.044880006 0.74800009 8.2798242e-40
-0.013535225 0.04488001 0.74800003 1.2867745e-39
-0.012110465 0.044880006 0.74800003 1.8370785e-39
-0.010671419 0.044819988 0.7470001 6.0866296e-39
-0.0092237899 0.044699997 0.74500006 1.0417599e-38
-0.0078047537 0.044699989 0.74500012 7.3672902e-39
-0.0063685579 0.044580016 0.74300003 4.4084654e-39
-0.0049533248 0.044580009 0.74300009 4.2269454e-39
-0.0035333233 0.044520013 0.74200004 4.1329575e-39
-0.002114275 0.044400014 0.74000001 6.2577295e-39
-0.00070475461 0.044400014 0.74000001 8.3786382e-39
0.00070476532 0.044400014 0.74000001 1.0685728e-38
0.0021114349 0.044340003 0.73900002 1.2904129e-38
0.0035190689 0.044340007 0.73899996 1.2345224e-38
0.0049266792 0.044340003 0.73900002 1.1775124e-38
0.0063342978 0.044340007 0.73899996 6.3424058e-39
0.007741922 0.044340014 0.73900002 9.1873611e-40
0.0091495402 0.044340014 0.73899996 1.6559354e-39
0.010557164 0.044340007 0.73900002 2.3927592e-39
0.011964784 0.044340014 0.73899996 1.3814799e-39
0.013336205 0.044220004 0.73700011 4.6277602e-40
0.014740002 0.044220001 0.73700011 2.6661189e-39
0.016143825 0.044220008 0.73700005 4.9641503e-39
0.017595246 0.044340003 0.73900002 8.00655e-39
0.018951435 0.044220001 0.73700011 1.1034613e-38
0.020410489 0.04434 0.73900002 1.2054132e-38
0.021818109 0.044340018 0.73900002 1.3060375e-38
0.023257148 0.044400007 0.74000007 9.8411075e-39
0.024666667 0.044400007 0.74000007 6.7043514e-39
0.026146673 0.044519991 0.7420001 3.7656155e-39
0.027560014 0.044519998 0.74200004 8.2695947e-40
0.028973348 0.044520013 0.74200004 6.8182279e-39
0.030386679 0.044520009 0.7420001 1.2821329e-38
0.031800013 0.044520006 0.7420001 1.364828e-38
0.033213343 0.044520006 0.7420001 1.4483616e-38
0.034673359 0.044580009 0.74300003 1.2986473e-38
0.036088578 0.044580001 0.74300009 1.153229e-38
0.037857164 0.044999998 0.75000006 1.2636945e-38
0.039390482 0.045120008 0.75200009 1.3834997e-38
0.040714305 0.045000006 0.75000006 9.8626385e-39
0.042142872 0.044999998 0.75000012 5.8136286e-39
0.043687645 0.045120012 0.75200003 5.7999996e-39
0.045300014 0.045299999 0.75500011 5.7172375e-39
0.046738114 0.045299992 0.75500011 8.8566085e-39
0.048240028 0.045359991 0.75600004 1.2080544e-38
0.049811441 0.045479998 0.75800002 1.1804685e-38
0.051255248 0.045479994 0.75800002 1.1621012e-38
0.052838106 0.045600001 0.76000011 1.1711768e-38
0.054285739 0.045599993 0.76000011 1.170997e-38
-0.031328574 0.047357135 0.7650001 1.1794558e-38
-0.029793316 0.047233336 0.76300001 1.3268897e-38
-0.028339982 0.047233354 0.76300001 8.4916067e-39
-0.026816178 0.047109522 0.76100004 3.6885188e-39
-0.025333321 0.047047626 0.76000005 5.3325712e-39
-0.023885701 0.047047623 0.76000005 6.99604e-39
-0.022379041 0.046923805 0.75800008 6.9042326e-39
-0.020879989 0.046799991 0.7560001 6.723793e-39
-0.019439984 0.046799991 0.7560001 7.6478905e-39
-0.017904755 0.046552379 0.75200009 8.5601273e-39
-0.01642856 0.046428572 0.75000012 4.416031e-39
-0.014999979 0.046428576 0.75000006 2.7911343e-40
-0.013571422 0.046428572 0.75000012 1.3786128e-39
-0.012110469 0.046304759 0.74800009 2.4907113e-39
-0.010671418 0.046242855 0.7470001 6.8364237e-39
-0.009223802 0.046119049 0.74500012 1.1059785e-38
-0.0078047528 0.046119045 0.74500012 8.9447025e-39
-0.0063685607 0.045995254 0.74300003 6.7201902e-39
-0.0049533173 0.045995258 0.74300003 7.4476883e-39
-0.0035333228 0.045933336 0.74200004 8.1920637e-39
-0.0021142741 0.045809526 0.74000001 8.2021138e-39
-0.00070475461 0.045809526 0.74000001 8.1038407e-39
0.0007066736 0.04593334 0.7420001 7.9933708e-39
0.0021114396 0.04574763 0.73900002 7.8290896e-39
0.0035190596 0.045747638 0.73899996 7.8309014e-39
0.0049266829 0.045747634 0.73900002 7.7278892e-39
0.0063342922 0.045747627 0.73900002 4.5003177e-39
0.0077419262 0.045747623 0.73900002 1.2871585e-39
0.0091495346 0.045747615 0.73900002 1.4726302e-39
0.010557155 0.045747623 0.73900002 1.5648118e-39
0.011964778 0.045747619 0.73900002 9.2159196e-40
0.013336193 0.045623802 0.73700011 1.85836e-40
0.014740015 0.045623809 0.73700005 1.561579e-39
0.016187642 0.045747638 0.73900002 2.948835e-39
0.01759525 0.04574763 0.73900002 8.566265e-39
0.01900287 0.045747638 0.73900002 1.4089284e-38
0.020410493 0.04574763 0.73900002 1.5573693e-38
0.021847621 0.045809519 0.74000007 1.7027284e-38
0.023257157 0.045809519 0.74000007 1.2153913e-38
0.024733352 0.045933343 0.74200004 7.1814935e-39
0.026146684 0.04593334 0.7420001 4.224793e-39
0.027560018 0.04593334 0.7420001 1.2940263e-39
0.028973348 0.045933336 0.7420001 8.8486491e-39
0.030386679 0.045933336 0.7420001 1.6303181e-38
0.031800013 0.045933332 0.7420001 1.6215005e-38
0.033258107 0.045995243 0.74300009 1.6127718e-38
0.034673352 0.045995247 0.74300003 1.3529304e-38
0.036088593 0.045995243 0.74300003 1.0971272e-38
0.03785716 0.046428572 0.75000012 1.2641619e-38
0.039285734 0.046428576 0.75000006 1.4294557e-38
0.040714301 0.046428569 0.75000012 1.135034e-38
0.042142879 0.046428572 0.75000006 8.3785807e-39
0.043571439 0.046428576 0.75000012 7.1664057e-39
0.045300022 0.046738092 0.75500011 5.9034168e-39
0.046738122 0.046738096 0.75500005 9.0449458e-39
0.048240025 0.046799995 0.7560001 1.2170585e-38
0.049680021 0.046799995 0.7560001 1.1988712e-38
0.051120017 0.046799995 0.75600004 1.1713567e-38
-0.032914281 0.049005713 0.76800007 7.6518463e-39
-0.031451415 0.049005717 0.76800001 1.0326262e-38
-0.029988563 0.049005706 0.76800007 1.3088478e-38
-0.028414287 0.048814282 0.7650001 9.4896507e-39
-0.026886649 0.048686683 0.76300001 5.7889167e-39
-0.025366643 0.048559073 0.76100004 7.6341858e-39
-0.023885703 0.048495229 0.76000011 9.3783665e-39
-0.02237903 0.048367631 0.75800002 8.9231575e-39
-0.020879982 0.048240006 0.75600004 8.3646042e-39
-0.019439977 0.048240006 0.75600004 6.345291e-39
-0.017928559 0.048048574 0.75300002 4.3173683e-39
-0.016472369 0.047984779 0.75200009 2.666472e-39
-0.014999985 0.047857154 0.75000006 9.2231223e-40
-0.013571419 0.047857143 0.75000012 1.7477513e-39
-0.012110475 0.047729522 0.74800009 2.6650791e-39
-0.01067142 0.047665711 0.7470001 4.5208495e-39
-0.0092238011 0.047538105 0.74500006 6.3773051e-39
-0.0078047463 0.047538105 0.74500006 7.0122769e-39
-0.006368563 0.047410488 0.74300009 7.6414697e-39
-0.0049533206 0.047410492 0.74300003 7.9176698e-39
-0.0035380847 0.047410496 0.74300003 8.2104081e-39
-0.0021199971 0.047346674 0.7420001 9.9538588e-39
-0.00070666382 0.04734667 0.7420001 1.1698332e-38
0.00070667546 0.047346666 0.7420001 1.1502062e-38
0.002114288 0.047219053 0.74000001 1.1403447e-38
0.0035238229 0.047219049 0.74000001 9.0175532e-39
0.0049266885 0.047155246 0.73900002 6.6211829e-39
0.0063342974 0.047155235 0.73900002 3.7681462e-39
0.0077419174 0.047155257 0.73900002 1.0112975e-39
0.0091495411 0.04715525 0.73900002 2.1140507e-39
0.01055716 0.047155254 0.73900002 3.2167815e-39
0.011964769 0.047155246 0.73900002 3.4061796e-39
0.01333619 0.047027621 0.73700011 3.5823158e-39
0.014740002 0.047027614 0.73700011 3.6777372e-39
0.016187632 0.047155254 0.73899996 3.7746819e-39
0.017595258 0.047155246 0.73900002 7.5604718e-39
0.019002877 0.047155254 0.73899996 1.1448002e-38
0.020410486 0.04715525 0.73900002 1.3458285e-38
0.021847632 0.047219045 0.74000007 1.5474379e-38
0.023257151 0.047219045 0.74000007 1.3728445e-38
0.024733339 0.047346681 0.7420001 1.2071763e-38
0.026146684 0.047346681 0.7420001 7.7314022e-39
0.027597159 0.047410492 0.74300003 3.3983492e-39
0.029012401 0.047410496 0.74300003 7.3681562e-39
0.030427635 0.047410488 0.74300009 1.1439841e-38
0.031842861 0.047410488 0.74300003 1.3278416e-38
0.033258121 0.047410484 0.74300003 1.5048324e-38
0.034906678 0.047729526 0.74800003 1.1976779e-38
0.036331445 0.047729518 0.74800009 9.0291349e-39
0.037857156 0.047857147 0.75000012 1.0051222e-38
0.039285731 0.04785715 0.75000012 1.1178273e-38
0.040714305 0.047857154 0.75000006 9.3142109e-39
0.042142872 0.047857147 0.75000012 7.5312702e-39
0.04368763 0.047984764 0.75200009 6.161948e-39
0.045300014 0.048176177 0.75500011 4.8993234e-39
0.046800021 0.048240013 0.75600004 8.5843362e-39
0.048240032 0.048240013 0.75600004 1.2170585e-38
0.049680028 0.04824001 0.75600004 1.1987991e-38
0.051120017 0.048239995 0.7560001 1.1805048e-38
-0.034377143 0.050468568 0.76800007 3.6809686e-39
-0.032914277 0.050468571 0.76800001 4.9832247e-39
-0.031451415 0.050468571 0.76800001 8.9537325e-39
-0.029988561 0.050468564 0.76800007 1.289439e-38
-0.028414281 0.050271433 0.76500005 1.0405127e-38
-0.026886646 0.050140012 0.76300001 7.9151209e-39
-0.025366647 0.050008588 0.76100004 9.8536646e-39
-0.023885705 0.049942862 0.76000011 1.1783309e-38
-0.022379033 0.04981143 0.75800002 1.0953942e-38
-0.020935226 0.049811423 0.75800002 1.0029832e-38
-0.01943998 0.049679991 0.75600004 5.0513278e-39
-0.017928557 0.049482867 0.75300002 9.2565573e-41
-0.016472375 0.049417149 0.75200009 8.2688661e-40
-0.014999989 0.049285714 0.75000012 1.5633642e-39
-0.013571413 0.049285714 0.75000006 2.2080064e-39
-0.012110471 0.049154289 0.74800009 2.7626291e-39
-0.010685706 0.049154293 0.74800003 2.2044639e-39
-0.0092237955 0.048957147 0.74500006 1.6721344e-39
-0.0078047565 0.048957139 0.74500012 5.0851454e-39
-0.0063685565 0.048825718 0.74300003 8.4740778e-39
-0.0049533313 0.048825726 0.74300009 8.3711104e-39
-0.0035380879 0.04882573 0.74300003 8.1985671e-39
-0.0021199859 0.048760004 0.74200004 1.1704467e-38
-0.00070665358 0.048760004 0.74200004 1.5189897e-38
0.00070667174 0.048759997 0.74200004 1.5096972e-38
0.002114296 0.04862858 0.74000001 1.4905055e-38
0.0035238164 0.048628576 0.74000001 1.0214995e-38
0.0049333363 0.048628576 0.74000001 5.4262368e-39
0.0063343025 0.048562869 0.73900002 3.0309427e-39
0.007741922 0.048562873 0.73899996 6.4360237e-40
0.00914953 0.048562866 0.73900002 2.755844e-39
0.010557164 0.048562869 0.73899996 4.8824139e-39
0.011964773 0.048562866 0.73900002 5.9037307e-39
0.013336204 0.048431426 0.73700005 6.9034871e-39
0.014740015 0.048431423 0.73700011 5.7009852e-39
0.016187638 0.048562873 0.73899996 4.5114762e-39
0.017595261 0.048562862 0.73900002 6.6362959e-39
0.01900287 0.048562855 0.73900002 8.7574624e-39
0.020438105 0.048628572 0.74000007 1.133673e-38
0.021847624 0.048628576 0.74000007 1.3816326e-38
0.023257144 0.048628576 0.74000007 1.5397658e-38
0.02473334 0.048760008 0.7420001 1.6846169e-38
0.026146673 0.048760001 0.7420001 1.1138329e-38
0.027597148 0.048825726 0.74300009 5.4298354e-39
0.029012393 0.04882573 0.74300003 5.9697431e-39
0.030427635 0.048825733 0.74300003 6.5419703e-39
0.03184288 0.048825737 0.74300003 1.0226919e-38
0.033258114 0.04882573 0.74300003 1.3907492e-38
0.035000023 0.049285725 0.75000006 1.048373e-38
0.036331434 0.049154282 0.74800009 7.0051148e-39
0.037857164 0.049285725 0.75000006 7.4474459e-39
0.039285727 0.049285714 0.75000012 7.9360184e-39
0.040714301 0.049285714 0.75000012 7.2888428e-39
0.042255256 0.049417146 0.75200009 6.6315875e-39
0.043745745 0.049482875 0.75300002 5.2349834e-39
0.045360025 0.049679998 0.75600004 3.884468e-39
0.046800017 0.049679998 0.75600004 8.0379853e-39
0.048367627 0.049811423 0.75800008 1.21713e-38
0.049811449 0.049811419 0.75800008 1.198727e-38
0.05125526 0.049811427 0.75800008 1.1805043e-38
0.052699078 0.049811438 0.75800002 1.1622458e-38
-0.034377139 0.051931422 0.76800007 3.9597009e-39
-0.032914277 0.051931426 0.76800001 4.238485e-39
-0.031451423 0.051931433 0.76800007 7.2816597e-39
-0.029988563 0.051931437 0.76800001 1.0313655e-38
-0.028525699 0.051931437 0.76800001 8.6509175e-39
-0.027027603 0.051863812 0.76700002 6.9903045e-39
-0.025566649 0.051863808 0.76700002 1.0501537e-38
-0.023822842 0.051255252 0.75800002 1.4100721e-38
-0.022379033 0.051255252 0.75800002 1.409859e-38
-0.020935226 0.051255248 0.75800002 1.4095698e-38
-0.019439984 0.051119998 0.75600004 1.0125941e-38
-0.017928557 0.050917149 0.75300002 6.0622203e-39
-0.016472368 0.050849531 0.75200009 3.6741387e-39
-0.014999982 0.050714299 0.75000006 1.2860613e-39
-0.013571418 0.050714295 0.75000012 4.2352046e-39
-0.012110465 0.050579064 0.74800003 7.1872094e-39
-0.010685704 0.050579056 0.74800003 6.1705575e-39
-0.0092485612 0.050511431 0.74700004 5.1439102e-39
-0.00780475 0.050376195 0.74500012 6.445795e-39
-0.0063857012 0.050376192 0.74500006 7.8391116e-39
-0.0049533234 0.050240971 0.74300003 7.917674e-39
-0.00353808 0.050240975 0.74300003 7.998393e-39
-0.0021142778 0.050038096 0.74000001 9.7561846e-39
-0.00070474995 0.050038096 0.74000001 1.1606901e-38
0.00070476951 0.050038096 0.74000001 1.326103e-38
0.0021057236 0.049835227 0.73700011 1.4915481e-38
0.0035095317 0.049835235 0.73700005 1.1685432e-38
0.0049333456 0.050038107 0.74000001 8.4492678e-39
0.0063342932 0.049970482 0.73900002 6.6125173e-39
0.0077209626 0.049835227 0.73700005 4.6840111e-39
0.0091247745 0.049835239 0.73700011 6.2570919e-39
0.010528572 0.049835235 0.73700011 7.7451364e-39
0.011932394 0.049835239 0.73700011 8.3887247e-39
0.01333619 0.049835239 0.73700011 9.121196e-39
0.014740014 0.049835242 0.73700005 5.7045683e-39
0.016187632 0.04997047 0.73900002 2.3012824e-39
0.01759525 0.049970493 0.73900002 5.1535722e-39
0.019028578 0.050038103 0.74000007 7.9969035e-39
0.020438112 0.050038103 0.74000007 8.7445186e-39
0.021847619 0.050038099 0.74000007 9.5660747e-39
0.023320008 0.050173335 0.7420001 1.040485e-38
0.02473334 0.050173331 0.7420001 1.1327826e-38
0.026146682 0.050173335 0.74200004 8.6552265e-39
0.027560014 0.050173335 0.74200004 5.9880076e-39
0.029012406 0.050240975 0.74300003 6.4335084e-39
0.030427624 0.050240967 0.74300009 6.9798859e-39
0.031842869 0.050240971 0.74300003 1.1788362e-38
0.03325811 0.050240975 0.74300003 1.6564561e-38
0.034673344 0.050240964 0.74300009 1.4460632e-38
0.036331449 0.05057906 0.74800003 1.2263723e-38
0.037756201 0.050579052 0.74800003 1.2528435e-38
0.039180979 0.05057906 0.74800003 1.2717173e-38
0.040714297 0.050714292 0.75000012 1.1527301e-38
0.042255241 0.05084952 0.75200009 1.0236148e-38
0.04368763 0.05084952 0.75200009 6.9056002e-39
0.045360018 0.051120002 0.75600004 3.609679e-39
0.046800017 0.051120006 0.75600004 7.8492893e-39
0.048240028 0.051120002 0.75600004 1.2172374e-38
0.049811453 0.051255241 0.75800002 1.1988701e-38
0.05125526 0.051255237 0.75800002 1.1805756e-38
0.052699067 0.051255237 0.75800002 1.1529898e-38
-0.032914273 0.053394284 0.76800001 3.4108936e-39
-0.031451423 0.053394292 0.76800007 5.6199846e-39
-0.029988561 0.053394288 0.76800001 7.7339792e-39
-0.028525706 0.05339428 0.76800007 6.8938139e-39
-0.026957149 0.053185709 0.7650001 5.9840839e-39
-0.025500007 0.053185709 0.7650001 1.1153073e-38
-0.023822844 0.052699052 0.75800002 1.630988e-38
-0.022379037 0.052699052 0.75800002 1.7244406e-38
-0.020879982 0.052560002 0.75600004 1.8141587e-38
-0.019439984 0.052560002 0.75600004 1.5111367e-38
-0.017928565 0.05235143 0.75300008 1.2056342e-38
-0.016472369 0.052281912 0.75200003 6.5206804e-39
-0.014999987 0.052142859 0.75000012 9.2231503e-40
-0.013571412 0.052142866 0.75000006 6.2588309e-39
-0.012110461 0.052003816 0.74800003 1.1511797e-38
-0.010685707 0.052003805 0.74800003 1.0054674e-38
-0.0092485603 0.051934298 0.74700004 8.5615917e-39
-0.00780475 0.051795237 0.74500006 7.8064221e-39
-0.0063685593 0.051656205 0.74300003 7.086449e-39
-0.0049533262 0.051656194 0.74300009 7.4620432e-39
-0.0035380828 0.051656194 0.74300003 7.8207855e-39
-0.0021142769 0.051447622 0.74000001 7.8986402e-39
-0.00070475647 0.051447626 0.74000001 7.9187488e-39
0.00070476392 0.051447626 0.74000001 1.1424303e-38
0.0021114354 0.051378094 0.73900002 1.4821489e-38
0.0035238182 0.051447619 0.74000001 1.3161264e-38
0.0049266783 0.051378094 0.73900002 1.1493474e-38
0.0063171536 0.051239047 0.73700011 1.0102266e-38
0.007720951 0.051239036 0.73700011 8.7405389e-39
0.0091247726 0.051239043 0.73700005 9.6599911e-39
0.010528584 0.05123904 0.73700011 1.0594168e-38
0.011932381 0.051239036 0.73700011 1.0968724e-38
0.013372392 0.051378105 0.73900002 1.1229832e-38
0.014780012 0.051378109 0.73900002 5.6941847e-39
0.01620953 0.051447622 0.74000001 9.8685043e-41
0.017619051 0.051447622 0.74000001 3.6795617e-39
0.019028585 0.051447619 0.74000007 7.1775754e-39
0.020438105 0.051447615 0.74000007 6.2617456e-39
0.021906678 0.051586658 0.7420001 5.3433991e-39
0.023320019 0.051586669 0.74200004 5.5105768e-39
0.024766691 0.051656201 0.74300003 5.7057188e-39
0.026181921 0.051656209 0.74300003 6.1670417e-39
0.027597154 0.051656194 0.74300009 6.5286327e-39
0.029012397 0.051656198 0.74300003 6.9799069e-39
0.030509543 0.051795248 0.74500006 7.3777944e-39
0.031842873 0.051656205 0.74300009 1.3381593e-38
0.033258114 0.051656209 0.74300003 1.9256913e-38
0.034766681 0.05179524 0.74500006 1.8437926e-38
0.036331452 0.052003808 0.74800003 1.7506654e-38
0.037857164 0.052142866 0.75000006 1.7501631e-38
0.039285727 0.052142859 0.75000012 1.7509191e-38
0.040714301 0.052142866 0.75000006 1.5683269e-38
0.042255256 0.052281912 0.75200009 1.3815249e-38
0.043861929 0.052490469 0.75500011 8.5421389e-39
0.045300014 0.052490477 0.75500011 3.2416223e-39
0.046800014 0.052560002 0.75600004 7.7599705e-39
0.048367631 0.052699044 0.75800008 1.21713e-38
0.049811441 0.052699037 0.75800008 1.1988704e-38
0.051255263 0.052699037 0.75800008 1.1804677e-38
0.052838113 0.052838102 0.76000011 1.1529173e-38
0.054500025 0.053046681 0.76300001 1.1160022e-38
-0.028525703 0.054857139 0.76800007 6.626526e-39
-0.026957143 0.054642852 0.76500005 5.7871623e-39
-0.025500001 0.054642856 0.76500005 9.8556166e-39
-0.023822848 0.054142851 0.75800008 1.3832916e-38
-0.022319995 0.054000005 0.7560001 1.5758267e-38
-0.020879984 0.054000005 0.75600004 1.7666373e-38
-0.019439988 0.054000005 0.75600004 1.6306786e-38
-0.017904744 0.053714294 0.75200003 1.4929131e-38
-0.016472375 0.053714283 0.75200009 7.9150732e-39
-0.014999992 0.053571437 0.75000012 9.1873611e-40
-0.013535229 0.053428575 0.74800003 4.3317359e-39
-0.012110467 0.053428583 0.74800003 7.760241e-39
-0.010685705 0.053428572 0.74800003 9.3204677e-39
-0.0092237974 0.053214293 0.74500006 1.0874377e-38
-0.0078047537 0.053214286 0.74500012 8.7419514e-39
-0.0063685621 0.053071439 0.74300003 6.6161074e-39
-0.0049533187 0.053071447 0.74300003 7.1800389e-39
-0.0035380856 0.053071432 0.74300009 7.7396769e-39
-0.0021199971 0.053000003 0.7420001 7.7289303e-39
-0.00070666568 0.053000003 0.7420001 7.7250109e-39
0.00070668384 0.053000011 0.74200004 1.1141246e-38
0.0021142922 0.052857149 0.74000001 1.4549923e-38
0.0035333498 0.053000007 0.7420001 1.3533635e-38
0.0049333475 0.052857142 0.74000001 1.2516583e-38
0.0063343025 0.052785732 0.73900002 1.3071853e-38
0.0077209636 0.05264286 0.73700011 1.3638294e-38
0.0091247596 0.052642852 0.73700011 1.4090657e-38
0.010528582 0.05264286 0.73700005 1.4553837e-38
0.011932394 0.052642856 0.73700011 1.2617454e-38
0.013372398 0.052785721 0.73900002 1.0686002e-38
0.014780018 0.052785724 0.73899996 8.7452221e-39
0.016209524 0.052857146 0.74000001 6.8116656e-39
0.017619058 0.052857146 0.74000007 8.4704541e-39
0.019080013 0.052999999 0.7420001 1.0221078e-38
0.020438101 0.052857142 0.74000007 1.0040645e-38
0.021906689 0.053000007 0.74200004 9.9537915e-39
0.023320006 0.053000007 0.7420001 8.3749682e-39
0.02476668 0.053071443 0.74300009 6.7962135e-39
0.026181925 0.053071443 0.74300003 5.422295e-39
0.027597167 0.053071439 0.74300003 4.1330331e-39
0.029012386 0.053071432 0.74300009 8.1989287e-39
0.030427629 0.053071436 0.74300003 1.2363174e-38
0.031842873 0.053071439 0.74300003 1.5865916e-38
0.033258107 0.053071432 0.74300009 1.9368184e-38
0.034906674 0.053428568 0.74800009 1.8990044e-38
0.036331441 0.053428575 0.74800003 1.8609098e-38
0.037857156 0.05357144 0.75000006 1.8155328e-38
0.039285734 0.053571448 0.75000006 1.7706564e-38
0.040822867 0.05371429 0.75200009 1.5307012e-38
0.042255256 0.053714298 0.75200003 1.2993061e-38
0.043861922 0.053928573 0.75500011 8.6526299e-39
0.045360029 0.054000001 0.75600004 4.3497495e-39
0.046923839 0.054142855 0.75800002 8.2173585e-39
0.048367631 0.054142866 0.75800002 1.1989068e-38
0.049942873 0.054285716 0.76000011 1.1804676e-38
0.05145812 0.054357149 0.76100004 1.1619927e-38
0.053046688 0.054500006 0.76300007 1.0976358e-38
0.054500014 0.05450001 0.76300001 1.0331694e-38
0.055953357 0.054500006 0.76300001 1.0416331e-38
-0.023822848 0.055586677 0.75800002 1.1333227e-38
-0.022290468 0.055366654 0.75500011 1.4289216e-38
-0.020879976 0.05544002 0.75600004 1.7225112e-38
-0.019362843 0.055220012 0.75300002 1.7520021e-38
-0.017904757 0.055146683 0.75200009 1.7677382e-38
-0.016472369 0.055146679 0.75200009 9.2911707e-39
-0.014999987 0.055000007 0.75000006 9.2267797e-40
-0.013535234 0.054853328 0.74800009 2.3888355e-39
-0.012110461 0.054853346 0.74800003 3.8841345e-39
-0.010685709 0.054853339 0.74800003 8.5918836e-39
-0.0092238011 0.054633323 0.74500012 1.3173523e-38
-0.0078047537 0.054633327 0.74500012 9.6707671e-39
-0.0063685649 0.054486677 0.74300009 6.0762459e-39
-0.0049533215 0.054486681 0.74300003 6.8109089e-39
-0.0035380856 0.054486681 0.74300003 7.5506403e-39
-0.0021199868 0.054413341 0.74200004 7.5517418e-39
-0.00070665358 0.054413337 0.74200004 7.4581308e-39
0.00070762634 0.054486677 0.74300003 1.0866107e-38
0.0021200026 0.05441333 0.7420001 1.4269394e-38
0.0035381024 0.054486685 0.74300009 1.3906709e-38
0.0049466672 0.054413337 0.7420001 1.3537596e-38
0.0063343081 0.054193344 0.73899996 1.6030808e-38
0.0077419165 0.05419334 0.73900002 1.8515354e-38
0.0091495356 0.054193344 0.73899996 1.8511014e-38
0.010557159 0.054193337 0.73900002 1.8415972e-38
0.011964779 0.05419334 0.73899996 1.4261157e-38
0.013372389 0.054193351 0.73900002 1.0037771e-38
0.014800013 0.054266661 0.74000001 1.1789434e-38
0.016209533 0.054266658 0.74000001 1.3438542e-38
0.017666679 0.054413356 0.74200004 1.3353538e-38
0.019080009 0.054413352 0.74200004 1.3168429e-38
0.020438109 0.054266658 0.74000001 1.3817372e-38
0.021906674 0.054413348 0.7420001 1.4456278e-38
0.023320006 0.054413341 0.7420001 1.1147694e-38
0.024766682 0.054486688 0.74300003 7.8254448e-39
0.026181914 0.054486681 0.74300009 4.775834e-39
0.027597159 0.054486677 0.74300003 1.7571666e-39
0.029012401 0.054486681 0.74300003 9.5033413e-39
0.030509546 0.054633334 0.74500006 1.7234791e-38
0.031928588 0.054633338 0.74500006 1.8350498e-38
0.033437148 0.054779999 0.7470001 1.9361734e-38
0.034906678 0.054853331 0.74800009 1.9545017e-38
0.036331445 0.054853339 0.74800003 1.9632933e-38
0.037857153 0.055000003 0.75000012 1.8712452e-38
0.039285731 0.055000007 0.75000006 1.778725e-38
0.040822882 0.055146679 0.75200003 1.5028567e-38
0.042255256 0.055146668 0.75200009 1.2154682e-38
0.043745741 0.055220012 0.75300002 8.8169573e-39
0.045360021 0.055440009 0.75600004 5.4467645e-39
0.046800021 0.055440005 0.75600004 8.6783241e-39
0.048367638 0.055586666 0.75800008 1.1803236e-38
0.049942881 0.055733334 0.76000011 1.1620995e-38
0.051458117 0.055806678 0.76100004 1.1344053e-38
0.053046674 0.055953346 0.76300007 1.0424624e-38
0.054500017 0.05595335 0.76300007 9.4068689e-39
0.055953357 0.05595335 0.76300007 1.0957281e-38
-0.023822851 0.057030469 0.75800008 7.9184111e-39
-0.022290457 0.056804765 0.75500005 9.8570333e-39
-0.020852372 0.056804761 0.75500005 1.17103e-38
-0.01933714 0.056579042 0.75200009 1.2627273e-38
-0.017904753 0.056579061 0.75200009 1.3632675e-38
-0.016472382 0.05657905 0.75200009 7.1778781e-39
-0.014999991 0.05642857 0.75000012 8.2689361e-40
-0.01353523 0.056278095 0.74800009 1.3804317e-39
-0.012110466 0.056278095 0.74800003 2.0298453e-39
-0.010685706 0.056278087 0.74800009 7.6591807e-39
-0.0092485631 0.05620287 0.74700004 1.336368e-38
-0.0078047537 0.056052383 0.74500006 9.7658886e-39
-0.0063856975 0.056052383 0.74500006 6.257438e-39
-0.0049666604 0.056052372 0.74500012 5.981165e-39
-0.0035476121 0.056052372 0.74500012 5.7128682e-39
-0.002122846 0.055901919 0.74300003 6.2639162e-39
-0.00070760259 0.055901919 0.74300003 6.9039047e-39
0.00070763053 0.055901911 0.74300003 8.2868279e-39
0.0021228739 0.055901915 0.74300003 9.6733132e-39
0.0035381173 0.055901919 0.74300003 1.1326337e-38
0.0049466793 0.055826675 0.74200004 1.3073097e-38
0.0063600112 0.055826675 0.74200004 1.5757226e-38
0.0077523906 0.055676196 0.74000001 1.8533742e-38
0.0091495309 0.055600964 0.73900002 1.6960627e-38
0.01057143 0.055676192 0.74000001 1.5501654e-38
0.011980966 0.055676192 0.74000001 1.3074821e-38
0.013372393 0.055600967 0.73900002 1.0760617e-38
0.014800007 0.055676192 0.74000001 1.2243237e-38
0.016209528 0.055676188 0.74000001 1.3718007e-38
0.017619062 0.055676188 0.74000001 1.3075538e-38
0.019028582 0.055676188 0.74000001 1.2435184e-38
0.020438101 0.055676185 0.74000007 1.3629746e-38
0.021906676 0.055826671 0.7420001 1.4824374e-38
0.023320008 0.055826664 0.7420001 1.2988431e-38
0.024733339 0.05582666 0.7420001 1.1152716e-38
0.026181929 0.055901911 0.74300003 6.3477727e-39
0.027560014 0.055826668 0.74200004 1.5649043e-39
0.029012389 0.055901919 0.74300003 8.4853204e-39
0.030509539 0.05605239 0.74500006 1.5497122e-38
0.031928584 0.056052383 0.74500012 1.7890244e-38
0.03334764 0.056052383 0.74500012 2.0366193e-38
0.034906682 0.056278083 0.74800009 1.9915243e-38
0.036331449 0.056278087 0.74800003 1.9368561e-38
0.03785716 0.056428578 0.75000006 1.7236281e-38
0.039285723 0.05642857 0.75000012 1.5018167e-38
0.040822867 0.05657905 0.75200009 1.3822799e-38
0.042255256 0.056579046 0.75200009 1.2515189e-38
0.04374573 0.056654293 0.75300008 8.7394978e-39
0.045360021 0.056880012 0.75600004 4.9933379e-39
0.046923827 0.057030477 0.75800002 7.9393297e-39
0.048495267 0.05718096 0.76000005 1.0792322e-38
0.050008591 0.057256211 0.76100004 1.0330983e-38
0.051593356 0.057406671 0.76300001 9.8743197e-39
0.053046688 0.057406686 0.76300001 1.0788373e-38
0.054500021 0.057406679 0.76300007 1.1699517e-38
-0.022231411 0.058088586 0.75300002 5.3268904e-39
-0.020797137 0.058088578 0.75300002 6.1706668e-39
-0.019337133 0.058011439 0.75200003 7.8287673e-39
-0.017904755 0.058011431 0.75200009 9.4788705e-39
-0.016472375 0.058011435 0.75200009 5.0520467e-39
-0.014999996 0.057857145 0.75000012 6.4645261e-40
-0.013535235 0.057702858 0.74800009 3.6771613e-40
-0.012094274 0.057625711 0.74700004 1.0410106e-40
-0.01068571 0.057702858 0.74800009 6.8343344e-39
-0.009248565 0.057625715 0.7470001 1.353937e-38
-0.0078047565 0.057471432 0.74500012 9.9556006e-39
-0.0063857082 0.057471428 0.74500012 6.3492455e-39
-0.0049666534 0.057471428 0.74500012 5.0513334e-39
-0.0035476051 0.057471432 0.74500006 3.7828809e-39
-0.0021228488 0.057317141 0.74300003 5.0703967e-39
-0.00070760446 0.057317153 0.74300003 6.3543182e-39
0.00070667313 0.057240009 0.7420001 5.7043133e-39
0.0021142894 0.057085715 0.74000001 4.9757068e-39
0.0035238247 0.05708573 0.74000001 8.7438109e-39
0.0049466803 0.057240013 0.7420001 1.2523843e-38
0.0063342922 0.057008579 0.73900002 1.5574573e-38
0.0077523845 0.057085726 0.74000001 1.8514712e-38
0.0091495356 0.057008576 0.73900002 1.5479445e-38
0.01057144 0.057085723 0.74000001 1.243451e-38
0.01198096 0.057085723 0.74000001 1.1958816e-38
0.013390481 0.057085723 0.74000001 1.1506441e-38
0.014800015 0.057085719 0.74000001 1.2796072e-38
0.016209537 0.057085719 0.74000001 1.3990303e-38
0.017619055 0.057085712 0.74000001 1.2887572e-38
0.019080013 0.057240002 0.7420001 1.1694392e-38
0.020438097 0.057085715 0.74000001 1.34421e-38
0.021906678 0.057240006 0.7420001 1.5102029e-38
0.023320019 0.057240017 0.74200004 1.4828749e-38
0.02473335 0.057240013 0.74200004 1.4449118e-38
0.026181918 0.057317145 0.74300003 7.8982142e-39
0.027597161 0.057317149 0.74300003 1.2943822e-39
0.029012404 0.057317153 0.74300003 7.4675237e-39
0.030509535 0.057471424 0.74500012 1.364781e-38
0.031928591 0.057471424 0.74500012 1.7530057e-38
0.033347633 0.057471428 0.74500006 2.138463e-38
0.034860015 0.057625718 0.7470001 2.0289056e-38
0.036331449 0.057702873 0.74800003 1.9074364e-38
0.037857156 0.057857152 0.75000012 1.566172e-38
0.039390482 0.058011428 0.75200009 1.2262012e-38
0.040822867 0.058011446 0.75200009 1.2637963e-38
0.042255253 0.05801145 0.75200003 1.2885421e-38
0.043745734 0.058088575 0.75300008 8.7247757e-39
0.045360018 0.058319997 0.75600004 4.5233662e-39
0.046800014 0.058319997 0.75600004 7.2010108e-39
0.048367642 0.058474284 0.75800002 9.7731431e-39
0.050008588 0.058705725 0.76100004 9.0359677e-39
0.051458113 0.058705717 0.7610001 8.3080814e-39
0.053046692 0.058860015 0.76300001 1.1155322e-38
0.054500006 0.058860004 0.76300007 1.3918275e-38
-0.022290463 0.059680961 0.75500005 6.711526e-39
-0.02079713 0.059522871 0.75300002 7.1639114e-39
-0.019337138 0.059443817 0.75200009 8.8323982e-39
-0.017904758 0.059443813 0.75200009 1.0574755e-38
-0.016472369 0.059443817 0.75200003 8.8359715e-39
-0.015039994 0.059443805 0.75200009 7.0831896e-39
-0.013571425 0.059285726 0.75000012 3.5894779e-39
-0.012142842 0.059285726 0.75000012 1.8403113e-40
-0.010685707 0.059127621 0.74800009 3.6917166e-39
-0.0092485668 0.059048563 0.7470001 7.1976084e-39
-0.0078047491 0.058890473 0.74500012 6.8141235e-39
-0.0063857008 0.058890477 0.74500006 6.4288575e-39
-0.0049666534 0.058890469 0.74500006 7.6392318e-39
-0.0035380838 0.058732387 0.74300003 8.8478167e-39
-0.002119998 0.05865334 0.7420001 9.3019874e-39
-0.00070666661 0.058653336 0.7420001 9.7590391e-39
0.00070668431 0.058653347 0.74200004 9.3913636e-39
0.0021142974 0.058495242 0.74000001 9.0060583e-39
0.003533348 0.05865334 0.7420001 1.0119537e-38
0.0049333381 0.058495242 0.74000001 1.1326359e-38
0.0063428725 0.058495242 0.74000001 1.3267148e-38
0.0077523929 0.058495242 0.74000001 1.5195703e-38
0.0091495411 0.058416195 0.73900002 1.1411802e-38
0.010571433 0.058495235 0.74000001 7.6242842e-39
0.011980954 0.05849525 0.74000001 1.0125345e-38
0.013390488 0.058495246 0.74000001 1.2713596e-38
0.014800008 0.058495246 0.74000001 1.2982639e-38
0.01620953 0.05849525 0.74000001 1.3344962e-38
0.017619051 0.058495246 0.74000001 1.2150027e-38
0.019080013 0.058653336 0.7420001 1.095073e-38
0.020493355 0.058653343 0.74200004 1.1877638e-38
0.021906672 0.05865334 0.74200004 1.2813312e-38
0.023320019 0.058653336 0.7420001 1.1703493e-38
0.024733337 0.058653336 0.7420001 1.059993e-38
0.02618192 0.058732394 0.74300003 5.6123699e-39
0.027560001 0.058653332 0.7420001 7.3615814e-40
0.029012397 0.058732387 0.74300003 4.6108633e-39
0.030427638 0.05873239 0.74300003 8.5856898e-39
0.031842873 0.05873239 0.74300009 1.282562e-38
0.033437163 0.059048574 0.7470001 1.7159477e-38
0.034906685 0.059127629 0.74800003 1.5398111e-38
0.036428586 0.059285723 0.75000006 1.3631282e-38
0.037958104 0.059443824 0.75200009 1.2063549e-38
0.039390493 0.059443824 0.75200009 1.0597122e-38
0.040822871 0.059443817 0.75200009 1.0692256e-38
