# .PCD v0.7 - Point Cloud Data file format
VERSION 0.7
FIELDS x y z rgb
SIZE 4 4 4 4
TYPE F F F F
COUNT 1 1 1 1
WIDTH 950
HEIGHT 1
VIEWPOINT 0 0 0 1 0 0 0
POINTS 950
DATA ascii
0.024633352 -0.040117122 0.73900002 1.4143799e-38
0.026040999 -0.040117137 0.73899996 1.4053041e-38
0.027485713 -0.040171422 0.74000001 1.3964449e-38
0.028895281 -0.040171422 0.74000001 1.3055794e-38
0.030386679 -0.040280022 0.74200004 1.2050943e-38
0.03184288 -0.040334292 0.74300003 9.2922469e-39
0.033347633 -0.040442877 0.74500006 6.4424977e-39
0.034906689 -0.040605702 0.74800003 6.3564216e-39
0.036428615 -0.040714286 0.75000006 6.1774169e-39
0.037958123 -0.040822856 0.75200003 6.45185e-39
0.039390497 -0.040822856 0.75200003 6.7269893e-39
0.040822867 -0.040822856 0.75200003 6.5443847e-39
0.042255264 -0.040822871 0.75200003 6.2695957e-39
-0.043919992 -0.039599992 0.75600004 5.3343817e-39
-0.042479984 -0.039600007 0.75600004 6.2509598e-39
-0.041148569 -0.039704777 0.75800002 7.1671484e-39
-0.039599989 -0.039600007 0.75600004 7.8089067e-39
-0.038109511 -0.039547615 0.75500005 8.3584805e-39
-0.036671396 -0.03954763 0.75500005 8.8172936e-39
-0.034999989 -0.039285712 0.75000006 9.184637e-39
-0.033571407 -0.039285727 0.75000006 9.4597848e-39
-0.031928565 -0.039023824 0.74500006 9.6430984e-39
-0.030509491 -0.039023824 0.745 9.9186077e-39
-0.029090472 -0.039023809 0.745 1.0102277e-38
-0.027597141 -0.038919054 0.74300009 1.0561455e-38
-0.026146639 -0.038866676 0.74200004 1.0928797e-38
-0.024666626 -0.038761891 0.74000001 1.1296139e-38
-0.023225687 -0.038709514 0.73900002 1.1663481e-38
-0.021818066 -0.038709499 0.73899996 1.2030823e-38
-0.02041045 -0.038709499 0.73900002 1.2306325e-38
-0.018951435 -0.038604774 0.73700005 1.2581827e-38
-0.017547607 -0.038604774 0.73700005 1.2857338e-38
-0.016121916 -0.038552381 0.73600006 1.2857341e-38
-0.014679958 -0.038447626 0.73399997 1.2857339e-38
-0.013281875 -0.038447611 0.73400003 1.2949173e-38
-0.011851407 -0.038342841 0.73200005 1.3041012e-38
-0.010457142 -0.038342856 0.73200005 1.2581837e-38
-0.009062822 -0.038342841 0.73200005 1.2047023e-38
-0.0076685576 -0.038342856 0.73200005 1.4555335e-38
-0.0062742624 -0.038342841 0.73200005 1.7035605e-38
-0.004879999 -0.038342856 0.73200011 1.7044568e-38
-0.0034857048 -0.038342841 0.73200005 1.6947758e-38
-0.0020885533 -0.038290478 0.73100001 1.7145108e-38
-0.00069615326 -0.038290478 0.73099995 1.732845e-38
0.00069431134 -0.038185708 0.72900003 1.7335295e-38
0.002088611 -0.038290463 0.73100001 1.7318383e-38
0.0034809522 -0.038290463 0.73100001 1.3620517e-38
0.0048733503 -0.038290463 0.73100001 9.9362585e-39
0.0062657483 -0.038290463 0.73099995 1.1571642e-38
0.0076581156 -0.038290478 0.73100001 1.3151202e-38
0.0090505136 -0.038290493 0.73100001 1.4346199e-38
0.01045714 -0.038342856 0.73200011 1.5540045e-38
0.011851435 -0.038342856 0.73200005 1.239825e-38
0.013245755 -0.038342841 0.73200005 9.200183e-39
0.01468003 -0.038447626 0.73400003 1.0497032e-38
0.016078144 -0.038447611 0.73400003 1.1790658e-38
0.01752382 -0.038552381 0.73600006 1.3631712e-38
0.018925721 -0.038552381 0.73600006 1.535998e-38
0.020327652 -0.038552381 0.73600006 1.4969574e-38
0.021759065 -0.038604774 0.73700005 1.4510769e-38
0.023162866 -0.038604759 0.73700005 1.4327472e-38
0.024633378 -0.038709514 0.73900002 1.4143806e-38
0.026040968 -0.038709514 0.73900002 1.3960856e-38
0.027485762 -0.038761891 0.74000001 1.3691437e-38
0.028895276 -0.038761891 0.74000001 1.3613941e-38
0.03038669 -0.038866691 0.7420001 1.3436038e-38
0.031928588 -0.039023824 0.74500006 1.1788049e-38
0.033437151 -0.039128564 0.74700004 1.0127436e-38
0.03490667 -0.039180957 0.74800009 8.0072885e-39
0.036428586 -0.039285712 0.75000006 5.8072008e-39
0.037958115 -0.039390467 0.75200003 6.2689077e-39
0.039390512 -0.039390467 0.75200003 6.7280641e-39
0.040822886 -0.039390482 0.75200003 6.3607011e-39
0.042311423 -0.03944286 0.75300002 5.9011663e-39
-0.043919992 -0.038160004 0.75600004 5.1521513e-39
-0.042479977 -0.038160004 0.75600004 6.1609306e-39
-0.04103997 -0.038160019 0.75600004 7.2586322e-39
-0.039599963 -0.038160004 0.75600004 7.7163551e-39
-0.038109507 -0.038109519 0.75500005 8.2659261e-39
-0.036574293 -0.038008578 0.75300002 8.6336184e-39
-0.035093319 -0.037958093 0.75200009 9.0927945e-39
-0.033571403 -0.037857138 0.75000006 9.3682982e-39
-0.032014292 -0.037705712 0.74700004 9.7349241e-39
-0.030591428 -0.037705697 0.74700004 9.9185965e-39
-0.029090475 -0.037604757 0.74500006 1.0102266e-38
-0.027671428 -0.037604757 0.74500006 1.0469607e-38
-0.026181903 -0.037503831 0.74300003 1.0928793e-38
-0.02473332 -0.037453346 0.7420001 1.1296142e-38
-0.023225689 -0.037301891 0.73900002 1.1663484e-38
-0.021818042 -0.037301891 0.73899996 1.2030826e-38
-0.020410452 -0.037301891 0.73899996 1.2306325e-38
-0.018951427 -0.03720095 0.73700005 1.2306317e-38
-0.0175476 -0.03720095 0.73700005 1.2306317e-38
-0.016121902 -0.03715048 0.73600006 1.2398152e-38
-0.014720002 -0.03715048 0.73600006 1.2489988e-38
-0.013281855 -0.03704951 0.73400003 1.2683703e-38
-0.011883772 -0.037049539 0.73400003 1.285733e-38
-0.010485684 -0.037049524 0.73399997 1.2219145e-38
-0.0090628183 -0.036948569 0.73200005 1.1590759e-38
-0.0076894891 -0.03704951 0.73400003 1.502681e-38
-0.0062742596 -0.036948569 0.73200005 1.8450192e-38
-0.0048799952 -0.036948584 0.73200005 1.7702592e-38
-0.003485701 -0.036948569 0.73200005 1.7069111e-38
-0.0020914366 -0.036948569 0.73200011 1.7798096e-38
-0.00069617562 -0.036898099 0.73100001 1.8539263e-38
0.00069622241 -0.036898099 0.73100001 1.8353106e-38
0.0020885905 -0.036898099 0.73100001 1.8262948e-38
0.0034809886 -0.036898099 0.73100001 1.6302718e-38
0.0048733307 -0.036898084 0.73100001 1.4246051e-38
0.0062657278 -0.036898084 0.73100001 1.4719166e-38
0.0076581258 -0.036898084 0.73099995 1.5080061e-38
0.0090628797 -0.036948554 0.73200005 1.535486e-38
0.010457143 -0.036948569 0.73200011 1.5635735e-38
0.011851437 -0.036948554 0.73200005 1.499897e-38
0.013245733 -0.036948569 0.73200005 1.4363378e-38
0.014680025 -0.03704951 0.73400003 1.4456371e-38
0.016078139 -0.03704951 0.73399997 1.4550032e-38
0.017523803 -0.03715048 0.73600006 1.481696e-38
0.018925734 -0.03715048 0.73600006 1.5082674e-38
0.020327635 -0.037150495 0.73600006 1.4883111e-38
0.02172954 -0.03715048 0.73600006 1.469408e-38
0.023162873 -0.03720095 0.73700005 1.4418953e-38
0.024566671 -0.03720095 0.73700005 1.4234931e-38
0.026040968 -0.037301876 0.73900002 1.4051983e-38
0.027485756 -0.037352361 0.74000001 1.3868994e-38
0.028895268 -0.037352376 0.74000001 1.4164553e-38
0.030386675 -0.037453316 0.7420001 1.4545985e-38
0.031928554 -0.037604757 0.74500006 1.2525344e-38
0.03343714 -0.037705712 0.74700004 1.050594e-38
0.034860004 -0.037705727 0.7470001 8.1059189e-39
0.036428586 -0.037857138 0.75000006 5.8061204e-39
0.037857167 -0.037857138 0.75000012 6.2678427e-39
0.039390504 -0.037958093 0.75200003 6.7284215e-39
0.040822878 -0.037958093 0.75200003 6.4525226e-39
0.042255253 -0.037958108 0.75200003 6.267781e-39
0.043687649 -0.037958093 0.75200009 6.7276802e-39
-0.042592365 -0.036817141 0.75800002 6.1652074e-39
-0.041148562 -0.036817141 0.75800002 7.2607733e-39
-0.039599989 -0.03672 0.75600004 7.7160006e-39
-0.038109526 -0.036671408 0.75500005 8.0826167e-39
-0.036574304 -0.036574297 0.75300002 8.5417857e-39
-0.035093326 -0.036525704 0.75200009 8.9091235e-39
-0.0335714 -0.036428578 0.75000006 9.3686569e-39
-0.03205714 -0.036331423 0.74800003 9.7352857e-39
-0.030591438 -0.036282845 0.74700004 9.9186021e-39
-0.029090477 -0.036185719 0.74500006 1.0010438e-38
-0.02767143 -0.036185704 0.74500006 1.0469615e-38
-0.026181867 -0.036088578 0.74300003 1.0928797e-38
-0.024733312 -0.036040001 0.7420001 1.1296143e-38
-0.023257127 -0.03594286 0.74000001 1.1663489e-38
-0.021818072 -0.035894267 0.73900002 1.2030837e-38
-0.020410426 -0.035894267 0.73899996 1.2306332e-38
-0.01895142 -0.035797156 0.73700005 1.2030816e-38
-0.017547593 -0.035797141 0.73700005 1.1755306e-38
-0.016143795 -0.035797156 0.73700005 1.1938975e-38
-0.014719989 -0.035748579 0.73600006 1.205527e-38
-0.013281859 -0.035651423 0.73399997 1.2345908e-38
-0.011883776 -0.035651408 0.73400003 1.2607e-38
-0.010514282 -0.035748579 0.73600006 1.1847139e-38
-0.0090875793 -0.035651438 0.73400003 1.1151343e-38
-0.0077104736 -0.035748564 0.73600006 1.5510444e-38
-0.0062913839 -0.035651438 0.73400003 1.9728049e-38
-0.0048932973 -0.035651423 0.73399997 1.8429425e-38
-0.0034856992 -0.035554267 0.73200005 1.7061601e-38
-0.0020914348 -0.035554297 0.73200005 1.8346963e-38
-0.0006961663 -0.03550569 0.73100001 1.9640564e-38
0.00069620193 -0.035505705 0.73100001 1.9457622e-38
0.0020885998 -0.035505705 0.73100001 1.9174885e-38
0.0034857411 -0.035554282 0.73200005 1.889753e-38
0.0048800055 -0.035554282 0.73200005 1.8612318e-38
0.0062742997 -0.035554282 0.73200005 1.7887659e-38
0.0076685892 -0.035554282 0.73200011 1.7033108e-38
0.0090628834 -0.035554282 0.73200005 1.6357207e-38
0.010485738 -0.035651438 0.73400003 1.5739467e-38
0.011883851 -0.035651423 0.73400003 1.7690252e-38
0.013281934 -0.035651438 0.73400003 1.9521989e-38
0.014680047 -0.035651423 0.73400003 1.8414631e-38
0.016121911 -0.035748579 0.73600006 1.7210008e-38
0.017523816 -0.035748564 0.73600006 1.6003231e-38
0.018925717 -0.035748579 0.73600006 1.4797092e-38
0.020355254 -0.035797156 0.73700005 1.4785892e-38
0.021759054 -0.035797141 0.73700005 1.4785909e-38
0.02322573 -0.035894267 0.73900002 1.451042e-38
0.024633376 -0.035894267 0.73899996 1.4234926e-38
0.026076237 -0.035942845 0.74000001 1.4143105e-38
0.027485749 -0.03594283 0.74000001 1.3966941e-38
0.028973356 -0.036040001 0.74200004 1.4813524e-38
0.030386686 -0.036040001 0.7420001 1.5648024e-38
0.031928584 -0.036185719 0.745 1.3261464e-38
0.033437155 -0.03628286 0.7470001 1.0869694e-38
0.035000008 -0.036428578 0.75000006 8.2877976e-39
0.036525726 -0.036525704 0.75200003 5.7153555e-39
0.037958127 -0.036525719 0.75200003 6.2674727e-39
0.039390497 -0.036525704 0.75200003 6.727704e-39
0.040877156 -0.036574282 0.75300002 6.6362048e-39
0.042311423 -0.036574282 0.75300002 6.5443721e-39
-0.042592399 -0.035373323 0.75800008 5.3350726e-39
-0.041039996 -0.035279997 0.75600004 7.5359085e-39
-0.039599989 -0.035279997 0.75600004 7.8089165e-39
-0.038008586 -0.035140015 0.75300008 8.0826195e-39
-0.036525708 -0.035093345 0.75200009 8.4499517e-39
-0.035093334 -0.035093345 0.75200003 8.9087662e-39
-0.033571403 -0.035000004 0.75000006 9.2764627e-39
-0.032057133 -0.034906663 0.74800009 9.6430942e-39
-0.030632397 -0.034906663 0.74800009 9.8267722e-39
-0.029090483 -0.034766681 0.74500006 1.010228e-38
-0.027671406 -0.034766667 0.74500006 1.0469622e-38
-0.026181892 -0.034673341 0.74300003 1.0836965e-38
-0.024733324 -0.03462667 0.74200004 1.1296143e-38
-0.023257103 -0.034533314 0.74000001 1.175533e-38
-0.021818075 -0.034486644 0.73900002 1.1939011e-38
-0.020410426 -0.034486659 0.73899996 1.2122669e-38
-0.018951442 -0.034393348 0.73700005 1.184715e-38
-0.017547611 -0.034393348 0.73700005 1.1663474e-38
-0.016143814 -0.034393333 0.73700005 1.3622506e-38
-0.014719976 -0.034346662 0.73600006 1.5578086e-38
-0.013318101 -0.034346662 0.73600006 1.5487099e-38
-0.01191617 -0.034346662 0.73600006 1.5398362e-38
-0.010514295 -0.034346677 0.73600006 1.4830717e-38
-0.0091123637 -0.034346677 0.73600006 1.4289923e-38
-0.0077104606 -0.034346648 0.73600006 1.6878353e-38
-0.0063085854 -0.034346677 0.73600006 1.9451158e-38
-0.0048932768 -0.034253336 0.73399997 1.8898686e-38
-0.0034951949 -0.034253336 0.73400003 1.8349474e-38
-0.0020914311 -0.034160011 0.73200011 1.8995556e-38
-0.00069618493 -0.03411334 0.73100001 1.9738131e-38
0.00069621124 -0.03411334 0.73100001 1.9267831e-38
0.0020914497 -0.034159996 0.73200005 1.8887581e-38
0.0034857439 -0.034159981 0.73200005 1.9546576e-38
0.0048800083 -0.034159996 0.73200005 2.0203429e-38
0.0062743025 -0.034159996 0.73200005 1.8816225e-38
0.0076895636 -0.034253336 0.73400003 1.7429615e-38
0.0090876762 -0.034253322 0.73399997 1.6012872e-38
0.010485759 -0.034253336 0.73400003 1.4651851e-38
0.011883846 -0.034253336 0.73399997 1.769714e-38
0.01331809 -0.034346662 0.73600006 2.0732033e-38
0.014680042 -0.034253322 0.73399997 1.906502e-38
0.016121924 -0.034346677 0.73600006 1.7483695e-38
0.017523799 -0.034346677 0.73600006 1.5902728e-38
0.01892573 -0.034346677 0.73600006 1.4418599e-38
0.020355262 -0.034393318 0.73700005 1.4602217e-38
0.021759061 -0.034393333 0.73700005 1.4785902e-38
0.023225754 -0.034486659 0.73900002 1.4510409e-38
0.024666717 -0.034533329 0.74000001 1.4327118e-38
0.026076229 -0.034533329 0.74000001 1.4143467e-38
0.027485743 -0.034533344 0.74000001 1.4051974e-38
0.028973341 -0.03462667 0.74200004 1.4166753e-38
0.030427625 -0.034673341 0.74300009 1.4277679e-38
0.03192858 -0.034766667 0.74500006 1.2158363e-38
0.033481911 -0.034906678 0.74800009 9.9545693e-39
0.035000041 -0.034999989 0.75000006 7.8293376e-39
0.036428593 -0.034999974 0.75000006 5.8053918e-39
0.037958119 -0.03509333 0.75200003 6.1752673e-39
0.039442845 -0.035140015 0.75300002 6.544033e-39
0.040985726 -0.035233326 0.75500005 6.6354986e-39
0.042423815 -0.035233341 0.75500005 6.8202457e-39
-0.041039966 -0.033840008 0.75600004 7.8121338e-39
-0.039599981 -0.033839993 0.75600004 7.9003918e-39
-0.038109519 -0.033795245 0.75500005 7.9911441e-39
-0.036574304 -0.033705704 0.75300002 8.4503146e-39
-0.035140008 -0.033705719 0.75300002 8.8172922e-39
-0.033660911 -0.033660956 0.75200003 9.1846286e-39
-0.032142814 -0.033571415 0.75000006 9.5516189e-39
-0.030632384 -0.033481888 0.74800003 9.8267736e-39
-0.029168539 -0.03343714 0.74700004 1.010228e-38
-0.027671408 -0.033347629 0.74500006 1.0469622e-38
-0.026181914 -0.033258103 0.74300009 1.0745134e-38
-0.024733312 -0.03321334 0.7420001 1.1296151e-38
-0.023257108 -0.033123814 0.74000001 1.175534e-38
-0.021818072 -0.03307905 0.73899996 1.1847187e-38
-0.020410456 -0.03307905 0.73900002 1.1847181e-38
-0.01900281 -0.033079021 0.73899996 1.175534e-38
-0.017547604 -0.032989524 0.73700005 1.1597566e-38
-0.016143806 -0.032989524 0.73700005 1.5401992e-38
-0.014740009 -0.032989539 0.73700005 1.9081212e-38
-0.013318086 -0.032944761 0.73600006 1.8626041e-38
-0.011916185 -0.032944761 0.73600006 1.806743e-38
-0.010528557 -0.032989524 0.73700005 1.7695719e-38
-0.0091123786 -0.032944761 0.73600006 1.7333848e-38
-0.0077104475 -0.032944761 0.73600006 1.8260903e-38
-0.0063085705 -0.032944776 0.73600006 1.9178167e-38
-0.0049066395 -0.032944776 0.73600006 1.9365052e-38
-0.0035047643 -0.032944761 0.73600006 1.9546931e-38
-0.0020971159 -0.032855235 0.73400003 1.9731322e-38
-0.00069713115 -0.032765709 0.73200005 1.9822796e-38
0.00069713511 -0.032765709 0.73200011 1.9171693e-38
0.0020914534 -0.032765709 0.73200005 1.8534595e-38
0.0034857476 -0.032765709 0.73200005 2.019805e-38
0.0048800111 -0.032765724 0.73200005 2.1762483e-38
0.0062914463 -0.03285525 0.73400003 1.9744256e-38
0.0076895589 -0.03285522 0.73400003 1.7687506e-38
0.0090876715 -0.03285522 0.73399997 1.5612819e-38
0.010485754 -0.032855235 0.73400003 1.3549778e-38
0.011916198 -0.032944761 0.73600006 1.7805452e-38
0.013318104 -0.032944761 0.73600006 2.1931246e-38
0.014720005 -0.032944761 0.73600006 1.9813304e-38
0.016121937 -0.032944761 0.73600006 1.7665531e-38
0.017523812 -0.032944776 0.73600006 1.5888328e-38
0.018951414 -0.032989524 0.73700005 1.405124e-38
0.020355241 -0.032989524 0.73700005 1.4418562e-38
0.021759043 -0.032989539 0.73700005 1.4694068e-38
0.023225754 -0.033079036 0.73899996 1.4510395e-38
0.02466671 -0.033123814 0.74000001 1.4327104e-38
0.026076224 -0.033123814 0.74000001 1.4235289e-38
0.02756002 -0.03321331 0.74200004 1.4150253e-38
0.028973352 -0.033213325 0.74200004 1.3523891e-38
0.030427635 -0.033258088 0.74300003 1.288682e-38
0.031928577 -0.033347629 0.74500006 1.0955803e-38
0.033481926 -0.033481903 0.74800003 9.0239852e-39
0.035000041 -0.03357143 0.75000006 7.4526952e-39
0.036428593 -0.03357143 0.75000006 5.8054002e-39
0.038008563 -0.033705734 0.75300008 6.0837821e-39
0.039442863 -0.033705704 0.75300002 6.3589229e-39
0.04098573 -0.033795245 0.75500005 6.7255418e-39
-0.039599985 -0.032400005 0.75600004 7.6259587e-39
-0.038109511 -0.032357149 0.75500005 7.8989499e-39
-0.036671422 -0.032357149 0.75500005 8.3584819e-39
-0.035140019 -0.032271422 0.75300008 8.817295e-39
-0.033660922 -0.032228567 0.75200003 9.2761068e-39
-0.032142818 -0.032142855 0.75000006 9.643097e-39
-0.030632379 -0.032057159 0.74800009 9.9186105e-39
-0.02916855 -0.032014288 0.74700004 1.0194117e-38
-0.027671436 -0.031928562 0.74500006 1.0561458e-38
-0.026181877 -0.03184285 0.74300003 1.0928809e-38
-0.024733329 -0.031799994 0.74200004 1.129616e-38
-0.023257118 -0.031714268 0.74000001 1.1663514e-38
-0.021847574 -0.031714283 0.73999995 1.1755361e-38
-0.020410459 -0.031671412 0.73900002 1.1939035e-38
-0.01900281 -0.031671412 0.73899996 1.1856887e-38
-0.017547596 -0.031585716 0.73700005 1.1885369e-38
-0.016143799 -0.031585716 0.73700005 1.5587989e-38
-0.014740003 -0.031585716 0.73700011 1.9280412e-38
-0.013318104 -0.03154286 0.73600006 1.8350567e-38
-0.011916172 -0.03154286 0.73600006 1.7426832e-38
-0.01052855 -0.031585701 0.73700005 1.7517952e-38
-0.0091247521 -0.031585731 0.73700005 1.761948e-38
-0.0077209491 -0.031585716 0.73700005 1.8444211e-38
-0.0063085593 -0.03154286 0.73600006 1.9268573e-38
-0.0049066581 -0.03154286 0.73600006 1.9547301e-38
-0.0035047513 -0.03154286 0.73600006 1.9823165e-38
-0.0020971214 -0.031457134 0.73400003 2.000791e-38
-0.00069712929 -0.031371422 0.73200005 2.0282694e-38
0.00069713697 -0.031371437 0.73200011 2.0283406e-38
0.0020914571 -0.031371437 0.73200005 2.0197328e-38
0.0034952722 -0.031457134 0.73400003 2.0749077e-38
0.0048933849 -0.031457134 0.73399997 2.1210038e-38
0.0062914677 -0.031457148 0.73400003 1.8534242e-38
0.0076895803 -0.031457134 0.73399997 1.5942594e-38
0.0090876631 -0.031457148 0.73400003 1.5005061e-38
0.010485751 -0.031457134 0.73399997 1.4209801e-38
0.011916211 -0.031542845 0.73600006 1.8077344e-38
0.013318087 -0.03154286 0.73600006 2.1934805e-38
0.014720018 -0.03154286 0.73600006 1.9620991e-38
0.01612192 -0.031542875 0.73600006 1.7384601e-38
0.017547624 -0.031585716 0.73700005 1.5711063e-38
0.018951422 -0.031585731 0.73700005 1.4051223e-38
0.020355249 -0.031585731 0.73700005 1.4418579e-38
0.021759048 -0.031585716 0.73700005 1.4694069e-38
0.02325719 -0.031714268 0.74000001 1.451038e-38
0.024666704 -0.031714268 0.74000001 1.4418567e-38
0.026076216 -0.031714298 0.74000001 1.4328187e-38
0.027560031 -0.031799994 0.74200004 1.4239206e-38
0.028973363 -0.031799994 0.74200004 1.2966407e-38
0.030427638 -0.031842865 0.74300009 1.1779361e-38
0.032057147 -0.032057144 0.74800003 1.0124529e-38
0.033481911 -0.032057144 0.74800009 8.558677e-39
0.03509336 -0.032228582 0.75200003 7.5510131e-39
0.036574289 -0.032271422 0.75300002 6.5429624e-39
0.038008582 -0.032271437 0.75300002 6.6344266e-39
0.039442852 -0.032271437 0.75300002 6.7255432e-39
0.040985737 -0.032357134 0.755 6.8180947e-39
-0.038109504 -0.030919023 0.755 7.8081892e-39
-0.036671389 -0.030919038 0.75500005 8.3584791e-39
-0.035233304 -0.030919038 0.755 8.8172936e-39
-0.033705711 -0.030837141 0.75300002 9.2761082e-39
-0.03214284 -0.030714281 0.75000006 9.7349297e-39
-0.030632362 -0.030632369 0.74800003 1.0010439e-38
-0.029168561 -0.030591421 0.74700004 1.0194111e-38
-0.027671438 -0.030509524 0.74500006 1.065329e-38
-0.026181899 -0.030427612 0.74300009 1.1020641e-38
-0.024766639 -0.030427612 0.74300003 1.1296156e-38
-0.023319984 -0.030386664 0.74200004 1.1479835e-38
-0.021847581 -0.030304752 0.74000001 1.175535e-38
-0.020410433 -0.030263804 0.73900002 1.193905e-38
-0.019002844 -0.030263804 0.73900002 1.2030915e-38
-0.017595194 -0.030263804 0.73899996 1.2164128e-38
-0.016143791 -0.030181907 0.73700005 1.5783501e-38
-0.014740022 -0.030181922 0.73700005 1.9365793e-38
-0.013336195 -0.030181907 0.73700005 1.8068249e-38
-0.011932395 -0.030181907 0.73700005 1.6782193e-38
-0.010528568 -0.030181922 0.73700005 1.7329977e-38
-0.0091247708 -0.030181922 0.73700005 1.7891761e-38
-0.0077209435 -0.030181922 0.73700005 1.8627529e-38
-0.0063085761 -0.030140974 0.73600006 1.9364003e-38
-0.004906645 -0.030140944 0.73600006 1.9732058e-38
-0.0034952117 -0.030059047 0.73400003 2.0010077e-38
-0.0020970991 -0.030059062 0.73400003 2.0377419e-38
-0.00069712556 -0.02997715 0.73200005 2.0747269e-38
0.0006971407 -0.029977165 0.73200005 2.1298279e-38
0.0020914348 -0.02997715 0.73200005 2.1851454e-38
0.0034952676 -0.030059032 0.73400003 2.1299015e-38
0.0048933802 -0.030059032 0.73399997 2.0651831e-38
0.006291463 -0.030059047 0.73400003 1.7423569e-38
0.0076895757 -0.030059032 0.73399997 1.4094076e-38
0.0090876585 -0.030059047 0.73400003 1.4438722e-38
0.010485771 -0.030059047 0.73399997 1.4843749e-38
0.011883855 -0.030059047 0.73400003 1.8359703e-38
0.013281967 -0.030059032 0.73399997 2.1841914e-38
0.014680025 -0.030059032 0.73400003 1.9535262e-38
0.016143803 -0.030181922 0.73700005 1.7111247e-38
0.017547632 -0.030181907 0.73700005 1.5612404e-38
0.018951429 -0.030181907 0.73700005 1.4051222e-38
0.020355256 -0.030181907 0.73700005 1.4418585e-38
0.021818131 -0.030263804 0.73900002 1.4694087e-38
0.023257185 -0.030304752 0.74000001 1.4602246e-38
0.024666697 -0.030304752 0.74000001 1.4418938e-38
0.026076239 -0.030304752 0.74000001 1.4327107e-38
0.027560042 -0.030386664 0.74200004 1.4241717e-38
0.028973348 -0.030386664 0.74200004 1.2414325e-38
0.030509524 -0.030509539 0.74500006 1.0581924e-38
0.031928599 -0.030509509 0.745 9.3877076e-39
0.033571459 -0.030714281 0.75000006 8.1038113e-39
0.035000015 -0.030714281 0.75000006 7.6489456e-39
0.036574274 -0.030837156 0.75300002 7.1868941e-39
0.038008567 -0.030837156 0.75300008 7.0929034e-39
0.03954763 -0.030919038 0.75500005 7.0017756e-39
0.041040003 -0.030960001 0.75600004 6.9106477e-39
-0.036671415 -0.029480942 0.75500005 8.2666408e-39
-0.035279978 -0.029519998 0.75600004 8.8169349e-39
-0.033705719 -0.02940286 0.75300008 9.2761096e-39
-0.032228541 -0.029363818 0.75200003 9.8267624e-39
-0.030632379 -0.029207624 0.74800003 1.0102268e-38
-0.02916855 -0.029168569 0.74700004 1.0377777e-38
-0.02767141 -0.029090472 0.745 1.0653286e-38
-0.026181888 -0.029012404 0.74300003 1.1020636e-38
-0.024766635 -0.029012389 0.74300003 1.1204314e-38
-0.023319973 -0.028973334 0.74200004 1.1479827e-38
-0.021847587 -0.028895222 0.74000001 1.1663503e-38
-0.020438075 -0.028895237 0.74000001 1.1847232e-38
-0.019002844 -0.028856166 0.73900002 1.1950961e-38
-0.017595198 -0.028856166 0.73899996 1.1986937e-38
-0.016143812 -0.028778113 0.73700005 1.56827e-38
-0.014740014 -0.028778113 0.73700005 1.9371536e-38
-0.013336187 -0.028778099 0.73700005 1.8535321e-38
-0.01193239 -0.028778099 0.73700005 1.7700909e-38
-0.010557108 -0.028856181 0.73899996 1.8072913e-38
-0.0091247633 -0.028778099 0.73700005 1.854071e-38
-0.0077209361 -0.028778099 0.73700005 1.9276122e-38
-0.0063085612 -0.028739057 0.73600006 2.0103357e-38
-0.0049066599 -0.028739057 0.73600006 2.019555e-38
-0.003504755 -0.028739057 0.73600006 2.0382811e-38
-0.0020971047 -0.028660946 0.73399997 2.029062e-38
-0.00069712184 -0.028582864 0.73200005 2.0295283e-38
0.00069714256 -0.028582878 0.73200011 2.0290261e-38
0.0020914385 -0.028582864 0.73200005 2.0295283e-38
0.0034952872 -0.028660946 0.73399997 1.9920766e-38
0.0048933718 -0.028660931 0.73400003 1.9552657e-38
0.0062914845 -0.028660946 0.73400003 1.741779e-38
0.0076895673 -0.02866096 0.73400003 1.5367249e-38
0.0090876548 -0.02866096 0.73399997 1.5647749e-38
0.010485739 -0.02866096 0.73400003 1.6040547e-38
0.011883851 -0.028660946 0.73399997 1.8437583e-38
0.013281933 -0.02866096 0.73400003 2.0834258e-38
0.014740012 -0.028778099 0.73700005 1.9346935e-38
0.01614381 -0.028778099 0.73700005 1.7933462e-38
0.017547639 -0.028778084 0.73700005 1.5986195e-38
0.019002894 -0.028856181 0.73900002 1.4143056e-38
0.020355264 -0.028778113 0.73700005 1.441859e-38
0.021847663 -0.028895237 0.74000001 1.4694105e-38
0.023257177 -0.028895237 0.74000001 1.4602277e-38
0.024666689 -0.028895237 0.74000001 1.4510788e-38
0.026076233 -0.028895237 0.74000001 1.4420732e-38
0.027560027 -0.028973348 0.74200004 1.4333195e-38
0.02897336 -0.028973334 0.74200004 1.2596566e-38
0.03050955 -0.029090486 0.745 1.0950353e-38
0.031928599 -0.029090472 0.74500006 9.3887992e-39
0.033571467 -0.029285707 0.75 7.8301055e-39
0.035139993 -0.02940286 0.75300002 7.4634782e-39
0.036574289 -0.029402845 0.75300002 7.1872612e-39
0.038109548 -0.029480956 0.75500005 6.9106841e-39
0.039547633 -0.029480942 0.75500005 6.634442e-39
0.041040033 -0.029519998 0.75600004 6.6351412e-39
0.042480018 -0.029519998 0.75600004 6.7269823e-39
-0.036671404 -0.02804286 0.75500005 8.2666366e-39
-0.035280004 -0.028080024 0.75600004 8.7254553e-39
-0.033705708 -0.027968578 0.75300002 9.3675863e-39
-0.032142811 -0.027857132 0.75000006 9.9185979e-39
-0.030632369 -0.02778285 0.74800003 1.0194104e-38
-0.029168559 -0.027745701 0.74700004 1.0469614e-38
-0.027671415 -0.027671419 0.74500006 1.0745124e-38
-0.026181884 -0.027597152 0.74300003 1.0928797e-38
-0.024766656 -0.027597152 0.74300009 1.1204305e-38
-0.023319962 -0.027560003 0.74200004 1.1479821e-38
-0.021906655 -0.027559988 0.74200004 1.1663502e-38
-0.020438083 -0.027485706 0.74000001 1.1755362e-38
-0.019002818 -0.027448572 0.73900002 1.1755388e-38
-0.017595228 -0.027448572 0.73900002 1.1788493e-38
-0.016187582 -0.027448557 0.73899996 1.5588649e-38
-0.014740006 -0.027374275 0.73700011 1.9358948e-38
-0.013336179 -0.027374275 0.73700005 1.9000238e-38
-0.011932381 -0.02737429 0.73700011 1.8622134e-38
-0.010528554 -0.027374275 0.73700005 1.8903379e-38
-0.0091247568 -0.027374305 0.73700005 1.9085626e-38
-0.0077209277 -0.027374305 0.73700005 2.0015829e-38
-0.0063085789 -0.027337141 0.73600006 2.0832303e-38
-0.0049066478 -0.027337141 0.73600006 2.0746923e-38
-0.0034951949 -0.027262859 0.73400003 2.0649709e-38
-0.0020970823 -0.027262874 0.73399997 2.0290261e-38
-0.00069711998 -0.027188577 0.73200005 1.9819228e-38
0.00069714442 -0.027188562 0.73200011 1.9272502e-38
0.0020914404 -0.027188562 0.73200005 1.8618537e-38
0.0034952825 -0.027262844 0.73399997 1.853639e-38
0.0048933672 -0.027262859 0.73400003 1.8338702e-38
0.0062914798 -0.027262844 0.73399997 1.7511438e-38
0.0076895626 -0.027262859 0.73400003 1.657007e-38
0.0090876753 -0.027262844 0.73399997 1.6835477e-38
0.010485759 -0.027262844 0.73400003 1.7123899e-38
0.011916219 -0.027337126 0.73600006 1.8515781e-38
0.013318094 -0.027337141 0.73600006 1.9811189e-38
0.014740019 -0.02737429 0.73700005 1.9267736e-38
0.016143817 -0.02737429 0.73700005 1.8675361e-38
0.017547645 -0.02737429 0.73700005 1.6438915e-38
0.019002894 -0.027448572 0.73899996 1.4234893e-38
0.02041051 -0.027448572 0.73900002 1.4510429e-38
0.021847658 -0.027485691 0.74000001 1.4694101e-38
0.02325717 -0.027485706 0.74000001 1.4602267e-38
0.024733346 -0.027560003 0.74200004 1.4511138e-38
0.026146676 -0.027560003 0.7420001 1.442001e-38
0.027560038 -0.027559988 0.74200004 1.4333916e-38
0.028973345 -0.027560018 0.74200004 1.2779888e-38
0.030509548 -0.027671419 0.74500006 1.1223711e-38
0.032142885 -0.027857132 0.75 9.3873657e-39
0.033571467 -0.027857132 0.75000006 7.4616845e-39
0.035139982 -0.027968563 0.75300002 7.279803e-39
0.036574274 -0.027968578 0.75300002 7.0957789e-39
0.038109526 -0.028042845 0.75500005 6.6362496e-39
0.039599996 -0.028080009 0.75600004 6.1763407e-39
0.041040007 -0.028080009 0.75600004 6.4518346e-39
0.042479992 -0.028080009 0.75600004 6.7273411e-39
-0.036719985 -0.026640005 0.75600004 8.2677086e-39
-0.03537333 -0.026710473 0.75800008 8.8176468e-39
-0.03379523 -0.026604779 0.75500005 9.3679437e-39
-0.032228556 -0.02649904 0.75200003 9.9185979e-39
-0.030714257 -0.026428573 0.75000006 1.0194104e-38
-0.029168569 -0.026322834 0.74700004 1.0469615e-38
-0.027745703 -0.026322849 0.74700004 1.0745126e-38
-0.026252374 -0.026252396 0.74500006 1.1020628e-38
-0.024766646 -0.026181899 0.74300003 1.129613e-38
-0.02335142 -0.026181914 0.74300003 1.1571651e-38
-0.021906644 -0.026146658 0.74200004 1.1755336e-38
-0.020493314 -0.026146673 0.7420001 1.2030835e-38
-0.019028548 -0.026076175 0.74000001 1.1943298e-38
-0.017595202 -0.026040934 0.73900002 1.1955957e-38
-0.016187582 -0.026040919 0.73899996 1.3811425e-38
-0.014779966 -0.026040934 0.73900002 1.576119e-38
-0.01337235 -0.026040934 0.73900002 1.5477845e-38
-0.011932374 -0.025970481 0.73700011 1.521023e-38
-0.010528573 -0.025970481 0.73700005 1.5292379e-38
-0.0091494676 -0.026040949 0.73899996 1.5483953e-38
-0.0077209482 -0.025970466 0.73700005 1.5937402e-38
-0.0063085658 -0.02593524 0.73600006 1.6493436e-38
-0.0049066646 -0.025935255 0.73600006 1.6487695e-38
-0.0034952005 -0.025864758 0.73399997 1.6495229e-38
-0.0020971177 -0.025864758 0.73400003 1.6301156e-38
-0.00069711439 -0.02579429 0.73200005 1.6204264e-38
0.00069715001 -0.025794275 0.73200011 1.59237e-38
0.002091446 -0.02579429 0.73200005 1.5727122e-38
0.0035047559 -0.02593524 0.73600006 1.6011962e-38
0.0048933867 -0.025864758 0.73400003 1.6284237e-38
0.0062914453 -0.025864758 0.73400003 1.610953e-38
0.0076895589 -0.025864758 0.73399997 1.5923267e-38
0.0090876427 -0.025864758 0.73400003 1.5909554e-38
0.010485755 -0.025864758 0.73399997 1.5909928e-38
0.011916202 -0.02593524 0.73600006 1.6656107e-38
0.013318108 -0.02593524 0.73600006 1.7504219e-38
0.01472001 -0.025935225 0.73600006 1.7222324e-38
0.016143799 -0.025970496 0.73700005 1.6928734e-38
0.017547628 -0.025970496 0.73700005 1.5711765e-38
0.019002892 -0.026040934 0.73899996 1.4602236e-38
0.020438138 -0.026076175 0.74000001 1.4694103e-38
0.02184765 -0.026076175 0.74000001 1.4785934e-38
0.023320025 -0.026146643 0.74200004 1.4694452e-38
0.024733357 -0.026146673 0.74200004 1.4602966e-38
0.026146661 -0.026146673 0.74200004 1.4512916e-38
0.027560024 -0.026146658 0.74200004 1.4425394e-38
0.029012414 -0.026181899 0.74300003 1.3055403e-38
0.030509545 -0.026252382 0.74500006 1.1776524e-38
0.032014288 -0.026322849 0.7470001 9.3859307e-39
0.0334819 -0.02635809 0.74800003 7.0936237e-39
0.03514 -0.026534282 0.75300002 7.0946928e-39
0.036574293 -0.026534297 0.75300002 7.0954159e-39
0.038109556 -0.026604764 0.755 6.7277208e-39
0.0396 -0.026640005 0.75600004 6.4518486e-39
0.041040011 -0.026640005 0.75600004 6.6355112e-39
-0.036914241 -0.025333323 0.76000005 8.3599028e-39
-0.035466623 -0.025333323 0.76000005 8.8176468e-39
-0.033839963 -0.025200002 0.75600004 9.3683024e-39
-0.032228559 -0.025066666 0.75200003 9.9189609e-39
-0.030796163 -0.025066681 0.75200003 1.0194113e-38
-0.029285701 -0.024999999 0.75000006 1.0469622e-38
-0.027745716 -0.024899989 0.74700004 1.0745131e-38
-0.026252348 -0.024833322 0.745 1.1020632e-38
-0.024766671 -0.024766676 0.74300003 1.138797e-38
-0.02335141 -0.024766661 0.74300003 1.1663485e-38
-0.021936158 -0.024766684 0.74300003 1.1939e-38
-0.020493329 -0.024733335 0.7420001 1.2214504e-38
-0.019028556 -0.02466666 0.74000001 1.2214502e-38
-0.017619014 -0.024666652 0.74000001 1.2127018e-38
-0.016187586 -0.024633326 0.73900002 1.2122759e-38
-0.014779968 -0.024633318 0.73899996 1.20453e-38
-0.01337235 -0.024633318 0.73900002 1.1848025e-38
-0.011932394 -0.02456668 0.73700005 1.1677986e-38
-0.010528565 -0.02456668 0.73700005 1.1755472e-38
-0.009124768 -0.024566658 0.73700005 1.1860943e-38
-0.0077209407 -0.024566658 0.73700005 1.1939153e-38
-0.0063085528 -0.024533331 0.73600006 1.2044619e-38
-0.0049066516 -0.024533339 0.73600006 1.2214658e-38
-0.0034951782 -0.024466656 0.73399997 1.2320484e-38
-0.0020970954 -0.024466656 0.73400003 1.239833e-38
-0.00069711066 -0.024399996 0.73200005 1.2500192e-38
0.00069715374 -0.024399996 0.73200011 1.2673802e-38
0.0020914478 -0.024400011 0.73200005 1.2863218e-38
0.0034952695 -0.024466664 0.73400003 1.3592168e-38
0.0048933821 -0.024466671 0.73399997 1.4248312e-38
0.0062914649 -0.024466671 0.73400003 1.481011e-38
0.0076895803 -0.024466664 0.73399997 1.5260269e-38
0.0090876631 -0.024466671 0.73400003 1.4969645e-38
0.010514284 -0.024533324 0.73600006 1.4607687e-38
0.011916216 -0.024533324 0.73600006 1.4877817e-38
0.013318092 -0.024533331 0.73600006 1.5175961e-38
0.014720023 -0.024533331 0.73600006 1.5188198e-38
0.016143806 -0.024566673 0.73700005 1.507799e-38
0.017547633 -0.024566665 0.73700005 1.5061411e-38
0.019002888 -0.024633333 0.73900002 1.4969585e-38
0.020438131 -0.02466666 0.74000001 1.4969596e-38
0.021847643 -0.02466666 0.74000001 1.4877762e-38
0.023320036 -0.024733327 0.74200004 1.4785928e-38
0.024733342 -0.02473332 0.74200004 1.4602972e-38
0.026146673 -0.024733342 0.7420001 1.4511494e-38
0.027560035 -0.024733342 0.74200004 1.4425406e-38
0.029012393 -0.024766669 0.74300003 1.3331282e-38
0.030509543 -0.024833336 0.74500006 1.2232827e-38
0.032057147 -0.024933316 0.74800009 9.4698531e-39
0.033571441 -0.024999999 0.75000006 6.6301316e-39
0.035139985 -0.0251 0.75300002 6.818113e-39
0.036574282 -0.025099985 0.75300002 7.0025028e-39
0.038109537 -0.025166668 0.75500005 6.8184745e-39
0.039600026 -0.025200017 0.75600004 6.6351594e-39
0.041148581 -0.025266655 0.75800008 6.727711e-39
-0.036914259 -0.023885719 0.76000005 8.3595427e-39
-0.035466637 -0.023885712 0.76000005 8.9087634e-39
-0.033839993 -0.023760006 0.75600004 9.3679423e-39
-0.032228544 -0.023634285 0.75200003 9.9186049e-39
-0.030796172 -0.0236343 0.75200003 1.019412e-38
-0.029285669 -0.023571417 0.75000006 1.0469629e-38
-0.027782869 -0.023508564 0.74800003 1.0745137e-38
-0.026252374 -0.023414284 0.745 1.1020638e-38
-0.024833329 -0.023414284 0.74500006 1.1296137e-38
-0.023414284 -0.023414299 0.74500006 1.1663484e-38
-0.021936178 -0.023351431 0.74300009 1.2030828e-38
-0.020493317 -0.023319989 0.7420001 1.2306338e-38
-0.019028533 -0.023257129 0.73999995 1.249001e-38
-0.017619021 -0.023257136 0.74000001 1.2581834e-38
-0.016209505 -0.023257136 0.74000001 1.2581823e-38
-0.014779969 -0.023225687 0.73899996 1.2581825e-38
-0.013372353 -0.023225702 0.73899996 1.2398514e-38
-0.011964737 -0.023225702 0.73900002 1.2214485e-38
-0.010557116 -0.023225695 0.73899996 1.2489992e-38
-0.0091495002 -0.023225695 0.73900002 1.2765497e-38
-0.0077209333 -0.023162864 0.73700005 1.3041001e-38
-0.0063171359 -0.023162872 0.73700005 1.3316507e-38
-0.0049066385 -0.023131423 0.73600006 1.3316507e-38
-0.0035047634 -0.02313143 0.73600006 1.3316507e-38
-0.002097101 -0.023068577 0.73399997 1.3408343e-38
-0.00069901801 -0.02306857 0.73400003 1.3500178e-38
0.0006971556 -0.023005724 0.73200011 1.3683849e-38
0.0020914497 -0.023005724 0.73200005 1.3867524e-38
0.0034952909 -0.02306857 0.73400003 1.4143035e-38
0.0048933737 -0.02306857 0.73400003 1.4510427e-38
0.0062914621 -0.023068562 0.73399997 1.4700605e-38
0.0076895449 -0.023068585 0.73400003 1.4787039e-38
0.0090876594 -0.023068555 0.73400003 1.4878138e-38
0.010485742 -0.023068562 0.73400003 1.4877772e-38
0.011883855 -0.023068555 0.73400003 1.5061435e-38
0.013318105 -0.023131415 0.73600006 1.5245114e-38
0.014720006 -0.023131423 0.73600006 1.5161895e-38
0.016121913 -0.023131438 0.73600006 1.515328e-38
0.017547641 -0.023162849 0.73700005 1.5153274e-38
0.019002888 -0.023225717 0.73900002 1.5061429e-38
0.020438123 -0.023257159 0.74000001 1.4969582e-38
0.021847636 -0.023257159 0.74000001 1.4969591e-38
0.023257177 -0.023257136 0.74000001 1.4785928e-38
0.024733353 -0.023319997 0.74200004 1.460262e-38
0.026146684 -0.023320004 0.7420001 1.4511864e-38
0.02756002 -0.023319997 0.74200004 1.4331431e-38
0.029012397 -0.023351446 0.74300009 1.3609671e-38
0.030591426 -0.023477137 0.74700004 1.2975399e-38
0.032014292 -0.023477145 0.7470001 9.9354654e-39
0.033481922 -0.023508571 0.74800003 6.903836e-39
0.034906682 -0.023508564 0.74800009 6.9077989e-39
0.036574297 -0.023665719 0.75300002 7.001784e-39
0.038109541 -0.023728572 0.75500005 6.7262747e-39
0.03954763 -0.023728564 0.75500005 6.450771e-39
0.041148603 -0.023822859 0.75800002 6.4514912e-39
-0.033839993 -0.02232001 0.75600004 9.3675835e-39
-0.032271434 -0.02223143 0.75300002 9.8267666e-39
-0.030796174 -0.022201918 0.75200009 1.0102277e-38
-0.029285697 -0.022142842 0.75000006 1.0377785e-38
-0.027857117 -0.02214285 0.75000006 1.0653295e-38
-0.026322847 -0.022054292 0.7470001 1.0928801e-38
-0.024833335 -0.021995239 0.74500006 1.1296144e-38
-0.023414256 -0.021995232 0.745 1.1663488e-38
-0.021936169 -0.021936193 0.74300003 1.2030831e-38
-0.020493332 -0.021906666 0.7420001 1.2398175e-38
-0.019079972 -0.021906666 0.74200004 1.2765518e-38
-0.017619025 -0.021847613 0.74000001 1.3041017e-38
-0.01618759 -0.021818087 0.73900002 1.3132846e-38
-0.014779975 -0.021818087 0.73900002 1.3132851e-38
-0.013372353 -0.021818079 0.73899996 1.2949186e-38
-0.011964737 -0.021818079 0.73900002 1.2673685e-38
-0.010557092 -0.021818087 0.73899996 1.3224704e-38
-0.0091247531 -0.021759048 0.73700005 1.3683876e-38
-0.0077209258 -0.021759063 0.73700005 1.4143048e-38
-0.0063171526 -0.021759056 0.73700005 1.4602217e-38
-0.0049133254 -0.021759056 0.73699999 1.4418539e-38
-0.0035047503 -0.021729529 0.73600006 1.4234868e-38
-0.0021028491 -0.021729536 0.73600006 1.4418539e-38
-0.00069901987 -0.021670461 0.73400003 1.4510376e-38
0.00069909275 -0.021670468 0.73399997 1.4694048e-38
0.0020971755 -0.021670468 0.73400003 1.4785885e-38
0.0034952862 -0.021670476 0.73399997 1.4785888e-38
0.00489337 -0.021670476 0.73400003 1.4785913e-38
0.0062914826 -0.021670468 0.73399997 1.4602268e-38
0.0076895654 -0.021670468 0.73400003 1.432711e-38
0.0090876799 -0.021670468 0.73399997 1.4785917e-38
0.010485738 -0.021670468 0.73400003 1.5153258e-38
0.011916213 -0.021729521 0.73600006 1.5245093e-38
0.013318089 -0.021729529 0.73600006 1.524509e-38
0.01472002 -0.021729521 0.73600006 1.5245088e-38
0.016143795 -0.021759048 0.73700005 1.524509e-38
0.017547622 -0.021759048 0.73700005 1.5245093e-38
0.019002886 -0.021818079 0.73899996 1.5153258e-38
0.020438116 -0.021847621 0.74000001 1.5061422e-38
0.021847658 -0.021847613 0.74000001 1.4969601e-38
0.023320032 -0.021906659 0.74200004 1.4785944e-38
0.024733339 -0.021906666 0.74200004 1.4602271e-38
0.026146669 -0.021906666 0.7420001 1.4418599e-38
0.027597178 -0.021936186 0.74300003 1.424245e-38
0.029012404 -0.021936193 0.74300003 1.3984152e-38
0.030591441 -0.022054292 0.74700004 1.3616096e-38
0.032014281 -0.022054277 0.7470001 1.0392531e-38
0.033481903 -0.022083804 0.74800009 7.088607e-39
0.035139989 -0.022231437 0.75300002 7.0914769e-39
0.03667143 -0.022290491 0.75500005 7.001428e-39
0.038109519 -0.022290476 0.75500005 6.6344378e-39
0.03954763 -0.022290468 0.75500005 6.2674531e-39
0.041148566 -0.022379048 0.75800008 6.2681692e-39
0.042592395 -0.022379056 0.75800008 6.1759848e-39
-0.033839993 -0.020879999 0.75600004 9.3679423e-39
-0.032228559 -0.020769536 0.75200003 9.8267624e-39
-0.030796183 -0.020769529 0.75200003 1.010227e-38
-0.029285695 -0.020714283 0.75000006 1.0469614e-38
-0.027857117 -0.020714276 0.75000006 1.0653286e-38
-0.02632286 -0.020631433 0.74700004 1.0836965e-38
-0.024899989 -0.020631425 0.74700004 1.1204314e-38
-0.02341426 -0.020576186 0.74500006 1.1571656e-38
-0.021995237 -0.020576186 0.74500006 1.1938998e-38
-0.020520937 -0.020520963 0.74300009 1.2398176e-38
-0.019079987 -0.020493329 0.74200004 1.2673682e-38
-0.017666657 -0.020493321 0.74200004 1.3041022e-38
-0.016209491 -0.020438075 0.74000001 1.3132854e-38
-0.014779975 -0.020410471 0.73900002 1.3316535e-38
-0.013372329 -0.020410471 0.73899996 1.3224709e-38
-0.011964739 -0.020410456 0.73899996 1.3132885e-38
-0.010557122 -0.020410463 0.73900002 1.3500238e-38
-0.009149476 -0.020410456 0.73899996 1.3775735e-38
-0.0077209445 -0.020355232 0.73700005 1.4143067e-38
-0.0063171471 -0.020355247 0.73700005 1.441856e-38
-0.004913318 -0.020355232 0.73700005 1.4418544e-38
-0.0035095206 -0.020355225 0.73700005 1.4418544e-38
-0.0021057231 -0.020355232 0.73700011 1.451038e-38
-0.00069899939 -0.020272382 0.73400003 1.4602218e-38
0.00069908344 -0.020272367 0.73400003 1.4785892e-38
0.0020971959 -0.020272389 0.73400003 1.4877727e-38
0.0034952527 -0.020272389 0.73400003 1.478589e-38
0.0049066804 -0.020327613 0.73600006 1.4785893e-38
0.0063085863 -0.020327605 0.73600006 1.4694059e-38
0.0076895617 -0.020272382 0.73400003 1.4602222e-38
0.0091123926 -0.020327613 0.736 1.4694055e-38
0.010514294 -0.020327635 0.73600006 1.4877732e-38
0.011916196 -0.020327613 0.73600006 1.4877737e-38
0.013336177 -0.02035524 0.73700005 1.496956e-38
0.014740004 -0.02035524 0.73700005 1.4877711e-38
0.016143803 -0.020355232 0.73700005 1.4877722e-38
0.01754763 -0.020355232 0.73700005 1.4877733e-38
0.019002886 -0.020410478 0.73899996 1.4877744e-38
0.020438138 -0.020438083 0.73999995 1.4877755e-38
0.021847652 -0.020438097 0.74000001 1.4785939e-38
0.023320017 -0.020493336 0.74200004 1.4785958e-38
0.02473335 -0.020493343 0.74200004 1.4785952e-38
0.02614668 -0.020493336 0.7420001 1.4884238e-38
0.027597155 -0.020520963 0.74300003 1.4969944e-38
0.02909049 -0.020576186 0.745 1.3887257e-38
0.03059143 -0.020631425 0.74700004 1.2887872e-38
0.032057155 -0.020659037 0.74800003 1.0583417e-38
0.033571448 -0.02071429 0.75000006 8.2821336e-39
0.035139974 -0.020797148 0.75300002 7.4584671e-39
0.036671441 -0.020852387 0.755 6.7266418e-39
0.038109552 -0.020852365 0.75500005 6.5433169e-39
0.039809562 -0.020990469 0.76000005 6.4511185e-39
0.041257184 -0.020990461 0.76000005 6.3599949e-39
-0.033795226 -0.019414291 0.75500005 9.3683024e-39
-0.032228563 -0.019337147 0.75200003 9.8271212e-39
-0.030714277 -0.019285716 0.75000006 1.0194103e-38
-0.029285699 -0.019285724 0.75000006 1.0469612e-38
-0.027782833 -0.01923427 0.74800003 1.0653286e-38
-0.026322871 -0.019208573 0.74700004 1.0745127e-38
-0.024899978 -0.019208558 0.74700004 1.1112475e-38
-0.023414262 -0.019157141 0.74500006 1.1479822e-38
-0.021995243 -0.019157141 0.74500006 1.1939005e-38
-0.020520929 -0.01910571 0.74300003 1.2306345e-38
-0.019079976 -0.019079991 0.74200004 1.2673685e-38
-0.017666645 -0.019079991 0.7420001 1.2949189e-38
-0.016209498 -0.019028559 0.74000001 1.3224694e-38
-0.014779977 -0.01900284 0.73899996 1.3408364e-38
-0.013372361 -0.019002847 0.73900002 1.3500198e-38
-0.011964713 -0.01900284 0.73899996 1.3592042e-38
-0.010557123 -0.01900284 0.73900002 1.3775722e-38
-0.009149476 -0.01900284 0.73899996 1.3867563e-38
-0.0077418862 -0.01900284 0.73899996 1.4051239e-38
-0.0063171396 -0.018951431 0.73700005 1.4234903e-38
-0.0049133124 -0.018951423 0.73700005 1.4418567e-38
-0.0035095131 -0.018951423 0.73700005 1.4510399e-38
-0.0021057157 -0.018951438 0.73700011 1.4602232e-38
-0.00069900311 -0.01887428 0.73399997 1.4694059e-38
0.0007009554 -0.018925712 0.73600006 1.4877723e-38
0.0020971922 -0.01887428 0.73399997 1.4969556e-38
0.0034952741 -0.01887428 0.73400003 1.4877719e-38
0.0049066944 -0.018925712 0.73600006 1.4694407e-38
0.0063085696 -0.018925704 0.73600006 1.4785885e-38
0.0077105006 -0.018925697 0.73600006 1.4877719e-38
0.0091123767 -0.018925719 0.73600006 1.4694048e-38
0.010514308 -0.018925719 0.73600006 1.451038e-38
0.011932386 -0.018951416 0.73700005 1.4602218e-38
0.013336184 -0.018951438 0.73700005 1.460257e-38
0.014740012 -0.018951423 0.73700005 1.451037e-38
0.01614381 -0.018951438 0.73700005 1.4419615e-38
0.017595265 -0.019002847 0.73900002 1.451038e-38
0.019002911 -0.01900284 0.73899996 1.4606167e-38
0.020438131 -0.019028559 0.74000001 1.4602226e-38
0.021847645 -0.019028567 0.74000001 1.4609411e-38
0.023320029 -0.019080013 0.74200004 1.4785917e-38
0.024733361 -0.019080006 0.74200004 1.498969e-38
0.026181908 -0.019105725 0.74300003 1.5362427e-38
0.027597135 -0.019105725 0.74300009 1.5637185e-38
0.029090486 -0.019157134 0.74500006 1.3890127e-38
0.030591419 -0.019208558 0.74700004 1.2147437e-38
0.032057136 -0.019234277 0.74800003 1.0770297e-38
0.033571448 -0.019285724 0.75000006 9.3902467e-39
0.035139989 -0.019362852 0.75300002 7.916567e-39
0.036671445 -0.019414291 0.75500005 6.3585725e-39
0.038159996 -0.019440018 0.75600004 6.4525394e-39
0.039704774 -0.019491434 0.75800008 6.5436617e-39
0.041257165 -0.019542858 0.76000005 6.4514702e-39
-0.033839989 -0.018000007 0.75600004 9.3679451e-39
-0.032228544 -0.017904766 0.75200009 9.826761e-39
-0.030796172 -0.017904766 0.75200009 9.9185937e-39
-0.029285667 -0.017857142 0.75000006 1.0102269e-38
-0.027857114 -0.017857134 0.75000006 1.0469615e-38
-0.026358088 -0.017809525 0.74800009 1.083696e-38
-0.024899986 -0.017785706 0.74700004 1.1020634e-38
-0.02341429 -0.017738089 0.74500006 1.1204317e-38
-0.021995215 -0.017738082 0.745 1.157167e-38
-0.020520948 -0.017690487 0.74300003 1.2030844e-38
-0.019079965 -0.017666668 0.74200004 1.239818e-38
-0.017666657 -0.017666668 0.74200004 1.2765521e-38
-0.016209505 -0.017619051 0.74000001 1.3041026e-38
-0.014779977 -0.017595232 0.73899996 1.3408355e-38
-0.013372361 -0.017595232 0.73900002 1.3316507e-38
-0.011964715 -0.017595224 0.73899996 1.3316515e-38
-0.010557123 -0.017595224 0.73899996 1.3408358e-38
-0.0091495076 -0.017595232 0.73900002 1.3500213e-38
-0.007741862 -0.017595224 0.73899996 1.3775739e-38
-0.0063171322 -0.017547615 0.73700005 1.4051247e-38
-0.0049133049 -0.017547622 0.73700005 1.4144159e-38
-0.0035095075 -0.01754763 0.73700005 1.4326748e-38
-0.0021057343 -0.01754763 0.73700005 1.4418576e-38
-0.00070096261 -0.017523825 0.73600006 1.4602231e-38
0.00070096843 -0.01752381 0.73600006 1.4785883e-38
0.0021028435 -0.017523803 0.73600006 1.496955e-38
0.0035047764 -0.017523803 0.73600006 1.5159674e-38
0.0049066525 -0.017523803 0.73600006 1.5429441e-38
0.0063085835 -0.017523803 0.73600006 1.5245411e-38
0.0077104848 -0.01752381 0.73600006 1.5061382e-38
0.0091123898 -0.017523818 0.73600006 1.580611e-38
0.010514292 -0.01752381 0.73600006 1.6530749e-38
0.011932394 -0.017547615 0.73700005 1.6539718e-38
0.013336191 -0.017547622 0.73700005 1.6623304e-38
0.014740019 -0.017547622 0.73700005 1.6731282e-38
0.016143817 -0.017547637 0.73700005 1.6902398e-38
0.017547645 -0.01754763 0.73700005 1.6545457e-38
0.019002881 -0.017595232 0.73900002 1.6270668e-38
0.020410527 -0.017595224 0.73900002 1.637219e-38
0.021847637 -0.017619044 0.74000001 1.6467254e-38
0.023257181 -0.017619029 0.73999995 1.6474787e-38
0.024733346 -0.017666675 0.74200004 1.6584952e-38
0.026181944 -0.017690472 0.74300003 1.6579603e-38
0.02759717 -0.017690472 0.74300003 1.6581726e-38
0.029090485 -0.017738096 0.74500006 1.4081332e-38
0.030591434 -0.017785706 0.7470001 1.1684663e-38
0.032057121 -0.017809518 0.74800009 1.0955023e-38
0.033571478 -0.017857127 0.75000006 1.0315765e-38
0.035139978 -0.017928578 0.75300002 8.1970944e-39
0.036671448 -0.017976202 0.75500005 6.0837737e-39
0.038160019 -0.017999999 0.75600004 6.1762973e-39
0.03970477 -0.018047623 0.75800002 6.3599809e-39
0.041257173 -0.01809524 0.76000005 6.5436631e-39
-0.033839989 -0.016559996 0.75600004 9.368322e-39
-0.03227143 -0.016494282 0.75300002 9.7360115e-39
-0.030796181 -0.016472392 0.75200009 9.7349241e-39
-0.029285692 -0.016428567 0.75000006 9.7349339e-39
-0.027782837 -0.016384766 0.74800003 1.0377792e-38
-0.026358075 -0.016384758 0.74800003 1.0929876e-38
-0.024899973 -0.016362846 0.74700004 1.0928794e-38
-0.023414295 -0.016319051 0.74500006 1.0839115e-38
-0.021995218 -0.016319036 0.74500006 1.1296146e-38
-0.020520914 -0.016275235 0.74300003 1.1760343e-38
-0.01907998 -0.01625333 0.74200004 1.2214495e-38
-0.017666649 -0.01625333 0.74200004 1.2584348e-38
-0.016209511 -0.016209513 0.74000001 1.2949179e-38
-0.01479997 -0.016209505 0.73999995 1.3323689e-38
-0.013372361 -0.016187608 0.73899996 1.3132836e-38
-0.011964745 -0.016187608 0.73900002 1.2949532e-38
-0.010557099 -0.016187601 0.73899996 1.3041017e-38
-0.0091495076 -0.016187601 0.73900002 1.3133217e-38
-0.007741862 -0.016187601 0.73899996 1.3500206e-38
-0.0063342461 -0.016187608 0.73900002 1.378504e-38
-0.0049266526 -0.016187616 0.73900002 1.3963688e-38
-0.0035095243 -0.016143814 0.73700005 1.415202e-38
-0.0021057269 -0.016143806 0.73700005 1.432672e-38
-0.00070094771 -0.016121909 0.73600006 1.442859e-38
0.00070095353 -0.016121909 0.73600006 1.4694044e-38
0.0021028584 -0.016121902 0.73600006 1.498642e-38
0.0035047596 -0.016121902 0.73600006 1.5544977e-38
0.0049066646 -0.016121894 0.73600006 1.6092395e-38
0.0063171489 -0.016143814 0.73700005 1.5612406e-38
0.0077104978 -0.016121894 0.73600006 1.5176933e-38
0.0091247745 -0.016143821 0.73700005 1.6937619e-38
0.010528572 -0.016143821 0.73700011 1.8588127e-38
0.0119324 -0.016143821 0.73700005 1.8585957e-38
