# .PCD v0.7 - Point Cloud Data file format
VERSION 0.7
FIELDS x y z rgb
SIZE 4 4 4 4
TYPE F F F F
COUNT 1 1 1 1
WIDTH 971
HEIGHT 1
VIEWPOINT 0 0 0 1 0 0 0
POINTS 971
DATA ascii
-0.022142854 0.019285731 0.75000006 1.0102643e-38
-0.020659037 0.0192343 0.74800003 1.0377789e-38
-0.019157119 0.019157156 0.745 1.0745129e-38
-0.017666649 0.019079998 0.74200004 1.1020635e-38
-0.016209505 0.019028582 0.74000001 1.1387977e-38
-0.014780009 0.01900287 0.73899996 1.1663478e-38
-0.013372384 0.01900287 0.73899996 1.1938979e-38
-0.011932363 0.018951416 0.73700005 1.2214491e-38
-0.010528547 0.018951416 0.73700005 1.2490003e-38
-0.0091247307 0.018951416 0.73700011 1.2857346e-38
-0.0077209147 0.018951416 0.73700011 1.3041019e-38
-0.0063171359 0.018951431 0.73700005 1.3224681e-38
-0.0049065975 0.018925704 0.73600006 1.285733e-38
-0.0035047019 0.018925704 0.73600006 1.2581832e-38
-0.0020971047 0.01887428 0.73400003 1.2949182e-38
-0.00069901987 0.018874288 0.73400003 1.3408352e-38
0.00069620193 0.018797159 0.73100001 1.3687438e-38
0.0020885551 0.018797159 0.73100001 1.405122e-38
0.0034809718 0.018797159 0.73100001 1.4055553e-38
0.0048733251 0.018797144 0.73099995 1.4143056e-38
0.0062657157 0.018797137 0.73100001 1.4054778e-38
0.0076580932 0.018797159 0.73099995 1.4051209e-38
0.0090257647 0.01874572 0.72900003 1.3959392e-38
0.010414311 0.018745735 0.72900003 1.3867547e-38
0.011802894 0.018745713 0.72900009 1.3867537e-38
0.013191462 0.018745713 0.72900003 1.3867534e-38
0.014580009 0.018745728 0.72900003 1.3959365e-38
0.016012354 0.018797152 0.73099995 1.4143396e-38
0.01740477 0.018797152 0.73100001 1.2674389e-38
0.018797126 0.018797159 0.73099995 1.1297927e-38
0.020189514 0.018797152 0.73100001 7.9043127e-39
0.021581892 0.018797167 0.73099995 4.6014928e-39
0.022974286 0.018797159 0.73100001 7.4473464e-39
0.024366636 0.018797159 0.73099995 1.0198077e-38
0.025759052 0.018797167 0.73099995 1.1573068e-38
0.027151408 0.018797167 0.73099995 1.2949286e-38
0.028543798 0.018797159 0.73100001 1.5263946e-38
0.029977167 0.018822871 0.73200005 1.7607244e-38
0.031457175 0.018874295 0.73400003 1.7986123e-38
0.032944825 0.018925719 0.73600006 1.835054e-38
0.034346718 0.018925719 0.73600006 1.3916553e-38
0.035797164 0.018951431 0.73700005 9.5027094e-39
0.037200984 0.018951423 0.73700005 1.1716806e-38
0.038709544 0.01900287 0.73900002 1.3926234e-38
0.040117171 0.019002862 0.73900002 1.2540806e-38
0.041524757 0.019002877 0.73899996 1.1250772e-38
0.042990472 0.019028589 0.74000001 1.1337553e-38
0.044580031 0.019105725 0.74300003 1.1422488e-38
0.04611909 0.019157149 0.74500006 8.745543e-39
0.047665752 0.019208588 0.74700004 5.9754099e-39
0.049285766 0.019285724 0.75000006 5.9840167e-39
0.050917216 0.019362852 0.75300002 5.896486e-39
0.052490484 0.019414298 0.755 4.789079e-39
-0.031246636 0.021073334 0.76300001 8.2749e-39
-0.029715247 0.021018095 0.76099998 8.6379288e-39
-0.028265717 0.02101811 0.76100004 9.0031114e-39
-0.026816187 0.02101811 0.76100004 9.2771858e-39
-0.025166651 0.020852372 0.75500005 9.551979e-39
-0.023634264 0.020769529 0.75200003 9.8271296e-39
-0.022142835 0.02071429 0.75000006 1.0194117e-38
-0.020659059 0.020659052 0.74800003 1.0469624e-38
-0.019157114 0.020576194 0.745 1.0745129e-38
-0.017666634 0.020493343 0.74200004 1.1020635e-38
-0.016209494 0.020438105 0.74000001 1.1387977e-38
-0.014779989 0.020410486 0.73900002 1.1663482e-38
-0.013372364 0.020410486 0.73900002 1.1938989e-38
-0.011932363 0.02035524 0.73700005 1.212266e-38
-0.010528549 0.020355232 0.73700005 1.2490003e-38
-0.0091247307 0.020355232 0.73700011 1.2765515e-38
-0.0077209147 0.02035524 0.73700011 1.3041026e-38
-0.0063171359 0.020355232 0.73700005 1.3224684e-38
-0.0049066497 0.020327613 0.73600006 1.2765494e-38
-0.0035046963 0.020327613 0.73600006 1.2214494e-38
-0.002097114 0.020272374 0.73400003 1.3041386e-38
-0.00069902919 0.020272382 0.73400003 1.3781817e-38
0.00069617957 0.020189539 0.73099995 1.4157418e-38
0.0020885719 0.020189539 0.73100001 1.4524415e-38
0.0034809252 0.020189546 0.73099995 1.4527659e-38
0.0048733419 0.020189539 0.73100001 1.443008e-38
0.0062656952 0.020189539 0.73099995 1.4432229e-38
0.0076580876 0.020189539 0.73100001 1.4425761e-38
0.0090257609 0.020134293 0.72900003 1.4143069e-38
0.010414305 0.0201343 0.72900003 1.3867545e-38
0.01180289 0.020134293 0.72900009 1.3959364e-38
0.013191457 0.0201343 0.72900003 1.3959363e-38
0.01458004 0.020134293 0.72900009 1.4051197e-38
0.016012372 0.020189531 0.73100001 1.4051555e-38
0.017357193 0.020134293 0.72900009 1.2673666e-38
0.018745743 0.0201343 0.72900003 1.1299725e-38
0.020189533 0.020189531 0.73100001 7.8128499e-39
0.021581884 0.020189531 0.73100001 4.3256318e-39
0.022974301 0.020189531 0.73100001 7.3565829e-39
0.024366656 0.020189546 0.73100001 1.0290627e-38
0.025759045 0.020189539 0.73100001 1.1571993e-38
0.027151424 0.020189539 0.73099995 1.276777e-38
0.028543817 0.020189531 0.73100001 1.5436859e-38
0.030059051 0.020272374 0.73400003 1.8058531e-38
0.03145716 0.020272397 0.73399997 1.827275e-38
0.032944798 0.02032762 0.73600006 1.8342998e-38
0.034393385 0.020355232 0.73700011 1.3537356e-38
0.035797164 0.020355247 0.73700005 8.6768961e-39
0.037301898 0.0204105 0.73899996 1.1168298e-38
0.038709525 0.020410493 0.73899996 1.3554585e-38
0.040117171 0.020410493 0.73899996 1.2445024e-38
0.041524798 0.020410493 0.73899996 1.1339743e-38
0.042990487 0.020438097 0.74000001 1.1702754e-38
0.044700008 0.020576201 0.745 1.1981438e-38
0.046119057 0.020576201 0.745 1.1790901e-38
0.047729529 0.020659067 0.74800003 1.1509973e-38
0.049285766 0.02071429 0.75000012 9.8464913e-39
0.050917186 0.020797148 0.75300002 8.1044853e-39
0.052490473 0.020852394 0.755 5.2349834e-39
-0.032700002 0.022526659 0.76300001 8.1862987e-39
-0.031246644 0.022526674 0.76300001 8.4574976e-39
-0.029715236 0.022467636 0.76100004 8.8198076e-39
-0.028228562 0.022438109 0.75999999 9.0942266e-39
-0.026710458 0.022379071 0.75800002 9.4604966e-39
-0.02516664 0.022290476 0.755 9.7356472e-39
-0.023634247 0.022201903 0.75200009 1.0010799e-38
-0.022142839 0.022142872 0.75000006 1.0286308e-38
-0.020659024 0.022083826 0.74800003 1.0561458e-38
-0.019157112 0.021995254 0.74500006 1.0745129e-38
-0.017690454 0.021936201 0.74300003 1.1020635e-38
-0.016253307 0.021906659 0.74200004 1.1296142e-38
-0.014799974 0.021847621 0.74000001 1.1663488e-38
-0.01337236 0.021818116 0.73899996 1.1847162e-38
-0.011964737 0.021818116 0.73899996 1.2122665e-38
-0.010557112 0.021818116 0.73899996 1.2398168e-38
-0.0091247326 0.021759041 0.73700011 1.2765518e-38
-0.0077209147 0.021759041 0.73700011 1.2857362e-38
-0.0063171377 0.021759048 0.73700005 1.3041017e-38
-0.0049133217 0.021759056 0.73700005 1.2765494e-38
-0.0035094814 0.021759041 0.73700005 1.2490006e-38
-0.002097127 0.021670483 0.73399997 1.3413041e-38
-0.00069904223 0.021670476 0.73399997 1.4335725e-38
0.00069619634 0.021581918 0.73099995 1.4623093e-38
0.0020914478 0.021611445 0.73199999 1.490183e-38
0.0034857253 0.021611445 0.73199999 1.4801026e-38
0.0048733568 0.021581911 0.73100001 1.4709572e-38
0.0062657101 0.021581918 0.73099995 1.4713899e-38
0.0076581044 0.021581918 0.73100001 1.4801389e-38
0.0090504801 0.021581925 0.73099995 1.442683e-38
0.010442871 0.021581911 0.73100001 1.414305e-38
0.011802885 0.021522857 0.72900003 1.4051191e-38
0.013191431 0.021522865 0.72900003 1.4051191e-38
0.014619994 0.021581918 0.73099995 1.405155e-38
0.016012387 0.021581911 0.73100001 1.4143745e-38
0.017404739 0.021581911 0.73100001 1.2583618e-38
0.018797155 0.021581911 0.73100001 1.1118569e-38
0.020189511 0.021581918 0.73099995 7.7224619e-39
0.021611458 0.021611437 0.73199999 4.3277884e-39
0.023005735 0.021611445 0.73199999 7.4484128e-39
0.024400011 0.021611445 0.73199999 1.0658327e-38
0.02579429 0.021611445 0.73199999 1.1664906e-38
0.02718859 0.021611445 0.73199999 1.2673785e-38
0.028582867 0.021611445 0.73199999 1.5270053e-38
0.030059081 0.021670468 0.73400003 1.7977819e-38
0.031542912 0.021729529 0.73600006 1.8078674e-38
0.032944806 0.021729529 0.73600006 1.8160036e-38
0.034393385 0.021759033 0.73700011 1.3453396e-38
0.035797164 0.021759056 0.73700005 8.8555337e-39
0.037200984 0.021759056 0.73700005 1.1348016e-38
0.038709547 0.021818101 0.73900002 1.3923718e-38
0.040117193 0.021818109 0.73900002 1.2262071e-38
0.041580945 0.021847628 0.74000001 1.0695106e-38
0.042990495 0.021847628 0.74000001 1.2262387e-38
0.044400003 0.021847636 0.74000001 1.3928324e-38
0.046242863 0.022054292 0.74700004 1.4474296e-38
0.047729529 0.022083826 0.74799997 1.5120296e-38
0.049285721 0.022142857 0.75000006 1.4192177e-38
0.051052399 0.022290476 0.75500005 1.3276691e-38
0.052560002 0.02232001 0.75600004 1.1701494e-38
0.0541429 0.022379063 0.75800002 1.013742e-38
0.055586696 0.022379056 0.75800002 9.6721446e-39
-0.034153327 0.023980007 0.76300001 6.7212258e-39
-0.032785699 0.024042852 0.7650001 8.4628744e-39
-0.031246688 0.023980007 0.76300001 8.7319279e-39
-0.02971524 0.023917161 0.76100004 9.0034842e-39
-0.028228555 0.023885742 0.75999999 9.2775529e-39
-0.026710454 0.023822874 0.75800002 9.5523447e-39
-0.025166651 0.023728572 0.75500005 9.8274939e-39
-0.023665683 0.023665711 0.75300002 1.0102642e-38
-0.022201871 0.023634277 0.75200009 1.037815e-38
-0.020659048 0.023508586 0.74800003 1.0561463e-38
-0.019208558 0.023477159 0.74699998 1.0836971e-38
-0.017690429 0.023351431 0.74300003 1.1020635e-38
-0.016253291 0.023319997 0.74200004 1.1296136e-38
-0.014800002 0.023257159 0.74000001 1.1571645e-38
-0.013390454 0.023257159 0.74000001 1.1847155e-38
-0.011964714 0.023225732 0.73900002 1.2030826e-38
-0.010557129 0.02322574 0.73899996 1.2398168e-38
-0.0091247326 0.023162842 0.73700005 1.2673675e-38
-0.0077209165 0.023162842 0.73700011 1.2765512e-38
-0.0063171396 0.023162857 0.73700005 1.2857339e-38
-0.0049133217 0.023162857 0.73700005 1.2765494e-38
-0.0035094814 0.023162857 0.73700005 1.2675838e-38
-0.002097101 0.023068577 0.73400003 1.3784708e-38
-0.00069901429 0.023068577 0.73400003 1.4897179e-38
0.00069715374 0.023005731 0.73200005 1.5096676e-38
0.0020914534 0.023005731 0.73199999 1.5271334e-38
0.0034857308 0.023005739 0.73199999 1.5156493e-38
0.0048733102 0.022974305 0.73100001 1.4990104e-38
0.006265725 0.022974297 0.73100001 1.5095635e-38
0.0076580783 0.022974297 0.73099995 1.5086615e-38
0.0090504708 0.022974297 0.73100001 1.4712046e-38
0.010442846 0.022974297 0.73099995 1.4331396e-38
0.011835239 0.022974297 0.73100001 1.4234862e-38
0.013227594 0.022974305 0.73099995 1.4051191e-38
0.014620007 0.022974305 0.73100001 1.4143027e-38
0.016012363 0.022974305 0.73099995 1.4143388e-38
0.017404757 0.022974305 0.73100001 1.2582187e-38
0.018797131 0.022974312 0.73099995 1.0933462e-38
0.020189524 0.02297429 0.73100001 7.6309796e-39
0.021611441 0.023005731 0.73200005 4.2363074e-39
0.023005741 0.023005731 0.73199999 7.6345935e-39
0.024400018 0.023005731 0.73200005 1.0934551e-38
0.025794296 0.023005739 0.73200005 1.1755308e-38
0.027188595 0.023005731 0.73199999 1.258732e-38
0.028582871 0.023005724 0.73199999 1.5175328e-38
0.030141003 0.02313143 0.73600006 1.778696e-38
0.031542897 0.023131423 0.73600006 1.7903609e-38
0.032989569 0.023162842 0.73700005 1.7880585e-38
0.034393385 0.023162849 0.73700005 1.3444436e-38
0.035894297 0.02322574 0.73899996 8.951325e-39
0.037301924 0.023225747 0.73899996 1.1628559e-38
0.038761899 0.023257151 0.74000001 1.428891e-38
0.040171448 0.023257159 0.74000001 1.2168076e-38
0.041580956 0.023257144 0.74000001 9.9629364e-39
0.043106712 0.023320012 0.74200004 1.2906325e-38
0.044820014 0.023477167 0.74699998 1.5856896e-38
0.046242848 0.023477159 0.74699998 1.7241241e-38
0.047857188 0.023571439 0.75000012 1.8615499e-38
0.049417183 0.023634292 0.75200003 1.8525052e-38
0.05105241 0.023728572 0.75500005 1.8429635e-38
0.052560005 0.023760006 0.75599998 1.8248479e-38
0.054285727 0.023885734 0.75999999 1.7965074e-38
-0.034242846 0.0255 0.76500005 6.6279414e-39
-0.032785676 0.025499992 0.76500005 8.558649e-39
-0.031246647 0.025433347 0.76299995 8.8241208e-39
-0.02967618 0.025333352 0.75999999 9.0928155e-39
-0.028228574 0.025333345 0.75999999 9.368685e-39
-0.026710432 0.025266677 0.75800002 9.6438341e-39
-0.025199993 0.025199994 0.75600004 9.8271464e-39
-0.023665654 0.0251 0.75300002 1.0102291e-38
-0.022201873 0.025066666 0.75200003 1.0377795e-38
-0.020659031 0.024933331 0.74800003 1.0653304e-38
-0.019208575 0.024900019 0.74699998 1.0928812e-38
-0.017690448 0.024766676 0.74300003 1.1112471e-38
-0.016253298 0.02473335 0.74200004 1.1387964e-38
-0.014839983 0.024733342 0.74199998 1.1755309e-38
-0.013390481 0.024666682 0.73999995 1.1938982e-38
-0.011964733 0.024633348 0.73899996 1.2214492e-38
-0.010557109 0.024633355 0.73899996 1.2398166e-38
-0.0091247326 0.024566665 0.73700011 1.2673668e-38
-0.0077209165 0.024566673 0.73700011 1.2857334e-38
-0.0063171377 0.024566673 0.73700005 1.3041003e-38
-0.0049133198 0.024566658 0.73700005 1.2949165e-38
-0.0035047317 0.024533331 0.73600006 1.2949202e-38
-0.0020971121 0.024466671 0.73400003 1.3696836e-38
-0.00069902733 0.024466671 0.73400003 1.4442344e-38
0.00069716305 0.024400011 0.73200005 1.5189644e-38
0.0020914385 0.024400003 0.73200005 1.6021812e-38
0.0034809327 0.024366684 0.73099995 1.5633212e-38
0.0048800139 0.024400011 0.73199999 1.5273507e-38
0.0062742913 0.024400018 0.73200005 1.5187874e-38
0.0076580932 0.024366677 0.73100001 1.5186735e-38
0.0090504484 0.024366684 0.73099995 1.471171e-38
0.010442865 0.024366677 0.73099995 1.4326744e-38
0.011835217 0.024366684 0.73099995 1.4234862e-38
0.013227611 0.024366677 0.73100001 1.4051191e-38
0.014620003 0.024366669 0.73100001 1.4143385e-38
0.016012378 0.024366692 0.73099995 1.4143748e-38
0.017404772 0.024366669 0.73100001 1.2399237e-38
0.018797128 0.024366669 0.73100001 1.0748354e-38
0.020189539 0.024366669 0.73100001 7.5391371e-39
0.021611447 0.024400003 0.73200005 4.3310086e-39
0.023068609 0.024466671 0.73400003 7.72535e-39
0.024466693 0.024466686 0.73400003 1.1117863e-38
0.025864802 0.024466671 0.73400003 1.184858e-38
0.027262885 0.024466671 0.73400003 1.2581931e-38
0.028660972 0.024466671 0.73400003 1.5272884e-38
0.030140972 0.024533346 0.73600006 1.7887035e-38
0.031585731 0.024566665 0.73700005 1.7801724e-38
0.033079073 0.024633355 0.73899996 1.7789111e-38
0.034486696 0.024633355 0.73899996 1.3177189e-38
0.035942875 0.024666689 0.74000001 8.6729599e-39
0.037352361 0.024666674 0.73999995 1.1532431e-38
0.03876191 0.024666674 0.74000001 1.4384336e-38
0.040280033 0.024733327 0.74200004 1.2169861e-38
0.041693348 0.024733342 0.74200004 9.9593505e-39
0.043164801 0.024766654 0.74300003 1.2908847e-38
0.044820037 0.024900019 0.74700004 1.5769392e-38
0.046304774 0.024933338 0.74800003 1.6963625e-38
0.047857147 0.025000013 0.75000006 1.8156755e-38
0.049285736 0.025000013 0.75000006 1.8065621e-38
0.051390491 0.025333345 0.75999999 1.806671e-38
0.052838102 0.025333345 0.75999999 1.8158557e-38
0.054357152 0.025366679 0.76099998 1.8345083e-38
0.055953313 0.025433339 0.76300001 1.7514244e-38
-0.034242824 0.026957154 0.76500005 6.4482669e-39
-0.032785699 0.026957139 0.76500005 8.6487258e-39
-0.031246655 0.026886664 0.76300001 8.9134648e-39
-0.029715234 0.026816197 0.76100004 9.0939001e-39
-0.02822857 0.026780963 0.75999999 9.3679661e-39
-0.026710471 0.026710495 0.75800002 9.6434754e-39
-0.025166649 0.026604764 0.755 9.9186273e-39
-0.023665685 0.026534297 0.75300002 1.0102294e-38
-0.022142826 0.026428573 0.75000006 1.0469633e-38
-0.020659057 0.026358105 0.74800003 1.0745137e-38
-0.019208552 0.026322864 0.74700004 1.1020641e-38
-0.017690465 0.026181906 0.74300003 1.1204302e-38
-0.016275223 0.026181906 0.74300003 1.1571634e-38
-0.014839951 0.026146673 0.74200004 1.1847143e-38
-0.013426634 0.026146673 0.74200004 1.2122651e-38
-0.011980961 0.026076213 0.73999995 1.2306329e-38
-0.010557127 0.026040971 0.73899996 1.2490006e-38
-0.009149502 0.026040979 0.73899996 1.267367e-38
-0.0077209165 0.025970474 0.73700011 1.2949169e-38
-0.0063171005 0.025970466 0.73700011 1.3132839e-38
-0.0049066143 0.025935233 0.73600006 1.3132837e-38
-0.0035047205 0.025935233 0.73600006 1.3137535e-38
-0.0020971214 0.025864765 0.73399997 1.3518902e-38
-0.00069711066 0.025794297 0.73200005 1.3894562e-38
0.00069716678 0.025794305 0.73200005 1.5381218e-38
0.0020914441 0.025794297 0.73200005 1.6750437e-38
0.0034857439 0.025794305 0.73199999 1.6172814e-38
0.0048800213 0.025794305 0.73199999 1.5553351e-38
0.0062742988 0.025794305 0.73200005 1.5379434e-38
0.0076581119 0.025759056 0.73100001 1.518207e-38
0.0090504652 0.025759056 0.73099995 1.480534e-38
0.010442858 0.025759056 0.73100001 1.4332126e-38
0.011835231 0.025759064 0.73099995 1.4234863e-38
0.013227626 0.025759056 0.73100001 1.4051191e-38
0.014619981 0.025759064 0.73099995 1.4143027e-38
0.016012397 0.025759064 0.73100001 1.4143395e-38
0.017404748 0.025759064 0.73099995 1.2306335e-38
0.018797142 0.025759064 0.73100001 1.0473221e-38
0.02018952 0.025759071 0.73099995 7.4466037e-39
0.021611452 0.025794297 0.73200005 4.3274353e-39
0.023068596 0.025864772 0.73400003 7.8171953e-39
0.024466679 0.025864772 0.73400003 1.1301181e-38
0.025864767 0.025864772 0.73400003 1.1938983e-38
0.027262876 0.02586478 0.73399997 1.2586607e-38
0.028739089 0.025935248 0.73600006 1.5263939e-38
0.030181911 0.025970481 0.73700005 1.7970993e-38
0.031585727 0.025970474 0.73700005 1.7811057e-38
0.033079088 0.026040956 0.73900002 1.7604358e-38
0.034533337 0.026076205 0.73999995 1.2986328e-38
0.035942882 0.026076198 0.74000001 8.308471e-39
0.037453346 0.026146673 0.74200004 1.1351972e-38
0.038866706 0.026146673 0.74200004 1.438075e-38
0.040280022 0.026146673 0.74200004 1.2168087e-38
0.041693378 0.026146665 0.74200004 9.9636665e-39
0.043164808 0.026181914 0.74300003 1.2815937e-38
0.044820026 0.026322879 0.74700004 1.5672889e-38
0.046304774 0.026358105 0.74800003 1.6687032e-38
0.047857169 0.026428588 0.75000006 1.7604656e-38
0.049285732 0.026428588 0.75000006 1.7605002e-38
0.051120013 0.026640005 0.75600004 1.7605726e-38
0.052838083 0.026780978 0.75999999 1.8156748e-38
0.054357164 0.026816182 0.76100004 1.8709547e-38
0.055953331 0.026886679 0.76300001 1.8526587e-38
-0.03424285 0.028414279 0.76500005 7.0004051e-39
-0.032785729 0.028414294 0.76500005 8.8374527e-39
-0.031246662 0.028340004 0.76300001 9.0071121e-39
-0.029793302 0.028340004 0.76300001 9.1846679e-39
-0.028154247 0.028154291 0.75800002 9.3679633e-39
-0.026710447 0.028154306 0.75800002 9.5516413e-39
-0.025266649 0.028154306 0.75800002 9.9189889e-39
-0.023665678 0.027968571 0.75300002 1.0194491e-38
-0.022142831 0.027857147 0.75000006 1.0469635e-38
-0.02065902 0.027782865 0.74800003 1.083697e-38
-0.019208543 0.027745731 0.74699998 1.1020632e-38
-0.017690443 0.027597152 0.74300003 1.1296133e-38
-0.016275201 0.027597152 0.74300003 1.1571633e-38
-0.014839958 0.027560003 0.74200004 1.1938977e-38
-0.013426641 0.027560018 0.74200004 1.212265e-38
-0.01198095 0.027485728 0.74000001 1.2306331e-38
-0.010557109 0.027448587 0.73899996 1.249001e-38
-0.0091247344 0.027374275 0.73700005 1.2673673e-38
-0.0077209165 0.027374275 0.73700011 1.2857334e-38
-0.0063171005 0.027374275 0.73700011 1.3041003e-38
-0.0049066441 0.027337141 0.73600006 1.2857331e-38
-0.0035047131 0.027337141 0.73600006 1.2765529e-38
-0.0020971196 0.027262859 0.73400003 1.3328771e-38
-0.00069710321 0.027188577 0.73200005 1.3888468e-38
0.00069717423 0.027188577 0.73200005 1.5005276e-38
0.0020914515 0.027188577 0.73200005 1.6212019e-38
0.0034857271 0.027188577 0.73200005 1.5926075e-38
0.0048800269 0.027188577 0.73199999 1.5662439e-38
0.0062743044 0.027188592 0.73200005 1.5372614e-38
0.0076580876 0.027151436 0.73099995 1.5080548e-38
0.0090504801 0.027151436 0.73100001 1.4704538e-38
0.010442835 0.027151443 0.73099995 1.4329258e-38
0.011835228 0.027151436 0.73100001 1.4143745e-38
0.013227602 0.027151443 0.73099995 1.4051192e-38
0.014619996 0.027151436 0.73100001 1.4051191e-38
0.016012352 0.027151443 0.73099995 1.4051564e-38
0.017404763 0.027151443 0.73100001 1.2215585e-38
0.018822907 0.027188577 0.73200005 1.0381758e-38
0.020272411 0.027262859 0.73399997 7.4462632e-39
0.021611461 0.027188577 0.73200005 4.5111203e-39
0.023005739 0.027188577 0.73200005 7.9068868e-39
0.024466708 0.027262859 0.73400003 1.1300469e-38
0.025864791 0.027262859 0.73400003 1.2031898e-38
0.027262902 0.027262866 0.73400003 1.2765627e-38
0.028778134 0.027374275 0.73700011 1.5460547e-38
0.030181948 0.027374275 0.73700011 1.8259069e-38
0.03171429 0.027485728 0.73999995 1.7618781e-38
0.033123836 0.027485736 0.74000001 1.6963298e-38
0.034533348 0.027485736 0.74000001 1.2807303e-38
0.035942897 0.027485728 0.74000001 8.7626108e-39
0.037453342 0.027560003 0.74200004 1.180898e-38
0.038866699 0.027560003 0.74200004 1.4843516e-38
0.040280018 0.027560018 0.74200004 1.2815977e-38
0.041693375 0.027559996 0.74200004 1.0788043e-38
0.04316479 0.027597159 0.74300003 1.3368745e-38
0.044820029 0.027745739 0.74699998 1.604202e-38
0.046304788 0.027782872 0.74800003 1.6685586e-38
0.047857162 0.027857155 0.75000006 1.7327347e-38
0.049285728 0.027857155 0.75000006 1.7328052e-38
0.051458076 0.028265722 0.76099998 1.742025e-38
0.052907631 0.02826573 0.76099998 1.769612e-38
0.05450001 0.028340012 0.76300001 1.8064538e-38
0.056100018 0.028414287 0.76500005 1.7973061e-38
-0.032699984 0.029793337 0.76300001 9.0171692e-39
-0.031164756 0.029715247 0.76100004 9.0932121e-39
-0.029715225 0.029715233 0.76100004 9.1846636e-39
-0.028154247 0.029598095 0.75800002 9.3675934e-39
-0.026710449 0.029598102 0.75800002 9.4597946e-39
-0.025099969 0.02940286 0.75300002 9.9186217e-39
-0.023665648 0.029402852 0.75300002 1.0286321e-38
-0.022142833 0.029285714 0.75000006 1.0561467e-38
-0.020659044 0.029207639 0.74800003 1.0836965e-38
-0.019157112 0.029090479 0.74500006 1.1112465e-38
-0.017690435 0.029012382 0.74300003 1.1387969e-38
-0.01627522 0.029012375 0.74300003 1.1663474e-38
-0.014839968 0.028973341 0.74200004 1.193898e-38
-0.013390487 0.028895244 0.73999995 1.212265e-38
-0.011980939 0.028895237 0.74000001 1.2306328e-38
-0.010557127 0.02885621 0.73899996 1.2490007e-38
-0.009149502 0.02885621 0.73899996 1.267367e-38
-0.0077209184 0.028778099 0.73700011 1.2857332e-38
-0.0063171024 0.028778099 0.73700011 1.2949176e-38
-0.0049066367 0.028739043 0.73600006 1.2673678e-38
-0.0035047447 0.02873905 0.73600006 1.2308856e-38
-0.0020971289 0.02866096 0.73400003 1.31422e-38
-0.00069709576 0.028582871 0.73200005 1.3885922e-38
0.00069718168 0.028582871 0.73200005 1.4722196e-38
0.002091459 0.028582864 0.73200005 1.5558037e-38
0.0034809178 0.02854383 0.73099995 1.565704e-38
0.0048733344 0.028543808 0.73099995 1.5742432e-38
0.0062656878 0.028543815 0.73099995 1.5367211e-38
0.0076580802 0.028543815 0.73100001 1.4896135e-38
0.0090504969 0.028543815 0.73100001 1.460335e-38
0.010442848 0.028543815 0.73100001 1.4235976e-38
0.011835243 0.028543815 0.73100001 1.4143032e-38
0.01322762 0.028543822 0.73099995 1.3959361e-38
0.014640019 0.028582871 0.73199999 1.3959363e-38
0.016034298 0.028582878 0.73199999 1.395973e-38
0.017428575 0.028582878 0.73199999 1.2122669e-38
0.01882289 0.028582871 0.73200005 1.0197368e-38
0.020272378 0.028660968 0.73400003 7.4451898e-39
0.021611467 0.028582871 0.73200005 4.6015208e-39
0.023005744 0.028582871 0.73200005 7.9990797e-39
0.024400022 0.028582871 0.73200005 1.1300107e-38
0.025864784 0.028660946 0.73400003 1.2122651e-38
0.027262866 0.02866096 0.73400003 1.2957189e-38
0.028778132 0.028778084 0.73700011 1.5736414e-38
0.030181946 0.028778076 0.73700011 1.8434488e-38
0.031714298 0.028895244 0.74000001 1.7441205e-38
0.03312381 0.028895259 0.73999995 1.6314358e-38
0.034533359 0.028895244 0.74000001 1.2700062e-38
0.036040038 0.028973334 0.74200004 9.1385932e-39
0.037453335 0.028973341 0.74200004 1.2277171e-38
0.038866688 0.028973341 0.74200004 1.5306302e-38
0.040280007 0.028973348 0.74200004 1.3464205e-38
0.041693363 0.028973334 0.74200004 1.1530626e-38
0.043164812 0.029012382 0.74300003 1.4012326e-38
0.044820014 0.029168598 0.74699998 1.6406858e-38
0.046304762 0.029207632 0.74800003 1.6685586e-38
0.047857158 0.029285721 0.75000006 1.6960721e-38
0.049285747 0.029285729 0.75000006 1.705111e-38
0.051458113 0.029715247 0.76100004 1.7143668e-38
0.052907638 0.02971524 0.76100004 1.723479e-38
0.054500002 0.02979333 0.76300001 1.7328416e-38
0.056100029 0.029871427 0.76500005 1.7420608e-38
0.057782911 0.029988579 0.76800001 1.7421335e-38
0.059168581 0.029949531 0.76700002 1.7975228e-38
-0.032699991 0.03124667 0.76300001 1.003345e-38
-0.031164762 0.031164773 0.76099998 9.8393783e-39
-0.029715229 0.031164773 0.76100004 9.5520014e-39
-0.028154261 0.031041913 0.75799996 9.4608512e-39
-0.026639977 0.030960001 0.75600004 9.3690255e-39
-0.025099937 0.030837141 0.75300002 9.8274953e-39
-0.02366568 0.030837134 0.75300002 1.037851e-38
-0.022142814 0.030714281 0.75000006 1.0653659e-38
-0.020659029 0.030632392 0.74800003 1.0929157e-38
-0.019157108 0.030509524 0.74500006 1.1112461e-38
-0.017690416 0.03042762 0.74300003 1.138797e-38
-0.016275175 0.030427627 0.74300003 1.1663479e-38
-0.014839975 0.030386671 0.74200004 1.1938983e-38
-0.013426658 0.030386679 0.74200004 1.212265e-38
-0.011980929 0.030304775 0.74000001 1.2306326e-38
-0.010557107 0.030263826 0.73900002 1.2581839e-38
-0.0091494815 0.030263826 0.73900002 1.2765503e-38
-0.0077209184 0.0301819 0.73700011 1.2857331e-38
-0.0063085193 0.030140944 0.73600006 1.304102e-38
-0.0049066273 0.030140951 0.73600006 1.2857366e-38
-0.0034952285 0.030059054 0.73400003 1.2765515e-38
-0.0020913901 0.029977158 0.73200005 1.3418751e-38
-0.00069711253 0.029977143 0.73200005 1.4158522e-38
0.00069718726 0.02997715 0.73200005 1.4719644e-38
0.0020914646 0.02997715 0.73200005 1.5273907e-38
0.0034857402 0.02997715 0.73200005 1.5369709e-38
0.0048800176 0.029977143 0.73200005 1.5364324e-38
0.0062743174 0.02997715 0.73200005 1.5179571e-38
0.0076685948 0.029977158 0.73200005 1.4900774e-38
0.0090504745 0.029936209 0.73099995 1.451651e-38
0.010442863 0.029936209 0.73100001 1.4234889e-38
0.011835218 0.029936217 0.73099995 1.4143035e-38
0.013245723 0.029977158 0.73199999 1.4051202e-38
0.014640001 0.029977158 0.73200005 1.4051204e-38
0.016034301 0.029977165 0.73199999 1.4051565e-38
0.017428579 0.02997715 0.73199999 1.2031905e-38
0.018822856 0.02997715 0.73199999 1.0013696e-38
0.020272406 0.030059054 0.73400003 7.3544319e-39
0.021611473 0.029977143 0.73200005 4.6947927e-39
0.023068599 0.030059062 0.73400003 8.0901963e-39
0.024466682 0.030059054 0.73400003 1.1482698e-38
0.025864771 0.030059047 0.73399997 1.2307034e-38
0.027337182 0.030140959 0.73600006 1.32248e-38
0.028856236 0.030263819 0.73900002 1.5831838e-38
0.030263823 0.030263834 0.73899996 1.8443813e-38
0.031714313 0.030304767 0.74000001 1.8077234e-38
0.033123821 0.030304775 0.74000001 1.7693693e-38
0.034533329 0.030304775 0.73999995 1.5667875e-38
0.03604003 0.030386679 0.74200004 1.3742238e-38
0.037453387 0.030386679 0.74200004 1.4483419e-38
0.038866706 0.030386671 0.74200004 1.5222021e-38
0.040279999 0.030386671 0.74200004 1.3461691e-38
0.041749552 0.030427627 0.74300003 1.1714304e-38
0.043164793 0.030427627 0.74300003 1.3368417e-38
0.044880021 0.030632399 0.74800003 1.5121887e-38
0.046428591 0.030714296 0.75000006 1.5214783e-38
0.047984794 0.030796193 0.75200003 1.5400594e-38
0.049417172 0.030796185 0.75200009 1.6042353e-38
0.051458105 0.031164773 0.76099998 1.668413e-38
0.053046677 0.031246662 0.76300001 1.7052552e-38
0.054642882 0.031328574 0.76500005 1.7511367e-38
0.056100029 0.031328566 0.76500005 1.7419885e-38
-0.02664 0.032399997 0.75600004 9.2807913e-39
-0.025200009 0.032400005 0.75600004 9.8267876e-39
-0.023665672 0.03227143 0.75300008 1.0378522e-38
-0.02214282 0.03214287 0.75000006 1.0653316e-38
-0.020659052 0.032057144 0.74800003 1.0928805e-38
-0.019157141 0.031928591 0.745 1.1204293e-38
-0.017690431 0.031842858 0.74300003 1.1387969e-38
-0.016275192 0.031842858 0.74300003 1.1663479e-38
-0.014859951 0.031842858 0.74300003 1.1847148e-38
-0.013426626 0.031799994 0.74200004 1.212265e-38
-0.011980957 0.031714298 0.74000001 1.2306324e-38
-0.010557125 0.031671442 0.73899996 1.2581834e-38
-0.0091495002 0.03167145 0.73899996 1.2857335e-38
-0.0077104447 0.031542867 0.73600006 1.2949166e-38
-0.0063085118 0.031542845 0.73600006 1.3041012e-38
-0.004906618 0.031542853 0.73600006 1.3132859e-38
-0.0034952005 0.031457148 0.73400003 1.3229383e-38
-0.0020914217 0.031371444 0.73199999 1.37919e-38
-0.00069714419 0.031371452 0.73199999 1.4350133e-38
0.00069719285 0.031371444 0.73200005 1.4724336e-38
0.0020914702 0.031371437 0.73200005 1.5001292e-38
0.0034857476 0.031371437 0.73200005 1.4999157e-38
0.0048800251 0.031371444 0.73200005 1.4999503e-38
0.0062743248 0.031371444 0.73200005 1.4994111e-38
0.0076686023 0.031371444 0.73200005 1.4895744e-38
0.0090628797 0.031371437 0.73200005 1.4510392e-38
0.010442845 0.031328596 0.73099995 1.4143043e-38
0.011835233 0.031328589 0.73100001 1.4143038e-38
0.013245734 0.031371444 0.73199999 1.4051201e-38
0.014640012 0.031371437 0.73200005 1.4143036e-38
0.01603429 0.031371437 0.73200005 1.4143398e-38
0.01742859 0.031371444 0.73199999 1.2030826e-38
0.018822867 0.031371452 0.73199999 9.8310994e-39
0.020272395 0.031457148 0.73400003 7.2643901e-39
0.021611443 0.031371452 0.73199999 4.6940752e-39
0.023005756 0.031371444 0.73200005 8.1834681e-39
0.024466712 0.031457148 0.73400003 1.1574893e-38
0.025864795 0.031457148 0.73400003 1.2489988e-38
0.02733719 0.03154286 0.73600006 1.3416721e-38
0.028856216 0.031671442 0.73899996 1.5921518e-38
0.030263841 0.031671442 0.73899996 1.8342651e-38
0.031714283 0.03171429 0.73999995 1.8729772e-38
0.033123832 0.03171429 0.74000001 1.9083799e-38
0.03453334 0.031714298 0.74000001 1.8718569e-38
0.036040023 0.031800009 0.74200004 1.8249357e-38
0.037453383 0.031800009 0.74200004 1.6691391e-38
0.038866699 0.031800002 0.74200004 1.5114715e-38
0.040334336 0.031842865 0.74300003 1.3537681e-38
0.041749574 0.03184285 0.74300003 1.1887868e-38
0.043280989 0.031928577 0.74500006 1.280909e-38
0.044879995 0.032057151 0.74800003 1.3736434e-38
0.046428587 0.032142878 0.75000006 1.383403e-38
0.047984775 0.032228574 0.75200003 1.3832595e-38
0.049417172 0.032228582 0.75200003 1.5033273e-38
0.051593333 0.032699995 0.76300001 1.622462e-38
0.053046692 0.032699995 0.76300001 1.6963608e-38
-0.026604725 0.033795245 0.75500005 9.4741607e-39
-0.025166657 0.033795252 0.755 1.0481843e-38
-0.023634277 0.033660963 0.75200003 1.1389443e-38
-0.022201879 0.033660971 0.75200003 1.1578861e-38
-0.020659015 0.033481918 0.74800003 1.1663495e-38
-0.019208543 0.03343717 0.74699998 1.1667414e-38
-0.017690448 0.033258095 0.74300003 1.1571638e-38
-0.016275207 0.033258095 0.74300003 1.184715e-38
-0.014859967 0.03325811 0.74300003 1.2030819e-38
-0.013426634 0.033213332 0.74200004 1.212265e-38
-0.011980947 0.033123806 0.74000001 1.2122651e-38
-0.010557107 0.033079058 0.73900002 1.2398158e-38
-0.0091495207 0.033079065 0.73899996 1.2581826e-38
-0.0077209203 0.032989524 0.73700011 1.2673659e-38
-0.0063085435 0.032944761 0.73600006 1.2765498e-38
-0.0049066124 0.032944754 0.73600006 1.2858054e-38
-0.0034952136 0.032855242 0.73400003 1.2951749e-38
-0.0020914143 0.032765724 0.73199999 1.3978148e-38
-0.00069904409 0.032855235 0.73400003 1.4909444e-38
0.00069904246 0.032855235 0.73399997 1.5097087e-38
0.0020914795 0.032765724 0.73200005 1.5374757e-38
0.0034857551 0.032765724 0.73200005 1.5557003e-38
0.0048800306 0.032765716 0.73200005 1.5741732e-38
0.0062743081 0.032765724 0.73200005 1.555302e-38
0.0076686079 0.032765724 0.73200005 1.5453207e-38
0.0090628853 0.032765724 0.73200005 1.4700141e-38
0.010442837 0.032720961 0.73100001 1.4051199e-38
0.01183525 0.032720961 0.73100001 1.4143039e-38
0.01324574 0.032765731 0.73200005 1.4234872e-38
0.014640017 0.032765724 0.73200005 1.4235228e-38
0.016034296 0.032765731 0.73200005 1.4235589e-38
0.017428596 0.032765739 0.73199999 1.1940421e-38
0.018822873 0.032765739 0.73199999 9.73998e-39
0.020272382 0.03285525 0.73399997 7.0796429e-39
0.021670507 0.032855235 0.73400003 4.4189288e-39
0.023068614 0.032855242 0.73400003 7.904017e-39
0.024466701 0.03285525 0.73400003 1.1388353e-38
0.025935303 0.032944761 0.73600006 1.2581823e-38
0.027374314 0.032989517 0.73700005 1.3775811e-38
0.028856196 0.033079065 0.73899996 1.5183243e-38
0.030263821 0.033079065 0.73899996 1.6601364e-38
0.031714294 0.033123828 0.74000001 1.6875487e-38
0.033123802 0.033123828 0.73999995 1.7060566e-38
0.034533352 0.033123806 0.74000001 1.6775347e-38
0.036040016 0.033213347 0.74200004 1.6498028e-38
0.037453372 0.03321334 0.74200004 1.5570685e-38
0.038866691 0.033213347 0.74200004 1.4731904e-38
0.040334318 0.033258095 0.74300003 1.2613525e-38
0.041749556 0.033258095 0.74300003 1.0592782e-38
0.043397177 0.033437163 0.74700004 1.1520101e-38
0.045000017 0.033571437 0.75000006 1.244533e-38
0.046552416 0.033660956 0.75200009 1.2170238e-38
0.048048586 0.033705719 0.75300002 1.1797528e-38
0.050140012 0.034153335 0.76300001 1.2264967e-38
0.051593348 0.034153327 0.76300001 1.2728084e-38
0.053046685 0.034153335 0.76300001 1.420103e-38
-0.029519983 0.035279989 0.75600004 1.0965078e-38
-0.028042842 0.035233349 0.755 1.0318248e-38
-0.026604736 0.035233334 0.75500005 9.6692985e-39
-0.02516667 0.035233341 0.75500005 1.1053285e-38
-0.023634238 0.035093345 0.75200003 1.2421499e-38
-0.022201864 0.03509333 0.75200009 1.2425814e-38
-0.020714276 0.035000019 0.75000006 1.2418625e-38
-0.019208554 0.034860015 0.74699998 1.2138442e-38
-0.017738085 0.034766681 0.745 1.1766793e-38
-0.016275188 0.034673348 0.74300003 1.2030817e-38
-0.014859946 0.034673348 0.74300003 1.2220943e-38
-0.013426641 0.034626678 0.74200004 1.2122648e-38
-0.011980936 0.034533337 0.74000001 1.1940412e-38
-0.010571427 0.034533337 0.74000001 1.212265e-38
-0.009149502 0.034486696 0.73899996 1.2307394e-38
-0.0077209203 0.034393325 0.73700011 1.2398152e-38
-0.0063171061 0.034393325 0.73700011 1.2398156e-38
-0.0049066404 0.03434667 0.73600006 1.2581832e-38
-0.0034952248 0.034253336 0.73399997 1.268018e-38
-0.002097101 0.034253336 0.73400003 1.4074986e-38
-0.00069901429 0.034253336 0.73400003 1.5454343e-38
0.00069714442 0.034160018 0.73199999 1.5563789e-38
0.0020914441 0.034160018 0.73199999 1.5645587e-38
0.0034857607 0.034160011 0.73200005 1.6019752e-38
0.0048800381 0.034160011 0.73200005 1.6383144e-38
0.0062743155 0.034160011 0.73200005 1.6205927e-38
0.0076686153 0.034160003 0.73200005 1.5911678e-38
0.0090628909 0.034160011 0.73200005 1.4878083e-38
0.010457168 0.034160003 0.73200005 1.3867531e-38
0.011851444 0.034160003 0.73200005 1.4143035e-38
0.013245744 0.034160011 0.73200005 1.4326703e-38
0.014640021 0.034160011 0.73200005 1.4326702e-38
0.0160343 0.034160011 0.73200005 1.4235232e-38
0.01747624 0.034253336 0.73400003 1.1939352e-38
0.018874323 0.034253344 0.73400003 9.6470669e-39
0.020272411 0.034253344 0.73400003 6.895246e-39
0.021670494 0.034253329 0.73400003 4.1394791e-39
0.023068603 0.034253336 0.73399997 7.7174915e-39
0.024566719 0.034393318 0.73700011 1.1207218e-38
0.025970496 0.03439334 0.73700005 1.2673694e-38
0.027374312 0.034393333 0.73700005 1.4055577e-38
0.028856218 0.034486689 0.73899996 1.4434086e-38
0.030263841 0.034486681 0.73899996 1.4825898e-38
0.031714302 0.034533359 0.74000001 1.492606e-38
0.033123814 0.034533344 0.74000001 1.5016785e-38
0.034626689 0.03462667 0.74200004 1.4823755e-38
0.036040008 0.034626678 0.74200004 1.4644731e-38
0.037503842 0.034673341 0.74300003 1.4452433e-38
0.038919084 0.034673341 0.74300003 1.4266195e-38
0.040334325 0.034673341 0.74300003 1.177546e-38
0.04186191 0.034766674 0.745 9.3041958e-39
0.043397158 0.034860022 0.74700004 1.0233356e-38
0.045000013 0.035000004 0.75000006 1.1155694e-38
0.046552416 0.03509333 0.75200003 1.0512166e-38
0.048176195 0.035233334 0.75500005 9.7767683e-39
0.049811482 0.035373338 0.75800002 9.5009087e-39
0.051593367 0.03560666 0.76300001 9.1389435e-39
0.053046666 0.035606675 0.76299995 1.143698e-38
-0.029519979 0.036720008 0.75600004 1.106162e-38
-0.028042851 0.036671422 0.755 8.107372e-39
-0.026604746 0.03667143 0.75500005 5.1686291e-39
-0.025099963 0.036574289 0.75300002 8.0162386e-39
-0.023634259 0.036525711 0.75200003 1.0776696e-38
-0.022201885 0.036525711 0.75200003 1.1513901e-38
-0.020714281 0.036428586 0.75000006 1.2344007e-38
-0.019234281 0.036331438 0.74800003 1.2059533e-38
-0.017738082 0.036185719 0.74500006 1.1876569e-38
-0.016275201 0.036088578 0.74300003 1.269662e-38
-0.014859963 0.036088578 0.74300003 1.3526367e-38
-0.013444721 0.036088578 0.74300003 1.2779126e-38
-0.011980963 0.035942875 0.74000001 1.203691e-38
-0.010571416 0.035942867 0.74000001 1.333014e-38
-0.0091495207 0.035894319 0.73899996 1.4513957e-38
-0.0077418955 0.035894305 0.73899996 1.4428936e-38
-0.0063171042 0.035797134 0.73700011 1.4418539e-38
-0.0049133254 0.035797134 0.73700005 1.4243481e-38
-0.0035047391 0.035748579 0.73600006 1.4051246e-38
-0.0021028081 0.035748571 0.73600006 1.452123e-38
-0.00070091418 0.035748571 0.73600006 1.4972552e-38
0.00069905736 0.03565143 0.73400003 1.4985861e-38
0.0020971438 0.03565143 0.73400003 1.507232e-38
0.0034952508 0.035651445 0.73399997 1.5451503e-38
0.0048933746 0.03565143 0.73400003 1.5819574e-38
0.0062914593 0.035651438 0.73400003 1.5641295e-38
0.007689544 0.035651438 0.73400003 1.5456818e-38
0.0090629002 0.03555429 0.73200005 1.4793073e-38
0.010457174 0.03555429 0.73200005 1.4143041e-38
0.011851451 0.035554305 0.73200005 1.4143029e-38
0.013245751 0.035554305 0.73200005 1.4143028e-38
0.014640029 0.035554297 0.73200005 1.4234862e-38
0.016078118 0.03565143 0.73400003 1.432671e-38
0.017476227 0.035651438 0.73400003 1.1848241e-38
0.018925754 0.035748571 0.73600006 9.4630372e-39
0.020327648 0.035748571 0.73600006 6.7086968e-39
0.02172954 0.035748571 0.73600006 4.0469289e-39
0.023131475 0.035748564 0.73600006 8.5511997e-39
0.024533369 0.035748571 0.73600006 1.3141527e-38
0.025970496 0.035797156 0.73700005 1.3974132e-38
0.027374314 0.035797134 0.73700005 1.469587e-38
0.028778128 0.035797141 0.73700011 1.4163836e-38
0.030181944 0.035797134 0.73700011 1.3709063e-38
0.031585723 0.035797141 0.73700005 1.3259312e-38
0.033123825 0.03594286 0.74000001 1.2797943e-38
0.034533333 0.035942867 0.74000001 1.3535457e-38
0.035942882 0.035942867 0.74000001 1.4273357e-38
0.037453357 0.036040001 0.74200004 1.446096e-38
0.038919102 0.036088586 0.74300003 1.4635974e-38
0.040334344 0.036088586 0.74300003 1.1867587e-38
0.04197431 0.036282875 0.74699998 9.1144067e-39
0.043455243 0.03633143 0.74800003 1.013796e-38
0.044880029 0.036331438 0.74800003 1.1156061e-38
0.046614327 0.036574289 0.75300002 1.0695824e-38
0.048176207 0.03667143 0.755 1.0327404e-38
0.049680032 0.03672 0.75600004 9.7771074e-39
0.051255263 0.036817156 0.75799996 9.3179299e-39
0.052699104 0.036817163 0.75800002 1.0329555e-38
-0.029519998 0.038159996 0.75600004 1.1141612e-38
-0.028154254 0.03826097 0.75800002 5.8810983e-39
-0.026639994 0.038160007 0.75600004 6.5401262e-40
-0.025099931 0.038008567 0.75300002 4.8823943e-39
-0.023665672 0.038008578 0.75300002 9.1197639e-39
-0.02214285 0.037857149 0.75000006 1.0693185e-38
-0.020714259 0.037857153 0.75000006 1.2160378e-38
-0.019234268 0.037756201 0.74800003 1.2062423e-38
-0.017785689 0.037705723 0.74700004 1.1970933e-38
-0.016319029 0.037604768 0.74500006 1.3352038e-38
-0.014899981 0.037604772 0.74500006 1.4723464e-38
-0.013426658 0.037453339 0.74200004 1.3430943e-38
-0.011980952 0.037352391 0.74000001 1.2149225e-38
-0.010571443 0.037352391 0.74000001 1.4462724e-38
-0.0091618942 0.037352391 0.74000001 1.6748909e-38
-0.007741875 0.037301913 0.73900002 1.6568093e-38
-0.0063342499 0.037301913 0.73900002 1.6378693e-38
-0.0049133254 0.03720095 0.73700005 1.5922038e-38
-0.0035047298 0.03715048 0.73600006 1.536422e-38
-0.0021028379 0.03715048 0.73600006 1.4985769e-38
-0.00070090487 0.037150472 0.73600006 1.4531265e-38
0.00070098706 0.03715048 0.73600006 1.451872e-38
0.002102905 0.03715048 0.73600006 1.443837e-38
0.0034952788 0.037049524 0.73400003 1.4802131e-38
0.0048933635 0.037049532 0.73400003 1.5180951e-38
0.00629145 0.037049532 0.73400003 1.5083018e-38
0.0076895347 0.037049532 0.73400003 1.4900374e-38
0.0090629058 0.036948591 0.73200005 1.4602577e-38
0.010457183 0.036948591 0.73200005 1.4336037e-38
0.011851461 0.036948584 0.73200005 1.4143036e-38
0.013245738 0.036948577 0.73200005 1.3971562e-38
0.014680021 0.037049524 0.73400003 1.4143038e-38
0.016078109 0.037049524 0.73400003 1.4339264e-38
0.017523872 0.037150465 0.73600006 1.184751e-38
0.018925766 0.037150472 0.73600006 9.282578e-39
0.020327657 0.037150472 0.73600006 6.6136131e-39
0.021729551 0.037150472 0.73600006 3.8654061e-39
0.023131445 0.037150487 0.73600006 9.4817627e-39
0.024566716 0.037200943 0.73700011 1.5092685e-38
0.025970496 0.037200958 0.73700005 1.5292847e-38
0.027374312 0.037200943 0.73700005 1.5370651e-38
0.028778126 0.037200943 0.73700005 1.3999895e-38
0.030181944 0.037200935 0.73700011 1.2522346e-38
0.031714287 0.037352391 0.74000001 1.160442e-38
0.033123836 0.037352391 0.74000001 1.0586656e-38
0.034533344 0.037352398 0.74000001 1.224647e-38
0.03604003 0.037453339 0.74200004 1.3820279e-38
0.03745335 0.037453339 0.74200004 1.4481832e-38
0.038919087 0.037503816 0.74300003 1.5010904e-38
0.040442891 0.037604772 0.74500006 1.1944042e-38
0.042030502 0.037756205 0.74800003 8.9304008e-39
0.043455221 0.037756208 0.74800003 1.0047206e-38
0.045120038 0.037958093 0.75200003 1.1154626e-38
0.04661433 0.038008567 0.75300002 1.0971326e-38
0.048048615 0.038008586 0.75300002 1.0788375e-38
0.049680006 0.03816 0.75600004 1.0145889e-38
0.05112002 0.038159993 0.75600004 9.5016023e-39
-0.028154232 0.039704777 0.75800002 5.1514562e-39
-0.026639977 0.0396 0.75600004 1.0106235e-39
-0.025099963 0.03944286 0.75300002 3.2250926e-39
-0.023634242 0.039390478 0.75200003 5.5350042e-39
-0.022142852 0.039285719 0.75000006 8.6674878e-39
-0.020714264 0.039285719 0.75000006 1.1796308e-38
-0.019234292 0.039180964 0.74800003 1.1327042e-38
-0.017785706 0.039128598 0.74700004 1.0868565e-38
-0.016319042 0.039023824 0.745 1.2344014e-38
-0.014899977 0.039023809 0.74500006 1.3900898e-38
-0.013426664 0.038866676 0.74200004 1.0034823e-38
-0.012013309 0.038866673 0.74200004 6.1860489e-39
-0.01059999 0.038866676 0.74200004 9.3131851e-39
-0.0091619221 0.038761914 0.73999995 1.2450987e-38
-0.0077418936 0.038709529 0.73899996 1.3545807e-38
-0.0063342685 0.038709536 0.73899996 1.4657178e-38
-0.0049133273 0.038604762 0.73700005 1.5296815e-38
-0.0035095112 0.038604759 0.73700005 1.5855339e-38
-0.0021028267 0.038552381 0.73600006 1.5567612e-38
-0.00070093281 0.038552389 0.73600006 1.5392895e-38
0.00070099824 0.038552381 0.73600006 1.3719034e-38
0.0021029143 0.038552385 0.73600006 1.2074972e-38
0.0035048081 0.038552385 0.73600006 1.4367281e-38
0.0048933504 0.038447633 0.73399997 1.6672484e-38
0.0062914351 0.038447626 0.73399997 1.5377447e-38
0.0076895589 0.038447615 0.73400003 1.3999189e-38
0.0090876436 0.038447615 0.73400003 1.3803311e-38
0.010457189 0.038342863 0.73200005 1.3628257e-38
0.011851464 0.038342867 0.73200005 1.5281301e-38
0.013245742 0.038342863 0.73200005 1.6855422e-38
0.014680008 0.038447633 0.73400003 1.7121244e-38
0.016078098 0.038447633 0.73399997 1.7406426e-38
0.017523842 0.038552381 0.73600006 1.3531388e-38
0.018925773 0.038552374 0.73600006 9.7568068e-39
0.020327667 0.038552374 0.73600006 6.5271389e-39
0.021729559 0.038552389 0.73600006 3.3086492e-39
0.023131453 0.038552389 0.73600006 8.1049576e-39
0.024533384 0.038552381 0.73600006 1.2995905e-38
0.025935303 0.038552385 0.73600006 1.3546909e-38
0.027337195 0.038552392 0.73600006 1.4188276e-38
0.028739087 0.038552392 0.73600006 1.1606074e-38
0.030181944 0.038604762 0.73700011 9.0307745e-39
0.03167145 0.038709536 0.73899996 9.203364e-39
0.033123806 0.038761932 0.74000001 9.4626869e-39
0.034626693 0.038866676 0.74199998 1.2151703e-38
0.036040023 0.03886668 0.74200004 1.4829754e-38
0.037453339 0.038866684 0.74200004 1.5303394e-38
0.038919069 0.038919054 0.74300003 1.5858643e-38
0.040442854 0.039023824 0.745 1.2800381e-38
0.041974317 0.039128602 0.74700004 9.8505747e-39
0.043455236 0.039180972 0.74800003 1.0781536e-38
0.045120016 0.039390478 0.75200003 1.1616673e-38
0.0466143 0.03944286 0.75300002 1.1341174e-38
0.048048623 0.039442863 0.75300002 1.1065674e-38
0.049614314 0.039547633 0.75500005 1.0697622e-38
0.051120002 0.039600007 0.75600004 1.0236288e-38
-0.025099955 0.040877134 0.75300002 1.6552502e-39
-0.023634262 0.040822864 0.75200003 1.9440466e-39
-0.022201888 0.04082286 0.75200003 6.6445355e-39
-0.020714266 0.040714294 0.75000006 1.1325988e-38
-0.019285679 0.040714294 0.75000006 1.0489418e-38
-0.017785721 0.040551439 0.74699998 9.6718741e-39
-0.01631904 0.040442873 0.745 1.1345728e-38
-0.014899991 0.040442873 0.745 1.2977195e-38
-0.013444734 0.040334284 0.74300003 6.528934e-39
-0.012013316 0.040279999 0.74200004 1.0731144e-40
-0.010599998 0.040280003 0.74200004 4.0602301e-39
-0.009161911 0.040171444 0.74000001 8.0174058e-39
-0.0077523654 0.040171426 0.74000001 1.0507007e-38
-0.0063342499 0.040117159 0.73900002 1.2899778e-38
-0.0049266638 0.040117159 0.73899996 1.4660822e-38
-0.0035095112 0.04000856 0.73700005 1.6305959e-38
-0.0021056952 0.040008564 0.73700005 1.6220213e-38
-0.00070092536 0.03995429 0.73600006 1.6114705e-38
0.00070096843 0.03995429 0.73600006 1.289002e-38
0.0021028994 0.039954282 0.73600006 9.6772299e-39
0.0035048136 0.039954294 0.73600006 1.3919975e-38
0.0049067093 0.039954301 0.73600006 1.8144377e-38
0.0063086031 0.039954301 0.73600006 1.5663351e-38
0.0077105341 0.039954286 0.73600006 1.3073305e-38
0.0090876324 0.039845716 0.73400003 1.2983266e-38
0.010485719 0.03984572 0.73400003 1.2892548e-38
0.01188383 0.039845724 0.73399997 1.6314182e-38
0.01328195 0.039845712 0.73400003 1.9711708e-38
0.014720061 0.03995429 0.73600006 2.0079741e-38
0.016078122 0.03984572 0.73400003 2.0353116e-38
0.017523849 0.039954282 0.73600006 1.5298596e-38
0.018925741 0.03995429 0.73600006 1.0220697e-38
0.020327672 0.039954275 0.73600006 6.5206874e-39
0.02172957 0.03995429 0.73600006 2.764441e-39
0.023131464 0.03995429 0.73600006 6.8163641e-39
0.024533356 0.03995429 0.73600006 1.0781792e-38
0.025935311 0.039954294 0.73600006 1.1893864e-38
0.027262887 0.03984572 0.73400003 1.2896506e-38
0.028660974 0.039845727 0.73400003 9.2047751e-39
0.030181944 0.040008564 0.73700011 5.4380862e-39
0.031671472 0.040117167 0.73900002 6.8988446e-39
0.033123814 0.040171441 0.74000001 8.2814175e-39
0.034533329 0.04017143 0.74000001 1.2068574e-38
0.036040016 0.040280011 0.74200004 1.5848957e-38
0.037503872 0.040334281 0.74300003 1.6226404e-38
0.039023831 0.040442854 0.745 1.6586853e-38
0.04055145 0.040551443 0.74700004 1.3731268e-38
0.041974306 0.040551439 0.74700004 1.0782183e-38
0.043455232 0.040605735 0.74800003 1.1427239e-38
0.045180049 0.04087713 0.75300008 1.2074413e-38
0.04661433 0.040877141 0.75300002 1.1710679e-38
0.048048593 0.040877145 0.75300002 1.1342981e-38
0.049614303 0.040985715 0.75500005 1.1159313e-38
0.051119983 0.041040007 0.75600004 1.0973125e-38
0.052559994 0.041040007 0.75600004 1.0694386e-38
0.054499984 0.041420005 0.76300001 1.0327397e-38
-0.025099963 0.042311423 0.75300002 1.747415e-39
-0.023634247 0.042255241 0.75200009 2.2980706e-39
-0.022201888 0.042255238 0.75200003 5.3422752e-39
-0.020769514 0.042255234 0.75200003 8.3836422e-39
-0.019285683 0.042142864 0.75000006 8.0070068e-39
-0.017785672 0.041974299 0.74700004 7.7279452e-39
-0.016319036 0.041861914 0.745 9.024435e-39
-0.014899987 0.041861914 0.745 1.0307184e-38
-0.013444751 0.041749537 0.74300003 5.3343565e-39
-0.0120133 0.041693348 0.74200004 4.5956844e-40
-0.010600005 0.041693345 0.74200004 2.3013272e-39
-0.0091619035 0.041580956 0.74000001 4.0415676e-39
-0.0077523915 0.04158096 0.74000001 5.2490889e-39
-0.0063342685 0.041524783 0.73899996 6.539483e-39
-0.0049266433 0.041524768 0.73900002 7.3735695e-39
-0.0035190182 0.041524775 0.73900002 8.2015295e-39
-0.0021056933 0.041412383 0.73700011 8.2015337e-39
-0.00070187903 0.041412372 0.73700011 8.2000343e-39
0.00070196309 0.04141238 0.73700011 6.6290806e-39
0.0021057399 0.041412383 0.73700005 5.1504108e-39
0.003504823 0.041356195 0.73600006 1.0509181e-38
0.0049067168 0.041356202 0.73600006 1.5944644e-38
0.0063086106 0.041356202 0.73600006 1.1324118e-38
