# .PCD v0.7 - Point Cloud Data file format
VERSION 0.7
FIELDS x y z rgb
SIZE 4 4 4 4
TYPE F F F F
COUNT 1 1 1 1
WIDTH 970
HEIGHT 1
VIEWPOINT 0 0 0 1 0 0 0
POINTS 970
DATA ascii
0.036720008 0.029520012 0.75599998 9.4997498e-39
0.038260922 0.029598095 0.75799996 1.3561729e-38
0.039809503 0.029676206 0.75999999 1.760213e-38
0.041257154 0.029676192 0.76000005 1.7326623e-38
0.042873342 0.029793344 0.76300001 1.695749e-38
0.044326622 0.029793344 0.76299995 1.7050047e-38
-0.034242865 0.031328574 0.76500005 4.6011467e-39
-0.032699995 0.031246677 0.76300001 7.0778156e-39
-0.031164771 0.031164765 0.76099998 9.207949e-39
-0.029598124 0.031041905 0.75799996 1.1415595e-38
-0.028154319 0.031041913 0.75799996 1.1307265e-38
-0.026604751 0.030919053 0.75500005 1.1205022e-38
-0.025100043 0.030837141 0.75299996 1.1480164e-38
-0.023634294 0.0307962 0.75199997 1.1755669e-38
-0.022142842 0.030714281 0.75000006 1.2030814e-38
-0.020714307 0.030714296 0.75000006 1.2398155e-38
-0.019234311 0.030632399 0.74800003 1.2765496e-38
-0.017785719 0.030591428 0.74700004 1.3041003e-38
-0.016362878 0.030591436 0.74700004 1.3224674e-38
-0.014939973 0.030591428 0.74700004 1.331651e-38
-0.013480985 0.030509539 0.74500006 1.3408345e-38
-0.01206189 0.030509531 0.74500006 1.3500189e-38
-0.010642856 0.030509531 0.74500006 1.3592032e-38
-0.0091990735 0.030427642 0.74300003 1.3775706e-38
-0.007783826 0.030427642 0.74300003 1.4699084e-38
-0.0063685994 0.03042762 0.74300003 1.5614585e-38
-0.0049533504 0.030427627 0.74300003 1.6088126e-38
-0.0035333384 0.030386671 0.74200004 1.6638086e-38
-0.0021142859 0.030304767 0.74000001 1.6456231e-38
-0.00070479268 0.030304775 0.74000001 1.6269713e-38
0.00070476218 0.030304767 0.74000001 1.6646763e-38
0.0021142799 0.030304775 0.74000001 1.7020949e-38
0.0035333585 0.030386671 0.74200004 1.7027074e-38
0.0049466831 0.030386686 0.74200004 1.6938759e-38
0.0063599856 0.030386686 0.74200004 1.6552695e-38
0.0077733495 0.030386679 0.74200004 1.6094302e-38
0.0091990205 0.030427642 0.74300003 1.6465658e-38
0.010614269 0.030427642 0.74300003 1.6932769e-38
0.012029518 0.030427642 0.74299997 1.7217645e-38
0.013444744 0.030427642 0.74300003 1.7509994e-38
0.014859993 0.030427642 0.74299997 1.722012e-38
0.016275218 0.03042765 0.74300003 1.6948569e-38
0.017690467 0.030427635 0.74299997 1.721942e-38
0.019105693 0.030427627 0.74300003 1.7505334e-38
0.020576177 0.030509539 0.74500006 1.7489554e-38
0.021995211 0.030509531 0.74500006 1.7496359e-38
0.023477165 0.030591443 0.74700004 1.7670332e-38
0.02493334 0.030632399 0.74800003 1.7858593e-38
0.02635807 0.030632399 0.74799997 1.6929761e-38
0.027857149 0.030714288 0.75000006 1.5998487e-38
0.029402819 0.030837156 0.75299996 1.4818969e-38
0.030837124 0.030837148 0.75300002 1.3639421e-38
0.032357134 0.030919038 0.75500005 1.2157461e-38
0.033795245 0.030919045 0.75500005 1.0685268e-38
0.035279986 0.030960023 0.75599998 1.0038877e-38
0.036719985 0.030960023 0.75599998 9.3160788e-39
0.038260955 0.03104189 0.75800002 1.2175581e-38
0.039809518 0.031123817 0.76000005 1.4938188e-38
0.041257132 0.031123824 0.76000005 1.4750936e-38
0.04287333 0.03124667 0.76300001 1.4476149e-38
0.044442832 0.031328574 0.76500005 1.4659462e-38
-0.034242854 0.032785721 0.76500005 3.6824148e-39
-0.03270001 0.03270001 0.76299995 6.5346877e-39
-0.031123819 0.032571435 0.76000005 9.1254462e-39
-0.029519999 0.032400012 0.75600004 1.1596755e-38
-0.02808 0.032400005 0.75600004 1.1486986e-38
-0.026604766 0.032357149 0.75500005 1.1390122e-38
-0.025100039 0.032271437 0.75299996 1.1571637e-38
-0.023665735 0.032271437 0.75300002 1.1755309e-38
-0.022201899 0.032228574 0.75200003 1.2122651e-38
-0.020714277 0.032142855 0.75000006 1.2398162e-38
-0.019234302 0.032057151 0.74800003 1.2765508e-38
-0.0177857 0.032014281 0.74700004 1.3132849e-38
-0.016384786 0.032057151 0.74799997 1.3224683e-38
-0.014939993 0.032014288 0.74699998 1.331652e-38
-0.013480949 0.031928584 0.74500006 1.3408358e-38
-0.012061893 0.031928577 0.74500006 1.3500191e-38
-0.010642858 0.031928577 0.74500006 1.3592023e-38
-0.0091990568 0.031842865 0.74300003 1.3596383e-38
-0.0077838297 0.031842865 0.74300003 1.544642e-38
-0.0063685807 0.031842865 0.74300003 1.7203504e-38
-0.0049533336 0.031842873 0.74300003 1.8048333e-38
-0.0035333124 0.031800002 0.74200004 1.8861594e-38
-0.0021143027 0.031714298 0.74000001 1.8406735e-38
-0.00070664601 0.031800002 0.74200004 1.7852492e-38
0.00070667884 0.031800002 0.74200004 1.841893e-38
0.0021142631 0.031714298 0.74000001 1.8966733e-38
0.0035333454 0.031800009 0.74200004 1.8427219e-38
0.0049466868 0.031800002 0.74200004 1.7853181e-38
0.0063600116 0.031800002 0.74200004 1.7381024e-38
0.0077733365 0.031800017 0.74199998 1.6828256e-38
0.0091990372 0.031842865 0.74300003 1.701663e-38
0.010600003 0.031800009 0.74199998 1.7110653e-38
0.012029511 0.031842858 0.74300003 1.7496683e-38
0.013444761 0.031842873 0.74300003 1.776141e-38
0.014859987 0.031842865 0.74300003 1.7212533e-38
0.016275233 0.031842873 0.74300003 1.6559644e-38
0.017690459 0.031842865 0.74300003 1.6189795e-38
0.019105708 0.031842865 0.74300003 1.5816687e-38
0.02057619 0.031928577 0.74500012 1.5428872e-38
0.021995245 0.031928577 0.74500006 1.4981912e-38
0.02347712 0.032014288 0.74700004 1.5705497e-38
0.024933329 0.032057151 0.74800003 1.6381284e-38
0.026428567 0.032142863 0.75000006 1.6759324e-38
0.027857142 0.032142855 0.75000006 1.7121276e-38
0.029402822 0.032271437 0.75299996 1.4189349e-38
0.030837128 0.03227143 0.75300002 1.1232326e-38
0.032357119 0.032357134 0.755 9.7536399e-39
0.03379523 0.032357141 0.75500005 8.2914648e-39
0.035279978 0.032399997 0.75599998 8.7528129e-39
0.036719996 0.032400005 0.75599998 9.1288219e-39
0.038260952 0.032485723 0.75800002 1.0702638e-38
0.039809495 0.032571435 0.75999999 1.2266712e-38
0.041311435 0.032614283 0.76100004 1.2171287e-38
0.042985711 0.032785729 0.76500005 1.1990491e-38
0.04455905 0.032871418 0.76700002 1.2357118e-38
-0.035793319 0.034332372 0.76700002 1.2932654e-39
-0.034242883 0.034242868 0.76499999 3.221424e-39
-0.032700021 0.034153335 0.76299995 5.0584983e-39
-0.031123804 0.034019046 0.76000005 8.1966936e-39
-0.029598096 0.033929527 0.75800002 1.1235872e-38
-0.028080028 0.033840016 0.75599998 1.1589219e-38
-0.026640028 0.033840016 0.75599998 1.1847143e-38
-0.025166668 0.033795238 0.75500005 1.1847498e-38
-0.023728594 0.033795245 0.755 1.1847143e-38
-0.02220189 0.033660956 0.75200003 1.2030817e-38
-0.020714287 0.033571437 0.75000006 1.2214498e-38
-0.019285712 0.033571437 0.75000006 1.2581848e-38
-0.017809527 0.033481911 0.74800003 1.3041023e-38
-0.016384801 0.033481918 0.74800003 1.322469e-38
-0.01496001 0.033481918 0.74800003 1.3408366e-38
-0.013517131 0.033437148 0.74700004 1.3408371e-38
-0.012061915 0.033347629 0.74500006 1.3316522e-38
-0.01064286 0.033347629 0.74500006 1.3500179e-38
-0.0091990614 0.03325811 0.74300003 1.3775792e-38
-0.0077838129 0.033258103 0.74300003 1.4988773e-38
-0.006368564 0.033258103 0.74300003 1.6214574e-38
-0.0049533392 0.033258103 0.74300003 1.6572601e-38
-0.00353809 0.033258103 0.74300003 1.7026761e-38
-0.0021199838 0.033213332 0.74200004 1.6653325e-38
-0.00070665905 0.033213355 0.74199998 1.638533e-38
0.00070668256 0.03321334 0.74200004 1.6657584e-38
0.0021200075 0.033213347 0.74200004 1.7040361e-38
0.0035333491 0.03321334 0.74200004 1.6656168e-38
0.0049466738 0.033213347 0.74200004 1.6369478e-38
0.0063600377 0.033213347 0.74200004 1.5994897e-38
0.0077733402 0.033213347 0.74200004 1.5627208e-38
0.009199054 0.033258118 0.74300003 1.5624349e-38
0.010600007 0.03321334 0.74200004 1.5618995e-38
0.012029528 0.033258118 0.74300003 1.5809867e-38
0.013444755 0.033258103 0.74300003 1.6071726e-38
0.014860004 0.033258103 0.74300003 1.6173231e-38
0.016275229 0.033258103 0.74300003 1.625538e-38
0.017690478 0.03325811 0.74300003 1.6544158e-38
0.019105705 0.033258103 0.74300003 1.6806336e-38
0.020576192 0.033347629 0.74500006 1.6543329e-38
0.021995245 0.033347622 0.74500006 1.6256398e-38
0.023414278 0.033347622 0.74500006 1.5453968e-38
0.024900006 0.03343714 0.74699998 1.4650711e-38
0.026358066 0.033481918 0.74800003 1.4552363e-38
0.02785713 0.033571437 0.75 1.4466256e-38
0.029363837 0.033660948 0.75200003 1.2795986e-38
0.03083713 0.033705711 0.75300002 1.1020674e-38
0.032271396 0.033705719 0.75300002 9.4727972e-39
0.033795215 0.033795252 0.75500005 8.0141829e-39
0.035233326 0.033795238 0.75500005 7.9209026e-39
0.036671404 0.033795238 0.75500005 7.8359517e-39
0.038160011 0.033840001 0.75599998 9.9611512e-39
0.03980951 0.034019053 0.76000005 1.2080534e-38
0.041311406 0.034063816 0.76099998 1.1711747e-38
0.042985719 0.034242854 0.76500005 1.1253293e-38
0.044559065 0.03433238 0.76700002 1.1343699e-38
-0.03886668 0.035933331 0.77000004 1.0591974e-38
-0.037302896 0.035840012 0.76800001 6.2563338e-39
-0.035840049 0.035840005 0.76799995 1.8435539e-39
-0.034242876 0.035699993 0.76500005 2.7593851e-39
-0.032700032 0.035606675 0.76299995 3.5909282e-39
-0.031123826 0.035466678 0.76000005 7.2751114e-39
-0.0295981 0.035373323 0.75800002 1.0862805e-38
-0.028080013 0.035280004 0.75599998 1.160324e-38
-0.026640013 0.035280012 0.75599998 1.2323201e-38
-0.025166705 0.035233334 0.75500005 1.2123373e-38
-0.023665732 0.035140015 0.75300002 1.1848222e-38
-0.022201877 0.035093337 0.75200003 1.193898e-38
-0.020769496 0.035093337 0.75200003 1.1938989e-38
-0.019285722 0.035000004 0.75000006 1.249001e-38
-0.017809553 0.034906685 0.74799997 1.2949192e-38
-0.016384788 0.03490667 0.74800003 1.3224702e-38
-0.01496 0.03490667 0.74800003 1.3500213e-38
-0.013517137 0.034860007 0.74700004 1.3316546e-38
-0.01209427 0.034860007 0.74700004 1.3132864e-38
-0.010642884 0.034766667 0.74500006 1.3500195e-38
-0.0092238262 0.034766667 0.74500006 1.3869382e-38
-0.0078047938 0.034766681 0.74500006 1.4517662e-38
-0.0063856984 0.034766674 0.74500006 1.5083752e-38
-0.0049533225 0.034673348 0.74300003 1.5092373e-38
-0.0035380956 0.034673348 0.74300003 1.5080536e-38
-0.002119995 0.03462667 0.74199998 1.49783e-38
-0.00070665532 0.03462667 0.74200004 1.4889672e-38
0.00070666953 0.03462667 0.74200004 1.4969647e-38
0.0021200094 0.03462667 0.74200004 1.4982567e-38
0.0035333361 0.034626678 0.74200004 1.4878539e-38
0.0049466998 0.03462667 0.74200004 1.4791696e-38
0.0063600023 0.034626678 0.74200004 1.4602256e-38
0.0077733663 0.03462667 0.74200004 1.4330355e-38
0.0091990484 0.034673341 0.74300003 1.4234952e-38
0.010600031 0.034626678 0.74200004 1.4053101e-38
0.012029524 0.034673333 0.74300003 1.4235006e-38
0.013444773 0.034673341 0.74300003 1.4331836e-38
0.014859997 0.034673341 0.74300003 1.5153307e-38
0.016275207 0.034673356 0.74299997 1.5998473e-38
0.017690431 0.034673348 0.74299997 1.6925432e-38
0.019157132 0.034766674 0.74500006 1.7755538e-38
0.020576188 0.034766674 0.74500006 1.7681639e-38
0.021995222 0.034766674 0.74500006 1.7579404e-38
0.023477161 0.034860007 0.74700004 1.5294283e-38
0.024933308 0.034906685 0.74799997 1.2888594e-38
0.026428564 0.034999996 0.75000006 1.2332888e-38
0.027931446 0.035093322 0.75200003 1.1788362e-38
0.029402828 0.035140008 0.75299996 1.1323474e-38
0.03083713 0.035140008 0.75300002 1.0857824e-38
0.0322714 0.035140015 0.75299996 9.2862031e-39
0.033795238 0.035233334 0.75500005 7.6371075e-39
0.035233311 0.035233341 0.75500005 7.0807107e-39
0.036671426 0.035233341 0.75500005 6.4515795e-39
0.03816 0.035279997 0.75600004 9.2246679e-39
0.039704747 0.03537333 0.75799996 1.1893629e-38
0.041419983 0.035606675 0.76300001 1.1250413e-38
0.042985689 0.035700008 0.76500005 1.0514651e-38
0.044559054 0.035793334 0.76700002 1.0328108e-38
-0.040438093 0.03749714 0.77200001 9.041556e-39
-0.038967628 0.037497159 0.77200001 1.1338856e-38
-0.037302867 0.037302859 0.76799995 6.9999651e-39
-0.035840027 0.037302859 0.76800001 2.7586732e-39
-0.034242868 0.037157141 0.76500005 2.3920501e-39
-0.032700006 0.037060015 0.76300001 2.0261417e-39
-0.031164786 0.036962867 0.76099998 5.4319443e-39
-0.029598106 0.036817133 0.75800002 8.8363415e-39
-0.028154299 0.036817141 0.75800002 9.6714972e-39
-0.026710492 0.036817148 0.75800002 1.0595925e-38
-0.025200002 0.036720008 0.75600004 1.168214e-38
-0.023728589 0.036671422 0.755 1.2861287e-38
-0.02223146 0.036574289 0.75299996 1.2682988e-38
-0.020769523 0.036525726 0.75199997 1.2581834e-38
-0.019285729 0.036428586 0.75 1.2768023e-38
-0.017857155 0.036428578 0.75000006 1.3041031e-38
-0.01638478 0.036331438 0.74799997 1.3224714e-38
-0.014939997 0.03628286 0.74699998 1.3408389e-38
-0.013517154 0.03628286 0.74699998 1.3316556e-38
-0.012061917 0.036185734 0.745 1.3316548e-38
-0.010642846 0.036185719 0.74500006 1.350021e-38
-0.0092238113 0.036185727 0.74500006 1.3683877e-38
-0.0078047565 0.036185727 0.74500006 1.4144844e-38
-0.0063857227 0.036185719 0.74500006 1.4510401e-38
-0.0049533672 0.036088593 0.74300003 1.4701972e-38
-0.003538118 0.036088586 0.74299997 1.4785916e-38
-0.0021228932 0.036088601 0.74300003 1.4879904e-38
-0.00070764439 0.036088593 0.74299997 1.4969567e-38
0.00070667139 0.036039993 0.74200004 1.5153217e-38
0.0021199964 0.036040001 0.74199998 1.5428723e-38
0.0035333622 0.036040001 0.74200004 1.5431952e-38
0.0049466626 0.036040001 0.74200004 1.5520563e-38
0.0063685519 0.036088586 0.74299997 1.571213e-38
0.007773329 0.036040001 0.74200004 1.5979771e-38
0.0091866935 0.036039993 0.74200004 1.6359337e-38
0.010614255 0.036088586 0.74300003 1.6714512e-38
0.012029503 0.036088593 0.74299997 1.6823594e-38
0.01344473 0.036088586 0.74300003 1.6917902e-38
0.014859975 0.036088586 0.74299997 1.6652759e-38
0.016275201 0.036088586 0.74300003 1.6394819e-38
0.01769045 0.036088593 0.74299997 1.6112126e-38
0.019105699 0.036088578 0.74299997 1.5751656e-38
0.020520922 0.036088578 0.74300003 1.6028293e-38
0.02199522 0.036185727 0.74500006 1.6309852e-38
0.023414252 0.036185727 0.74500006 1.2332539e-38
0.024933297 0.03633143 0.74800003 8.4496167e-39
0.026428556 0.036428586 0.75000006 1.1222973e-38
0.02785713 0.036428571 0.75000006 1.4081781e-38
0.029363802 0.036525711 0.75200003 1.4460671e-38
0.030837134 0.036574304 0.75300002 1.4923354e-38
0.032271404 0.036574312 0.75299996 1.1417019e-38
0.033795223 0.03667143 0.755 8.0044018e-39
0.035233334 0.03667143 0.75500005 7.8149939e-39
0.036671408 0.036671437 0.75500005 7.726132e-39
0.038109522 0.03667143 0.75500005 1.0140146e-38
0.039809503 0.036914311 0.76000005 1.2631536e-38
0.041419972 0.037060022 0.76300001 1.1710662e-38
0.042873319 0.037060007 0.76300001 1.0880187e-38
0.044559047 0.037254296 0.76700002 1.0696506e-38
-0.040438063 0.038967635 0.77200001 8.7714712e-39
-0.038967647 0.038967628 0.77200001 1.1973469e-38
-0.037497144 0.038967632 0.77200001 7.8289873e-39
-0.036026642 0.038967628 0.77200001 3.5902051e-39
-0.034242898 0.038614292 0.76500005 2.0232634e-39
-0.032700017 0.038513348 0.76300001 4.6457528e-40
-0.031123834 0.038361914 0.76000005 3.6813344e-39
-0.029598109 0.038260959 0.75800002 6.8127362e-39
-0.028154304 0.038260959 0.75800002 7.8333565e-39
-0.026640026 0.038160019 0.75599998 8.7506353e-39
-0.025200028 0.038160007 0.75599998 1.1332074e-38
-0.023728587 0.038109511 0.75500005 1.3803719e-38
-0.02223146 0.038008582 0.75299996 1.3533574e-38
-0.02076951 0.0379581 0.75200003 1.3157617e-38
-0.019285722 0.037857145 0.75000006 1.3143262e-38
-0.017809557 0.037756197 0.74799997 1.305286e-38
-0.016384767 0.037756201 0.74799997 1.3132857e-38
-0.014939999 0.037705712 0.74700004 1.323151e-38
-0.013480937 0.037604779 0.74500006 1.3408368e-38
-0.012061904 0.037604775 0.74500006 1.3505944e-38
-0.010642846 0.037604783 0.74500006 1.3500207e-38
-0.0092238132 0.037604764 0.74500006 1.3504147e-38
-0.0078047565 0.037604764 0.74500006 1.37757e-38
-0.0063857227 0.037604764 0.74500006 1.3964053e-38
-0.0049666665 0.037604772 0.74500006 1.4234914e-38
-0.0035476324 0.037604768 0.74500006 1.451794e-38
-0.0021228765 0.03750382 0.74300003 1.4786256e-38
-0.00070762762 0.03750382 0.74299997 1.4977452e-38
0.00070759712 0.037503812 0.74300003 1.5428729e-38
0.0021228462 0.037503827 0.74299997 1.5812228e-38
0.0035333249 0.037453346 0.74200004 1.6083442e-38
0.0049533197 0.037503827 0.74300003 1.6278947e-38
0.0063685481 0.03750382 0.74300003 1.6929684e-38
0.0077733551 0.037453346 0.74200004 1.7574738e-38
0.0091990223 0.037503827 0.74300003 1.8508213e-38
0.010614273 0.037503827 0.74300003 1.941939e-38
0.01202952 0.037503831 0.74299997 1.9426203e-38
0.013444747 0.037503827 0.74300003 1.9423282e-38
0.014859992 0.037503831 0.74300003 1.8145068e-38
0.016275218 0.037503835 0.74300003 1.6756075e-38
0.017690465 0.037503831 0.74300003 1.5284217e-38
0.019105691 0.037503827 0.74300003 1.3723761e-38
0.02052094 0.037503831 0.74300003 1.4369867e-38
0.021995259 0.037604764 0.74500006 1.4912936e-38
0.023508579 0.037756193 0.74800003 9.4594345e-39
0.024933307 0.037756197 0.74800003 4.0462143e-39
0.026428588 0.037857149 0.75000006 1.0210724e-38
0.027931429 0.037958093 0.75200003 1.6299497e-38
0.029363813 0.037958089 0.75200003 1.7697846e-38
0.030837135 0.038008574 0.75300002 1.8969149e-38
0.03235713 0.038109537 0.755 1.3638342e-38
0.033795245 0.038109519 0.75500005 8.2817258e-39
0.035139974 0.038008586 0.75300002 8.632901e-39
0.03667143 0.038109522 0.75500005 8.9325476e-39
0.038109507 0.038109526 0.75500005 1.1161816e-38
0.039704736 0.038260967 0.75799996 1.3275832e-38
0.041419983 0.038513351 0.76299995 1.2263493e-38
0.043098096 0.038715247 0.76699996 1.1250421e-38
0.044559032 0.038715243 0.76700002 1.0974904e-38
-0.040438078 0.040438104 0.77199996 6.0824523e-39
-0.038967624 0.040438108 0.77200001 8.1070665e-39
-0.037497163 0.040438101 0.77200001 6.8119711e-39
-0.03602666 0.040438112 0.77200001 5.6069889e-39
-0.034332376 0.040176194 0.76700002 5.3368634e-39
-0.032700028 0.039966676 0.76300001 5.0556298e-39
-0.031123817 0.039809529 0.76000005 5.1521401e-39
-0.029598113 0.039704759 0.75800002 5.246872e-39
-0.028154306 0.03970477 0.75799996 4.9706747e-39
-0.026710501 0.03970477 0.75799996 4.6901726e-39
-0.025200015 0.039600015 0.75599998 7.6429242e-39
-0.023728602 0.039547622 0.75500005 1.0691759e-38
-0.022290489 0.039547622 0.75500005 1.3271729e-38
-0.020769523 0.039390475 0.75200003 1.5851355e-38
-0.01933712 0.039390475 0.75200003 1.5194855e-38
-0.017809549 0.039180968 0.74800003 1.4638807e-38
-0.016384782 0.039180968 0.74800003 1.4352168e-38
-0.014939982 0.039128572 0.74700004 1.398626e-38
-0.013517118 0.039128579 0.74700004 1.4073074e-38
-0.012061906 0.039023817 0.74500006 1.4165281e-38
-0.010642872 0.039023817 0.74500006 1.471523e-38
-0.009223816 0.039023813 0.74500006 1.5353046e-38
-0.0078047807 0.039023824 0.74500006 1.5540295e-38
-0.0063857264 0.039023824 0.74500006 1.5722202e-38
-0.0049666925 0.03902382 0.74500006 1.5268433e-38
-0.0035476342 0.039023828 0.745 1.4724207e-38
-0.0021228597 0.038919058 0.74300003 1.4628396e-38
-0.00070763321 0.038919061 0.74300003 1.4633422e-38
0.00070761389 0.038919058 0.74300003 1.4910366e-38
0.0021228406 0.038919061 0.74300003 1.5205988e-38
0.0035333529 0.038866676 0.74200004 1.5105211e-38
0.0049533159 0.038919061 0.74300003 1.5020179e-38
0.0063600191 0.038866684 0.74200004 1.5749111e-38
0.0077733216 0.038866688 0.74200004 1.6492843e-38
0.0091990409 0.038919065 0.74300003 1.7046088e-38
0.01061429 0.038919065 0.74300003 1.7610341e-38
0.012029515 0.038919073 0.74300003 1.57553e-38
0.013444764 0.038919058 0.74300003 1.3928213e-38
0.014859986 0.03891905 0.74300003 1.4825697e-38
0.016275235 0.038919058 0.74300003 1.5638638e-38
0.017690461 0.03891905 0.74300003 1.4817551e-38
0.019105712 0.038919058 0.74300003 1.4081078e-38
0.020520935 0.038919058 0.74300003 1.4917287e-38
0.021995233 0.03902382 0.74500006 1.5838455e-38
0.023508551 0.039180975 0.74799997 1.0848069e-38
0.024999982 0.039285716 0.75000006 5.9722864e-39
0.026428556 0.039285712 0.75000006 1.1421179e-38
0.027931442 0.039390482 0.75200003 1.6963186e-38
0.029402813 0.039442852 0.75299996 1.760132e-38
0.030837139 0.03944286 0.75300002 1.8320932e-38
0.03235713 0.039547615 0.75500005 1.344109e-38
0.033795226 0.039547611 0.75500005 8.5447004e-39
0.035280008 0.039600007 0.75600004 9.1957493e-39
0.036720004 0.0396 0.75600004 9.8627394e-39
0.03810953 0.039547615 0.75500005 1.18965e-38
0.039809495 0.03980954 0.76000005 1.3831878e-38
0.041419975 0.039966688 0.76299995 1.2355711e-38
0.043098088 0.04017619 0.76699996 1.0974937e-38
0.044617116 0.040228583 0.76799995 1.0975282e-38
0.046079978 0.040228583 0.76800001 1.0975638e-38
-0.036026675 0.041908577 0.77200001 7.6381893e-39
-0.034332383 0.041637149 0.76700002 8.6613137e-39
-0.032700043 0.041420013 0.76299995 9.6567751e-39
-0.031123802 0.041257143 0.76000005 6.6243905e-39
-0.029676188 0.04125715 0.76000005 3.5909506e-39
-0.028154312 0.041148573 0.75799996 2.1126158e-39
-0.026710507 0.041148581 0.75799996 5.5322142e-40
-0.0252 0.04104 0.75600004 4.041192e-39
-0.02376 0.041040003 0.75600004 7.5596367e-39
-0.022290505 0.040985718 0.75500005 1.3010215e-38
-0.020797148 0.040877141 0.75300002 1.8428137e-38
-0.019337129 0.040822852 0.75200003 1.7329686e-38
-0.017809538 0.040605735 0.74799997 1.6206835e-38
-0.016384773 0.04060572 0.74800003 1.5466752e-38
-0.01494 0.040551435 0.74699998 1.4726338e-38
-0.01351712 0.040551424 0.74700004 1.4824641e-38
-0.012094256 0.040551435 0.74700004 1.4821412e-38
-0.010642872 0.040442869 0.74500006 1.6025677e-38
-0.0092238383 0.040442862 0.74500006 1.7120529e-38
-0.0078047826 0.040442862 0.74500006 1.7310659e-38
-0.0063857115 0.04044285 0.74500006 1.7488599e-38
-0.0049666553 0.040442858 0.74500006 1.6209009e-38
-0.0035476193 0.040442854 0.74500006 1.4915052e-38
-0.0021228653 0.040334299 0.74300003 1.4552724e-38
-0.00070761645 0.040334295 0.74300003 1.4180018e-38
0.0007076083 0.040334292 0.74300003 1.4373033e-38
0.0021228592 0.040334303 0.74300003 1.4463463e-38
0.0035333566 0.040280003 0.74200004 1.4110857e-38
0.0049466812 0.040280011 0.74200004 1.3723059e-38
0.0063599837 0.040280007 0.74200004 1.4553873e-38
0.0077733477 0.040280011 0.74200004 1.5380425e-38
0.0091990577 0.04033431 0.74300003 1.5572739e-38
0.010614282 0.040334303 0.74300003 1.5741653e-38
0.012029531 0.04033431 0.74300003 1.2055987e-38
0.013444758 0.040334288 0.74300003 8.3836408e-39
0.014860005 0.040334288 0.74300003 1.149923e-38
0.016275227 0.040334295 0.74300003 1.4538432e-38
0.017738108 0.040442873 0.74500006 1.4449129e-38
0.019157143 0.040442869 0.74500006 1.4360532e-38
0.020520953 0.040334295 0.74300003 1.5563732e-38
0.021995233 0.040442854 0.74500006 1.6745347e-38
0.023508536 0.040605739 0.74800003 1.2306342e-38
0.024933325 0.040605739 0.74800003 7.828012e-39
0.026428549 0.040714294 0.75000006 1.2721207e-38
0.027931433 0.04082286 0.75200003 1.759994e-38
0.029363835 0.040822864 0.75200003 1.7607444e-38
0.03083712 0.040877145 0.75300002 1.7588053e-38
0.032357115 0.040985715 0.75500005 1.3260644e-38
0.033795249 0.040985715 0.75500005 8.835994e-39
0.035279986 0.041040011 0.75599998 9.8346615e-39
0.036719978 0.041040014 0.75599998 1.0777157e-38
0.038260963 0.041148569 0.75800002 1.2638008e-38
0.039809514 0.041257162 0.76000005 1.4378585e-38
0.041420002 0.041420013 0.76300001 1.2536142e-38
0.043098077 0.041637152 0.76699996 1.060759e-38
0.044559039 0.041637145 0.76699996 1.0883807e-38
0.046019979 0.041637149 0.76700002 1.1159672e-38
-0.034242872 0.042985715 0.7650001 6.7213645e-39
-0.032700017 0.042873349 0.76300001 7.357704e-39
-0.031164797 0.042760961 0.76099998 5.7064054e-39
-0.029676212 0.042704776 0.76000005 4.052984e-39
-0.028154315 0.042592395 0.75799996 2.2076406e-39
-0.02671051 0.04259238 0.75799996 3.6806646e-40
-0.025200026 0.042480014 0.75599998 2.1165338e-39
-0.023760026 0.042480018 0.75599998 3.8732744e-39
-0.022290483 0.042423807 0.75500005 9.409261e-39
-0.020797145 0.042311434 0.75300002 1.503095e-38
-0.019337157 0.042255238 0.75200003 1.483651e-38
-0.017857136 0.042142857 0.75000006 1.4636313e-38
-0.016384764 0.042030491 0.74800003 1.3440274e-38
-0.014939982 0.041974287 0.74700004 1.2240335e-38
-0.013517141 0.041974287 0.74700004 1.2247171e-38
-0.012094299 0.041974291 0.74700004 1.2249669e-38
-0.010642836 0.04186191 0.74500006 1.2894656e-38
-0.0092238011 0.041861907 0.74500006 1.3640116e-38
-0.0078047453 0.041861907 0.74500006 1.4187195e-38
-0.0063857115 0.041861914 0.74500006 1.4651025e-38
-0.0049666553 0.041861914 0.74500006 1.2711347e-38
-0.0035476212 0.041861918 0.74500006 1.0776715e-38
-0.0021228485 0.041749537 0.74300003 1.0403645e-38
-0.00070762017 0.041749533 0.74300003 9.9470092e-39
0.00070762692 0.041749533 0.74300003 1.0314382e-38
0.0021228536 0.041749537 0.74300003 1.0582386e-38
0.0035333454 0.041693337 0.74200004 9.2977961e-39
0.0049466849 0.041693334 0.74200004 8.0852749e-39
0.0063685779 0.041749541 0.74300003 8.0996186e-39
0.0077837859 0.041749548 0.74299997 8.1978973e-39
0.0091990521 0.04174953 0.74300003 8.1935771e-39
0.01061426 0.041749533 0.74299997 8.1770123e-39
0.012029526 0.04174953 0.74300003 6.6196905e-39
0.013444736 0.041749541 0.74299997 5.0513727e-39
0.01486 0.04174953 0.74300003 9.7558497e-39
0.016275207 0.041749541 0.74299997 1.4454874e-38
0.017690435 0.041749537 0.74299997 1.4086086e-38
0.01910568 0.041749548 0.74299997 1.3715534e-38
0.020520929 0.041749548 0.74299997 1.4639287e-38
0.02199523 0.041861922 0.74500006 1.555796e-38
0.023508547 0.042030483 0.74799997 1.1781542e-38
0.02493331 0.042030487 0.74800003 8.1182307e-39
0.026428578 0.042142861 0.75000006 1.0693992e-38
0.027857114 0.042142864 0.75000006 1.3373358e-38
0.029363809 0.042255253 0.75199997 1.3182146e-38
0.03083712 0.042311441 0.75300002 1.2989473e-38
0.032357141 0.042423803 0.75500005 1.0870406e-38
0.033795211 0.042423807 0.75500005 8.8460413e-39
0.035279993 0.042480018 0.75599998 8.3739116e-39
0.036719993 0.042480003 0.75599998 8.0185129e-39
0.038260955 0.042592376 0.75800002 1.0419255e-38
0.039809491 0.04270478 0.76000005 1.2814867e-38
0.041311409 0.042760953 0.76099998 1.1802163e-38
0.042985715 0.04298573 0.76500005 1.0882732e-38
0.044442832 0.042985719 0.76499999 1.0791255e-38
0.045899961 0.042985722 0.76500005 1.0792333e-38
-0.035933316 0.044733331 0.77000004 4.4193128e-39
-0.034242857 0.04444287 0.76499999 4.6944802e-39
-0.032700025 0.044326685 0.76300001 4.9706663e-39
-0.03116479 0.044210482 0.76099998 4.6987107e-39
-0.029676197 0.044152386 0.76000005 4.4170889e-39
-0.028228583 0.044152394 0.76000005 2.2973237e-39
-0.026710477 0.044036195 0.75800002 9.2557165e-41
-0.025266672 0.044036184 0.75800002 1.8403673e-40
-0.023760013 0.043920003 0.75599998 1.9483374e-40
-0.022231469 0.043745726 0.75300002 5.9055314e-39
-0.020797143 0.043745734 0.75300002 1.151934e-38
-0.019337144 0.043687616 0.75200003 1.225726e-38
-0.017857144 0.043571431 0.75000006 1.2980456e-38
-0.016384752 0.043455236 0.74800003 1.1325972e-38
-0.014939986 0.043397147 0.74700004 9.6729335e-39
-0.013517121 0.043397155 0.74700004 9.673651e-39
-0.01209428 0.043397136 0.74700004 9.5803749e-39
-0.010642859 0.043280959 0.74500006 9.8472662e-39
-0.0092238029 0.043280963 0.74500006 1.0133899e-38
-0.0078047696 0.043280967 0.74500006 1.0962575e-38
-0.0063857115 0.043280967 0.74500006 1.1784414e-38
-0.0049666795 0.043280959 0.74500006 9.2087001e-39
-0.0035476231 0.043280959 0.74500006 6.6279848e-39
-0.0021228895 0.043164782 0.74300003 6.1541049e-39
-0.00070764066 0.043164782 0.74299997 5.7093075e-39
0.00070758408 0.043164779 0.74300003 6.2632226e-39
0.0021228332 0.043164786 0.74299997 6.72277e-39
0.0035380821 0.043164786 0.74299997 4.5962155e-39
0.0049533066 0.04316479 0.74300003 2.3924943e-39
0.0063685556 0.043164786 0.74299997 1.6534775e-39
0.0077837803 0.043164786 0.74300003 9.2488501e-40
0.0091990298 0.043164775 0.74299997 7.3510856e-40
0.010614255 0.043164775 0.74300003 5.5212281e-40
0.012029503 0.043164782 0.74299997 1.1942216e-39
0.013444728 0.043164775 0.74300003 1.7521079e-39
0.014859977 0.043164775 0.74299997 8.0177842e-39
0.016275201 0.043164779 0.74300003 1.4270494e-38
0.01769045 0.043164782 0.74299997 1.3633031e-38
0.019208563 0.043397158 0.74699998 1.2983351e-38
0.020520926 0.043164782 0.74300003 1.3627618e-38
0.022054309 0.043397158 0.74700004 1.427403e-38
0.023508558 0.043455251 0.74799997 1.1327021e-38
0.024933321 0.043455254 0.74800003 8.2910977e-39
0.026428567 0.043571427 0.75000006 8.6552419e-39
0.027857142 0.043571424 0.75000006 9.0294054e-39
0.029363798 0.043687619 0.75200003 8.6660151e-39
0.030837124 0.043745719 0.75300002 8.294706e-39
0.032357123 0.043861896 0.75500005 8.5691167e-39
0.033795238 0.043861896 0.75500005 8.7402026e-39
0.035233308 0.043861907 0.75500005 6.9798733e-39
0.036720008 0.043920003 0.75600004 5.1579512e-39
0.038160007 0.04392001 0.75600004 8.2047454e-39
0.039861873 0.044210482 0.76099998 1.1153188e-38
0.041311435 0.044210486 0.76099998 1.115859e-38
0.042873323 0.044326678 0.76300001 1.1158589e-38
0.04444284 0.044442866 0.76500005 1.0790169e-38
0.045899991 0.04444287 0.76500005 1.0331715e-38
-0.035933353 0.046200007 0.76999998 4.3270905e-39
-0.03424285 0.045899998 0.76500005 3.9593912e-39
-0.032614321 0.045660008 0.76099998 3.5905919e-39
-0.031164784 0.045660008 0.76099998 5.7939039e-39
-0.029676218 0.045600012 0.76000005 7.9968726e-39
-0.028228564 0.045600008 0.76000005 6.9938484e-39
-0.026710482 0.045480002 0.75800002 5.9696674e-39
-0.025266675 0.045480009 0.75800002 3.1234845e-39
-0.02376 0.04536001 0.75600004 2.7591006e-40
-0.022231469 0.045180008 0.75299996 3.8708096e-39
-0.020769516 0.045120005 0.75200003 7.4649706e-39
-0.019337134 0.045119993 0.75200003 8.2879223e-39
-0.017857175 0.045000009 0.75000006 9.2023382e-39
-0.016384766 0.044879999 0.74800003 8.0120697e-39
-0.014940005 0.044820003 0.74699998 6.7378326e-39
-0.013517125 0.044820003 0.74700004 7.1912493e-39
-0.012094258 0.044820003 0.74700004 7.652582e-39
-0.01064286 0.044700015 0.74500006 8.9336168e-39
-0.0092238253 0.044700008 0.74500006 1.0217876e-38
-0.0078047696 0.044700008 0.74500006 1.0494096e-38
-0.0063857357 0.044700012 0.74500006 1.0753797e-38
-0.0049666795 0.044700012 0.74500006 7.7249983e-39
-0.0035476454 0.044700012 0.74500006 4.6879697e-39
-0.0021228727 0.044580005 0.74300003 4.965986e-39
-0.0007076239 0.044580009 0.74299997 5.2483406e-39
0.00070760085 0.044580009 0.74300003 6.7234805e-39
0.0021228499 0.044580013 0.74299997 8.2046796e-39
0.0035380747 0.044580005 0.74300003 8.1964203e-39
0.0049533234 0.044580016 0.74299997 8.184173e-39
0.0063685481 0.044580009 0.74300003 5.9721785e-39
0.0077837971 0.044580013 0.74300003 3.7656155e-39
0.0091990242 0.044580013 0.74300003 3.8603208e-39
0.010614271 0.044580013 0.74300003 3.9492865e-39
0.01202952 0.04458002 0.74299997 3.0309315e-39
0.013444745 0.044580016 0.74300003 2.0207943e-39
0.014859994 0.044580016 0.74300003 4.7920554e-39
0.016319025 0.044700019 0.74500006 7.6597819e-39
0.017785719 0.044819999 0.74700004 9.0269307e-39
0.019208584 0.044820011 0.74700004 1.0406566e-38
0.020576188 0.044700015 0.74500006 1.2994412e-38
0.022054268 0.044820003 0.74700004 1.566481e-38
0.023508543 0.044879999 0.74800003 1.1512836e-38
0.024933333 0.044880006 0.74800003 7.4512645e-39
0.02642856 0.045000013 0.75 6.8066195e-39
0.027857134 0.045000013 0.75000006 6.1580495e-39
0.029363811 0.045120001 0.75200003 8.5619322e-39
0.030837128 0.045180012 0.75300002 1.1035387e-38
0.032357145 0.045299999 0.75500005 9.8468991e-39
0.033839989 0.045360014 0.75599998 8.7283518e-39
0.035279982 0.045360014 0.75599998 6.4299323e-39
0.036817145 0.045479998 0.75800002 4.1330233e-39
0.03836187 0.045600008 0.76000005 7.6414795e-39
0.039861906 0.045660015 0.76099998 1.1148851e-38
0.041311443 0.045660019 0.76099998 1.12497e-38
0.042873308 0.045780014 0.76299995 1.1434804e-38
0.044326656 0.045780018 0.76299995 1.1066025e-38
0.045900002 0.045899998 0.76500005 1.0789092e-38
-0.034242839 0.047357149 0.76500005 3.2250366e-39
-0.032614313 0.047109522 0.76099998 2.2105679e-39
-0.031164778 0.047109526 0.76100004 6.8899001e-39
-0.029715242 0.047109526 0.76100004 1.1508235e-38
-0.028228588 0.04704763 0.76000005 1.1711293e-38
-0.026710486 0.046923805 0.75800002 1.1874818e-38
-0.025266679 0.046923812 0.75800002 6.0647315e-39
-0.023760024 0.046800006 0.75599998 2.7660511e-40
-0.022290491 0.046738099 0.75500005 1.8371135e-39
-0.020797161 0.046614286 0.75300002 3.3136785e-39
-0.019337121 0.046552386 0.75200003 4.410706e-39
-0.017857147 0.046428569 0.75000006 5.4341878e-39
-0.016384793 0.046304777 0.74799997 4.5983595e-39
-0.014960028 0.046304777 0.74800003 3.7865088e-39
-0.013517144 0.046242863 0.74700004 4.7919979e-39
-0.012094303 0.046242859 0.74700004 5.7125137e-39
-0.010642862 0.04611906 0.74500006 8.0170177e-39
-0.009223829 0.04611906 0.74500006 1.0311846e-38
-0.0078047956 0.046119064 0.74500006 1.0041378e-38
-0.0063857394 0.046119068 0.74500006 9.7529224e-39
-0.0049666683 0.046119045 0.74500006 6.2491494e-39
-0.00354761 0.046119045 0.74500006 2.6679392e-39
-0.002122856 0.045995262 0.74300003 3.6817323e-39
-0.00070763135 0.045995258 0.74300003 4.6944465e-39
0.00070761761 0.045995265 0.74300003 7.1772461e-39
0.0021228443 0.045995262 0.74300003 9.5789736e-39
0.0035380914 0.045995247 0.74300003 1.1799899e-38
0.0049533178 0.04599525 0.74300003 1.3888741e-38
0.0063685668 0.04599525 0.74300003 1.0285936e-38
0.0077837915 0.045995243 0.74300003 6.624368e-39
0.0091990409 0.045995254 0.74300003 6.9913639e-39
0.010614288 0.04599525 0.74300003 7.3637211e-39
0.012029515 0.045995258 0.74300003 4.8676526e-39
0.013444764 0.045995258 0.74300003 2.306683e-39
0.014939994 0.046242867 0.74700004 1.6534523e-39
0.016362874 0.046242848 0.74700004 9.2846393e-40
0.017785737 0.046242852 0.74700004 4.4085368e-39
0.019208578 0.046242855 0.74700004 7.8351838e-39
0.020631446 0.046242855 0.74700004 1.2461791e-38
0.022054289 0.046242859 0.74700004 1.6951999e-38
0.023508554 0.046304766 0.74800003 1.1791229e-38
0.02493334 0.04630477 0.74800003 6.630154e-39
0.026428569 0.046428569 0.75000006 4.961698e-39
0.027931441 0.046552379 0.75200003 3.3244573e-39
0.029402863 0.046614289 0.75300002 8.5712929e-39
0.03083713 0.046614293 0.75300002 1.3720181e-38
0.03235713 0.046738096 0.75500005 1.123847e-38
0.033840001 0.046800017 0.75599998 8.7434396e-39
0.035279997 0.046799999 0.75599998 5.969673e-39
0.036817133 0.046923805 0.75800002 3.1321501e-39
0.038361885 0.047047623 0.76000005 7.0796934e-39
0.039861914 0.047109529 0.76099998 1.1057031e-38
0.041311409 0.047109541 0.76099998 1.1348753e-38
0.042873297 0.047233343 0.76299995 1.1621726e-38
0.044326644 0.047233351 0.76299995 1.1433729e-38
0.045779966 0.047233351 0.76300001 1.115823e-38
-0.03433235 0.04894191 0.76700002 3.1274305e-39
-0.032700002 0.048686676 0.76300001 1.3811982e-39
-0.031164771 0.048559055 0.76100004 6.8203747e-39
-0.029676227 0.048495248 0.76000005 1.2271709e-38
-0.028228574 0.048495248 0.76000005 1.245434e-38
-0.026710492 0.048367623 0.75800002 1.273368e-38
-0.025266685 0.048367616 0.75799996 9.5813853e-39
-0.02376001 0.04824001 0.75599998 6.5206804e-39
-0.022290468 0.048176188 0.75500005 4.5002994e-39
-0.020797158 0.048048578 0.75300002 2.5717807e-39
-0.019337108 0.047984745 0.75200003 6.2638812e-39
-0.017857153 0.047857154 0.75000006 9.9534734e-39
-0.016428581 0.04785715 0.75000006 9.3981851e-39
-0.014999984 0.047857154 0.75000006 8.8446049e-39
-0.013535254 0.047729526 0.74800003 9.0228389e-39
-0.012094283 0.047665726 0.74700004 9.2757593e-39
-0.010671418 0.047665738 0.74699998 7.6349298e-39
-0.0092237918 0.047538098 0.74500006 5.9912544e-39
-0.0078047584 0.047538098 0.74500006 7.9234236e-39
-0.0063857022 0.047538102 0.74500006 9.9469854e-39
-0.0049666665 0.047538102 0.74500006 6.6243582e-39
-0.00354761 0.047538102 0.74500006 3.3990274e-39
-0.0021228616 0.047410484 0.74300003 4.0451353e-39
-0.00070761272 0.047410484 0.74300003 4.7830422e-39
0.00070951378 0.047538105 0.74500006 4.8780993e-39
0.0021285478 0.047538105 0.74500006 5.0722086e-39
0.0035380858 0.047410488 0.74300003 9.6765727e-39
0.0049533346 0.047410484 0.74300003 1.4263981e-38
0.0063685593 0.047410488 0.74300003 1.2423263e-38
0.0077838083 0.047410488 0.74300003 1.0597701e-38
0.0091990577 0.047410496 0.74300003 1.2163594e-38
0.010614282 0.047410488 0.74300003 1.383025e-38
0.012029531 0.047410496 0.74300003 1.2349387e-38
0.013444756 0.047410492 0.74300003 1.0969691e-38
0.014940011 0.047665719 0.74700004 9.2065099e-39
0.016362851 0.047665719 0.74700004 7.5330232e-39
0.017785719 0.047665726 0.74699998 9.2929644e-39
0.019208597 0.047665715 0.74700004 1.1135535e-38
0.020576185 0.047538098 0.74500006 1.3641041e-38
0.022054305 0.047665711 0.74700004 1.6135222e-38
0.023477146 0.047665711 0.74700004 1.3446796e-38
0.024933329 0.047729537 0.74800003 1.0765649e-38
0.026499046 0.047984745 0.75200003 9.8530522e-39
0.027968539 0.048048582 0.75300002 8.8511252e-39
0.029402865 0.048048582 0.75300002 1.2446354e-38
0.03091904 0.048176188 0.75500005 1.6045166e-38
0.032357153 0.048176184 0.75500005 1.354983e-38
0.033839989 0.048239999 0.75600004 1.1149479e-38
0.035280012 0.048240006 0.75600004 9.4856037e-39
0.03681713 0.048367627 0.75799996 7.8354823e-39
0.038361922 0.048495244 0.76000005 9.4867752e-39
0.039966658 0.048686679 0.76299995 1.1161079e-38
0.041419975 0.048686665 0.76300001 1.144099e-38
0.042873323 0.048686668 0.76300001 1.1810085e-38
0.044326633 0.048686683 0.76299995 1.1436961e-38
0.045779977 0.048686683 0.76299995 1.1158593e-38
-0.0374 0.050599996 0.76999998 6.3556901e-39
-0.035933353 0.050599996 0.77000004 5.5223421e-39
-0.034242861 0.050271444 0.76500005 3.0323678e-39
-0.032785732 0.050271425 0.76500005 5.6112194e-40
-0.031164782 0.05000858 0.76099998 6.8296751e-39
-0.029715268 0.05000858 0.76099998 1.2996696e-38
-0.028228596 0.04994287 0.76000005 1.3283734e-38
-0.026710495 0.049811434 0.75799996 1.3468404e-38
-0.025266688 0.049811438 0.75799996 1.3098115e-38
-0.023759997 0.049680013 0.75599998 1.2697015e-38
-0.022290483 0.049614284 0.75500005 7.2553657e-39
-0.020852411 0.049614292 0.75500005 1.8510999e-39
-0.019414296 0.049614284 0.75500005 8.119269e-39
-0.017904755 0.049417149 0.75200003 1.4368776e-38
-0.016472373 0.049417149 0.75200003 1.4104061e-38
-0.015039991 0.049417138 0.75200003 1.3819223e-38
-0.013571418 0.049285721 0.75000006 1.3362194e-38
-0.012142884 0.049285717 0.75000006 1.288646e-38
-0.010685728 0.0491543 0.74800003 7.2553839e-39
-0.0092485584 0.049088586 0.74700004 1.6699372e-39
-0.0078257183 0.049088586 0.74700004 5.8979742e-39
-0.0063857245 0.04895715 0.74500006 1.0037008e-38
-0.0049666683 0.048957154 0.74500006 7.0856951e-39
-0.0035476361 0.048957158 0.74500006 4.0519148e-39
-0.0021228839 0.048825733 0.74299997 4.4085158e-39
-0.00070762017 0.048825722 0.74300003 4.7783619e-39
0.00070951192 0.048957165 0.74500006 2.6639875e-39
0.0021285478 0.04895715 0.74500006 4.7467724e-40
0.0035380654 0.048825733 0.74299997 7.5693617e-39
0.0049533141 0.048825737 0.74299997 1.4545594e-38
0.0063685388 0.048825733 0.74299997 1.4545201e-38
0.0077837878 0.048825737 0.74299997 1.4458414e-38
0.0091990149 0.048825741 0.74299997 1.7326506e-38
0.010614262 0.048825741 0.74299997 2.0173802e-38
0.012029489 0.048825741 0.74299997 1.9913041e-38
0.013444736 0.048825726 0.74299997 1.9620286e-38
0.014899981 0.048957147 0.74500006 1.6852996e-38
0.016319036 0.04895715 0.74500006 1.4093261e-38
0.017785713 0.049088575 0.74700004 1.4278002e-38
0.019208578 0.049088575 0.74700004 1.4370928e-38
0.020576162 0.048957154 0.74500006 1.4831555e-38
0.022054302 0.049088571 0.74700004 1.519243e-38
0.023477167 0.049088579 0.74700004 1.5094845e-38
0.024933303 0.049154311 0.74799997 1.4914409e-38
0.026499059 0.049417142 0.75200003 1.465003e-38
0.027968543 0.049482856 0.75299996 1.4372374e-38
0.029402846 0.049482856 0.75300002 1.640926e-38
0.030919062 0.049614288 0.75500005 1.8339967e-38
0.032399971 0.049680009 0.75599998 1.5949744e-38
0.033839967 0.049680009 0.75599998 1.3445761e-38
0.035373323 0.04981143 0.75799996 1.2987271e-38
0.036914285 0.049942873 0.76000005 1.2522003e-38
0.0383619 0.049942866 0.76000005 1.1870195e-38
0.039861888 0.050008588 0.76099998 1.1155699e-38
0.041419964 0.050140016 0.76300001 1.1535336e-38
0.042873312 0.05014002 0.76300001 1.1901211e-38
0.044326659 0.050140008 0.76300001 1.1528457e-38
0.045779966 0.05014002 0.76299995 1.1159682e-38
-0.040438093 0.052201919 0.77200001 8.109942e-39
-0.039018102 0.052269537 0.773 7.7390015e-39
-0.0374 0.052066669 0.77000004 8.107407e-39
-0.035793353 0.051863801 0.76700002 8.5647656e-39
-0.034242854 0.051728565 0.76500005 5.1542714e-39
-0.032785762 0.05172858 0.76500005 1.654167e-39
-0.031246679 0.051593345 0.76300001 4.7945581e-39
-0.029715259 0.051458094 0.76099998 7.9381989e-39
-0.028228581 0.051390484 0.76000005 9.6910327e-39
-0.026710501 0.051255237 0.75799996 1.1452368e-38
-0.025266694 0.051255245 0.75799996 1.1160318e-38
-0.023822889 0.051255248 0.75799996 1.0873258e-38
-0.022320025 0.051120013 0.75599998 6.9052443e-39
-0.020880027 0.051120017 0.75599998 2.8659664e-39
-0.019414311 0.051052388 0.75500005 5.5378531e-39
-0.017857132 0.050714284 0.75000006 8.2168961e-39
-0.016428558 0.05071428 0.75000006 1.087872e-38
-0.015039978 0.050849516 0.75200003 1.3547737e-38
-0.01357145 0.050714292 0.75000006 1.4200319e-38
-0.012142855 0.050714295 0.75000006 1.4856678e-38
-0.01071428 0.050714295 0.75000006 1.1611822e-38
-0.0092485622 0.050511431 0.74700004 8.3817925e-39
-0.0078256959 0.050511438 0.74700004 1.0500822e-38
-0.0064028553 0.050511442 0.74700004 1.2625601e-38
-0.00497999 0.050511446 0.74700004 1.1052924e-38
-0.0035619468 0.050579067 0.74799997 9.579977e-39
-0.0021286022 0.050376199 0.74500006 6.5321948e-39
-0.00070950703 0.050376195 0.74500006 3.5837676e-39
0.00070952682 0.050376195 0.74500006 1.9296468e-39
0.002128585 0.050376199 0.74500006 3.6775957e-40
0.0035476189 0.050376199 0.74500006 6.2696574e-39
0.0049533085 0.050240971 0.74300003 1.2252228e-38
0.0063685556 0.050240975 0.74299997 1.1233775e-38
0.0077837822 0.050240975 0.74300003 1.0128906e-38
0.0091990316 0.050240979 0.74299997 1.179094e-38
0.010614256 0.050240979 0.74300003 1.337017e-38
0.012029505 0.050240979 0.74299997 1.6501276e-38
0.01344473 0.050240964 0.74300003 1.9633322e-38
0.014859979 0.050240964 0.74299997 1.889644e-38
0.016319035 0.050376207 0.745 1.8259678e-38
0.017738068 0.050376207 0.74500006 1.7513144e-38
0.019208575 0.050511423 0.74700004 1.6779085e-38
0.020576198 0.050376207 0.74500006 1.482964e-38
0.02199523 0.050376207 0.74500006 1.2871387e-38
0.023508562 0.050579052 0.74800003 1.316095e-38
0.02493331 0.05057906 0.74799997 1.3545149e-38
0.02642858 0.05071428 0.75000006 1.3170268e-38
0.027857155 0.050714284 0.75000006 1.2803636e-38
0.029402846 0.050917137 0.75300002 1.5487664e-38
0.030919047 0.05105238 0.75500005 1.8250993e-38
0.032357123 0.051052373 0.755 1.4370599e-38
0.033839978 0.051120002 0.75599998 1.0390115e-38
0.03528 0.051120006 0.75599998 1.0678547e-38
0.036817122 0.051255241 0.75799996 1.1058415e-38
0.038361914 0.051390477 0.76000005 1.0961886e-38
0.039861891 0.051458098 0.76099998 1.0974539e-38
0.041311428 0.051458105 0.76099998 1.134736e-38
0.042873301 0.051593348 0.76300001 1.1720778e-38
0.044326644 0.051593337 0.76300001 1.1438075e-38
0.045779992 0.051593341 0.76300001 1.1067143e-38
-0.040438108 0.053672388 0.77200001 8.7567449e-39
-0.039018091 0.05374191 0.773 8.2035866e-39
-0.037302878 0.053394288 0.76800001 9.9531329e-39
-0.035793316 0.05332477 0.76699996 1.1597159e-38
-0.034242883 0.05318572 0.76500005 7.181834e-39
-0.032785751 0.05318572 0.76500005 2.7629878e-39
-0.03124669 0.053046674 0.76300001 2.7554741e-39
-0.029793346 0.053046681 0.76300001 2.7723681e-39
-0.028228603 0.052838106 0.76000005 6.0888843e-39
-0.026710503 0.052699056 0.75799996 9.4003361e-39
-0.025266698 0.052699048 0.75799996 9.2177343e-39
-0.023760008 0.052560013 0.75599998 9.0221859e-39
-0.02232001 0.052560005 0.75599998 6.4425005e-39
-0.020880012 0.052560005 0.75599998 3.8682494e-39
-0.019362884 0.052351438 0.75299996 2.949191e-39
-0.017904753 0.052281905 0.75200003 1.9480151e-39
-0.016472371 0.052281905 0.75200003 7.5536139e-39
-0.015039966 0.052281905 0.75200003 1.3174275e-38
-0.013571458 0.052142859 0.75000006 1.5034345e-38
-0.012142861 0.052142862 0.75000006 1.6783098e-38
-0.010714287 0.052142862 0.75000006 1.5953641e-38
-0.0092857135 0.052142862 0.75000006 1.5100531e-38
-0.0078571783 0.05214287 0.75000006 1.5097258e-38
-0.0064285821 0.05214287 0.75000006 1.5100174e-38
-0.0049866638 0.052003823 0.74800003 1.5103448e-38
-0.0035619356 0.052003819 0.74799997 1.5094823e-38
-0.002128565 0.051795248 0.74500006 8.7402208e-39
-0.00070953125 0.051795233 0.74500006 2.304895e-39
0.00070952682 0.05179524 0.74500006 1.2860697e-39
0.0021285608 0.051795237 0.74500006 1.8944014e-40
0.003547617 0.051795244 0.74500006 5.0725225e-39
0.0049666506 0.051795244 0.74500006 9.9441156e-39
0.0063857068 0.051795248 0.74500006 7.9169257e-39
0.007783799 0.051656201 0.74300003 5.797899e-39
0.0092485556 0.051934287 0.74700004 6.1541259e-39
0.010642833 0.051795252 0.74500006 6.5473919e-39
0.012061889 0.051795259 0.74500006 1.3088615e-38
0.01348096 0.051795252 0.74500006 1.9634408e-38
0.014959973 0.052003831 0.74799997 2.1023064e-38
0.016384738 0.052003827 0.74800003 2.2302275e-38
0.017809525 0.052003816 0.74800003 2.0734943e-38
0.019234253 0.052003819 0.74799997 1.9166861e-38
0.020659016 0.052003819 0.74800003 1.4836896e-38
0.022142867 0.052142855 0.75000006 1.0499463e-38
0.023508573 0.052003816 0.74800003 1.1315936e-38
0.024999978 0.052142866 0.75000006 1.2148905e-38
0.02653428 0.052351445 0.75300002 1.1682184e-38
0.027968545 0.052351445 0.75299996 1.114952e-38
0.029480955 0.052490473 0.75500005 1.4669815e-38
0.030919028 0.052490477 0.755 1.8141936e-38
0.032357145 0.052490477 0.75500005 1.2800001e-38
0.033839993 0.052560005 0.75600004 7.3620059e-39
0.035279993 0.052560009 0.75600004 8.4619103e-39
0.036817119 0.052699059 0.75799996 9.48249e-39
0.038361892 0.052838102 0.75999999 1.0128553e-38
0.039861899 0.052907631 0.76099998 1.0784033e-38
0.041420005 0.053046674 0.76300001 1.1158627e-38
0.042873312 0.053046688 0.76299995 1.152919e-38
0.044442836 0.053185713 0.76500005 1.1251884e-38
0.045899991 0.053185724 0.76500005 1.097566e-38
-0.037302896 0.054857146 0.76799995 9.1209214e-39
-0.035793327 0.054785714 0.76699996 1.0403324e-38
-0.034242876 0.05464286 0.76500005 6.9074107e-39
-0.032785743 0.05464286 0.76500005 3.4090439e-39
-0.031246705 0.05450001 0.76299995 2.5746239e-39
-0.029793359 0.054500014 0.76300001 1.8370701e-39
-0.028265746 0.054357141 0.76099998 5.4304926e-39
-0.026710508 0.054142866 0.75799996 9.0967658e-39
-0.025266664 0.054142863 0.75800002 8.8345604e-39
-0.023759995 0.054000016 0.75599998 8.5450578e-39
-0.022290492 0.05392858 0.755 5.6988693e-39
-0.02085238 0.053928576 0.75500005 2.8483591e-39
-0.01936288 0.053785726 0.75299996 1.9317754e-39
-0.01790474 0.053714279 0.75200003 1.1024505e-39
-0.016472397 0.053714294 0.75200003 5.7086377e-39
-0.015000001 0.053571433 0.75000006 1.0316951e-38
-0.013571427 0.053571437 0.75000006 1.3368722e-38
-0.012142855 0.053571422 0.75000006 1.6420446e-38
-0.010685722 0.053428583 0.74800003 1.4929899e-38
-0.0092609953 0.05342859 0.74799997 1.3530757e-38
-0.0078571504 0.053571429 0.75000006 1.1596744e-38
-0.0064114421 0.053428575 0.74800003 9.7683717e-39
-0.0049866545 0.053428579 0.74800003 1.0688965e-38
-0.0035619282 0.053428583 0.74799997 1.1619117e-38
-0.0021285668 0.053214293 0.74500006 9.9491771e-39
-0.00070953311 0.053214293 0.74500006 8.1902672e-39
0.0007095231 0.053214297 0.74500006 5.6155985e-39
0.0021285571 0.053214297 0.74500006 2.939096e-39
0.0035476151 0.0532143 0.74500006 5.3382983e-39
0.0049666488 0.053214304 0.74500006 7.8307949e-39
0.0063856808 0.0532143 0.74500006 5.5230932e-39
0.007804737 0.053214304 0.74500006 3.2153536e-39
0.0092238104 0.053214297 0.74500006 5.0531243e-39
0.010671415 0.053357139 0.74700004 6.9850006e-39
0.012061902 0.053214304 0.74500006 1.3646404e-38
0.013480959 0.053214289 0.74500006 2.0292692e-38
0.014959982 0.053428579 0.74799997 2.056e-38
0.016384745 0.053428579 0.74800003 2.0926219e-38
0.017809512 0.053428575 0.74800003 2.0831466e-38
0.019234261 0.053428587 0.74799997 2.0643455e-38
0.020659028 0.053428587 0.74800003 1.5944385e-38
0.022142837 0.053571437 0.75000006 1.114663e-38
0.023508541 0.053428579 0.74799997 1.0213498e-38
0.025000004 0.053571422 0.75000006 9.2969245e-39
0.026499055 0.053714287 0.75200003 8.0983855e-39
